# .PCD v0.7 - Point Cloud Data file format
VERSION 0.7
FIELDS x y z intensity
SIZE 4 4 4 4
TYPE F F F F
COUNT 1 1 1 1
WIDTH 134
HEIGHT 1
VIEWPOINT 0 0 0 1 0 0 0
POINTS 134
DATA ascii
0.00017031819 0.97585136 0.017033549 88
0.0035840033 0.97784448 0.017068453 100
0.0069257487 0.9678278 0.016893929 93
0.010233918 0.99379593 0.017347692 100
0.013537424 0.9817571 0.017138263 100
0.01675701 0.96970749 0.016928835 99
0.020266408 0.97564089 0.017033549 86
0.023597956 0.97956651 0.017103359 79
0.027127411 0.9834761 0.017173167 88
0.030435991 0.97937793 0.017103359 88
0.033578109 0.97127169 0.016963739 76
0.036740076 0.96515381 0.016859025 78
0.040524073 0.97500956 0.017033549 79
0.044197291 0.98085517 0.017138263 70
0.047620844 0.98069495 0.017138263 64
0.05062798 0.97253478 0.016998643 85
0.054577097 0.98233521 0.017173167 100
0.057246592 0.97216761 0.016998643 100
0.061262324 0.98194093 0.017173167 100
0.065215498 0.98970258 0.017312787 100
0.067839123 0.97749954 0.017103359 100
0.070669182 0.96927917 0.016963739 100
0.074509278 0.97500825 0.017068453 100
0.077752911 0.97274888 0.017033549 100
0.08097823 0.97248566 0.017033549 100
0.083334982 0.96024382 0.016824121 100
0.086877808 0.96394545 0.016893929 58
0.090597056 0.96561152 0.016928835 25
0.13402569 1.3792926 0.024189034 28
0.12483096 1.2375306 0.021710794 40
0.10094999 0.96860528 0.016998643 38
0.10621605 0.98413396 0.017277882 42
0.19266957 0.61859077 0.011309159 22
0.19652279 0.62367022 0.011413874 27
0.19880734 0.62294573 0.011413874 31
0.19595771 0.607059 0.011134636 31
0.20315143 0.62154263 0.011413874 40
0.2070941 0.62656152 0.011518588 33
0.20547487 0.614456 0.011309159 27
0.2081518 0.61566561 0.011344064 27
0.20652249 0.60354656 0.011134636 29
0.2085228 0.60285842 0.011134636 31
0.2105208 0.60216361 0.011134636 31
0.21584748 0.61088949 0.011309159 38
0.22088525 0.61758775 0.011448778 42
0.21681499 0.59992605 0.011134636 38
0.21822158 0.5972873 0.011099731 36
0.22158596 0.60031235 0.01116954 36
0.22588271 0.60511643 0.011274255 31
0.22788811 0.60436404 0.011274255 29
0.22429983 0.58861589 0.010995016 33
0.22768703 0.59160137 0.011064826 29
0.22985382 0.59076291 0.011064826 29
0.23473668 0.59744215 0.011204445 31
0.2330294 0.5873667 0.011029921 40
0.23125792 0.57730919 0.010855397 42
0.23787467 0.58757913 0.011064826 38
0.24057838 0.58863813 0.011099731 49
0.2457875 0.59514552 0.01123935 56
0.2492986 0.59801865 0.011309159 56
0.24905692 0.59161568 0.011204445 63
0.2517994 0.59262699 0.01123935 67
0.25407305 0.59165579 0.01123935 67
0.26080447 0.60181886 0.011448778 67
0.25809443 0.58991265 0.01123935 60
0.25772825 0.58352047 0.011134636 56
0.25894925 0.58079094 0.011099731 54
0.26589906 0.59082466 0.011309159 54
0.26630574 0.58625162 0.01123935 51
0.26668373 0.58168292 0.01116954 47
0.26273534 0.5680905 0.010925206 47
0.26471674 0.5671699 0.010925206 47
0.27606758 0.5861423 0.011309159 51
0.27553681 0.5797568 0.011204445 49
0.27755886 0.57879144 0.011204445 45
0.2734808 0.56521863 0.010960111 49
0.27623057 0.56610578 0.010995016 57
0.28262091 0.5741086 0.01116954 56
0.28818101 0.58028251 0.011309159 60
0.29199618 0.58284879 0.011378969 76
0.28871703 0.57106715 0.01116954 83
0.2898002 0.56827444 0.011134636 85
0.29534054 0.57442391 0.011274255 85
0.29841679 0.57057613 0.01123935 92
0.29201019 0.55361241 0.010925206 92
0.29957554 0.56318247 0.011134636 94
-1.1524398 0.16237511 0.0203146 24
-1.1083527 0.15991352 0.019546695 5
-1.0444586 0.15460478 0.018429741 6
-1.0162599 0.15387629 0.017941074 3
-1.1105094 0.17251137 0.019616505 48
-0.1477869 0.98886526 0.017452406 6
-0.14387321 0.98742145 0.017417502 9
-0.14257033 1.0017513 0.017661836 11
-0.14044693 1.0121465 0.01783636 19
-0.13682148 1.010625 0.017801454 23
-0.13337745 1.0131023 0.01783636 26
-0.13052602 1.0175059 0.017906168 25
-0.1260543 1.0120244 0.017801454 21
-0.12438171 1.0263331 0.018045789 22
-0.11921933 1.0148658 0.01783636 25
-0.11522332 1.0113021 0.01776655 28
-0.11235082 1.017661 0.017871264 27
-0.1107103 1.0359423 0.018185407 31
-0.11367123 1.0999738 0.019302361 41
-0.11122118 1.1142925 0.019546695 30
-0.10963084 1.1385598 0.019965554 25
-0.10436287 1.1249975 0.019721219 31
-0.093685411 1.0476593 0.018359931 22
-0.086775869 1.0101252 0.01769674 24
-0.082417585 1.0024645 0.01755712 29
-0.078447148 0.99676549 0.017452406 34
-0.075742453 1.0049963 0.017592026 34
-0.072807185 1.0132328 0.017731644 37
-0.068860821 1.0074956 0.01762693 34
-0.064696625 0.99775237 0.017452406 37
-0.0604054 0.98199403 0.017173167 41
-0.058019497 1.0001659 0.017487312 38
-0.054745588 1.0043558 0.01755712 38
-0.051239401 1.0045408 0.01755712 38
-0.046878524 0.9867366 0.017242977 41
-0.043258037 0.98289871 0.017173167 41
-0.040231563 0.99303401 0.017347692 39
-0.037060879 1.0011617 0.017487312 43
-0.033673353 0.99928051 0.017452406 41
-0.029873686 0.98339647 0.017173167 32
-0.026333326 0.97949684 0.017103359 33
-0.023320615 0.98957449 0.017277882 34
-0.019678503 0.99765396 0.017417502 31
-0.016238831 0.98971599 0.017277882 28
-0.012662186 0.99376792 0.017347692 31
-0.0092535857 0.98180681 0.017138263 29
-0.0058026509 0.97783381 0.017068453 26
-0.0026071218 0.9958449 0.017382598 27
