# .PCD v0.7 - Point Cloud Data file format
VERSION 0.7
FIELDS x y z intensity
SIZE 4 4 4 4
TYPE F F F F
COUNT 1 1 1 1
WIDTH 135
HEIGHT 1
VIEWPOINT 0 0 0 1 0 0 0
POINTS 135
DATA ascii
0.11952478 0.68555254 0.012146875 25
0.12016539 0.67528731 0.011972351 25
0.12276093 0.6768527 0.012007256 31
0.12548657 0.67838639 0.01204216 42
0.12637144 0.670084 0.011902541 25
0.12821573 0.66769743 0.011867637 21
0.13131356 0.67117083 0.011937446 25
0.13392898 0.67269284 0.011972351 29
0.134123 0.66041553 0.011762922 27
0.1359078 0.65800875 0.011728018 34
0.13955359 0.66337681 0.011832732 40
0.14217082 0.66486585 0.011867637 34
0.14333077 0.6584785 0.011762922 29
0.14162746 0.64042687 0.011448778 22
0.14649372 0.65163463 0.011658208 21
0.14598338 0.63944805 0.011448778 24
0.15420488 0.6642313 0.011902541 25
0.15227866 0.64619881 0.011588397 24
0.15185127 0.63396823 0.011378969 24
0.15206376 0.62568867 0.01123935 22
0.15914966 0.64454097 0.011588397 24
0.16031456 0.6401301 0.011518588 22
0.16156292 0.63569045 0.011448778 24
0.16367005 0.63515121 0.011448778 24
0.16751516 0.64035082 0.011553493 29
0.16861272 0.63592601 0.011483683 29
0.17146195 0.63723475 0.011518588 27
0.17357416 0.63666266 0.011518588 24
0.17568445 0.63608354 0.011518588 24
0.17639633 0.6296587 0.011413874 29
0.17979594 0.63285506 0.011483683 27
0.18432842 0.63987803 0.011623302 27
0.18454844 0.63356864 0.011518588 27
0.18347172 0.62138093 0.011309159 24
0.18678555 0.6245684 0.011378969 24
0.18965344 0.62579334 0.011413874 33
0.19172761 0.62516099 0.011413874 29
0.19639094 0.63209265 0.011553493 29
0.19368872 0.61617655 0.011274255 29
0.19594581 0.61546254 0.011274255 31
0.19899565 0.61868572 0.011344064 38
0.20683533 0.63506472 0.011658208 46
0.21081685 0.64007336 0.011762922 53
0.2081012 0.62412018 0.011483683 63
0.20889209 0.61963683 0.011413874 63
0.21439055 0.62832987 0.011588397 60
0.21701513 0.62954372 0.011623302 65
0.2206383 0.63252038 0.011693113 59
0.21885362 0.62043148 0.011483683 63
0.22247039 0.62339187 0.011553493 63
0.22578378 0.62645239 0.011623302 65
0.22602357 0.61998439 0.011518588 67
0.2321151 0.63053077 0.011728018 70
0.22873573 0.61472344 0.011448778 67
0.23158403 0.61579293 0.011483683 69
0.23657386 0.6224578 0.011623302 72
0.2373113 0.61789471 0.011553493 72
0.24308403 0.62638378 0.011728018 63
0.24067476 0.61444527 0.011518588 76
0.24134648 0.60988259 0.011448778 74
0.2427316 0.60717964 0.011413874 69
0.24634713 0.61003709 0.011483683 72
0.24998555 0.61287659 0.011553493 72
0.24755314 0.60090661 0.011344064 65
0.25184795 0.60562164 0.011448778 67
0.25705752 0.61211365 0.011588397 74
0.25841191 0.60937166 0.011553493 69
0.2589632 0.60478938 0.011483683 63
0.25313738 0.58552665 0.011134636 49
0.25517973 0.58463949 0.011134636 45
0.25802526 0.5855751 0.01116954 42
0.26088044 0.58649796 0.011204445 42
0.26282391 0.58562964 0.011204445 45
0.26156601 0.57742256 0.011064826 42
0.26357999 0.57650596 0.011064826 45
0.26642862 0.57739812 0.011099731 42
0.27181911 0.58371574 0.01123935 47
0.28491127 0.60629106 0.011693113 61
0.28616908 0.603486 0.011658208 100
0.29258937 0.61150259 0.011832732 100
0.27820379 0.576262 0.01116954 90
0.27846229 0.57169181 0.011099731 47
0.28035656 0.57076526 0.011099731 49
0.28323507 0.57157493 0.011134636 45
0.28522852 0.57058281 0.011134636 40
0.28631812 0.56779814 0.011099731 36
0.28648517 0.56323051 0.011029921 45
0.28936228 0.56400627 0.011064826 40
0.28489611 0.55056071 0.010820492 23
0.285891 0.54779011 0.010785587 16
0.29691827 0.56458795 0.011134636 11
-1.1840929 0.16704568 0.020873077 24
-1.1510074 0.16237816 0.060919054 30
-1.092464 0.15801039 0.019267457 4
-1.0286335 0.15226229 0.018150503 6
-1.0023932 0.15195565 0.01769674 4
-1.0374538 0.16079174 0.018325027 1
-0.29191154 1.1328154 0.020419316 1
-0.27042085 1.0640063 0.019162742 1
-0.25875187 1.0339524 0.018604266 1
-0.23132373 1.0281376 0.018394837 8
-0.22712208 1.0270261 0.018359931 7
-0.20912455 0.99408674 0.017731644 6
-0.18378453 1.0133115 0.017975979 7
-0.17534639 0.9863832 0.017487312 8
-0.17258844 0.99092937 0.01755712 9
-0.1691284 0.99152577 0.01755712 8
-0.16764244 1.0039444 0.01776655 8
-0.16413701 1.0045235 0.01776655 8
-0.15778935 0.98731858 0.017452406 9
-0.15482344 0.98981208 0.017487312 9
-0.15166955 0.99232322 0.017522216 9
-0.14803147 0.99287242 0.017522216 9
-0.14571671 1.0012985 0.017661836 9
-0.14109637 0.9938817 0.017522216 9
-0.13625544 0.98446405 0.017347692 9
-0.13468887 0.998806 0.017592026 11
-0.13146187 1.0012528 0.01762693 10
-0.12745926 0.99773836 0.01755712 9
-0.12397572 0.99817723 0.01755712 10
-0.1199453 0.99262708 0.017452406 9
-0.11741149 1.0009841 0.017592026 9
-0.11504681 1.0113221 0.01776655 9
-0.11085867 1.0057546 0.017661836 10
-0.10624789 0.99418652 0.017452406 11
-0.10318799 0.99852955 0.017522216 11
-0.099924028 1.0028807 0.017592026 16
-0.096040078 0.99924237 0.017522216 19
-0.09309537 1.0035377 0.017592026 17
-0.090125091 1.0098318 0.01769674 14
-0.087453611 1.0201021 0.017871264 11
-0.088643961 1.0781974 0.018883504 14
-0.087703906 1.1143838 0.019511791 20
-0.095508352 1.2702204 0.022234365 35
-0.10222577 1.426123 0.024956942 41
