# .PCD v0.7 - Point Cloud Data file format
VERSION 0.7
FIELDS x y z intensity
SIZE 4 4 4 4
TYPE F F F F
COUNT 1 1 1 1
WIDTH 82
HEIGHT 1
VIEWPOINT 0 0 0 1 0 0 0
POINTS 82
DATA ascii
0.0013765056 0.98584884 0.017208073 100
0.004759118 0.97384 0.016998643 88
0.0083625913 0.97781527 0.017068453 100
0.011799834 0.97977966 0.017103359 90
0.014987412 0.97573626 0.017033549 86
0.018506348 0.98167604 0.017138263 82
0.021709574 0.97160947 0.016963739 79
0.024997696 0.96752971 0.016893929 79
0.028492104 0.97143424 0.016963739 76
0.032104861 0.9833262 0.017173167 68
0.035248198 0.97521454 0.017033549 61
0.038324218 0.97109604 0.016963739 66
0.041797027 0.96895123 0.016928835 59
0.045195561 0.97280234 0.016998643 58
0.049061131 0.97862172 0.017103359 79
0.05262633 0.9844442 0.017208073 100
0.055493776 0.97427219 0.017033549 86
0.059085283 0.98007101 0.017138263 100
0.062932327 0.98383909 0.017208073 100
0.066463053 0.98761541 0.017277882 100
0.069940813 0.98537046 0.017242977 100
0.072022483 0.96917957 0.016963739 100
0.075081192 0.96694171 0.016928835 95
0.07844869 0.96868056 0.016963739 90
0.082336001 0.97237164 0.017033549 60
0.085209392 0.96810931 0.016963739 35
0.11574797 1.2645202 0.022164555 26
0.13882892 1.4632049 0.025655037 31
0.12280748 1.2457708 0.021850413 43
0.11984076 1.1757281 0.020628745 39
0.15343365 1.44767 0.025410704 41
-1.170174 0.1548875 0.061861102 22
-1.0964009 0.1490187 0.057988241 27
-1.1685096 0.16297567 0.020593839 21
-1.1659541 0.1667704 0.020558935 31
-1.0644588 0.15604679 0.01877879 6
-1.0204022 0.15322849 0.018010883 5
-1.0376494 0.15952413 0.018325027 1
-0.1492929 0.99066132 0.017487312 7
-0.14513265 0.9852159 0.017382598 10
-0.14214961 0.98767108 0.017417502 15
-0.14001979 1.0000919 0.01762693 20
-0.13859749 1.0144197 0.017871264 24
-0.13611078 1.0228262 0.018010883 27
-0.13066058 1.0074073 0.017731644 23
-0.12621756 1.0019274 0.01762693 20
-0.12484119 1.0182191 0.017906168 22
-0.12110839 1.0186697 0.017906168 25
-0.11795919 1.0210522 0.017941074 25
-0.11154953 0.99763 0.017522216 23
-0.11319989 1.0437193 0.018325027 26
-0.12061588 1.1495132 0.020174982 43
-0.12044076 1.1857172 0.020803269 29
-0.11979507 1.2239642 0.02146646 35
-0.1016215 1.0750432 0.0188486 23
-0.092253886 1.0156635 0.017801454 23
-0.088536747 1.0119797 0.017731644 27
-0.084326118 1.0063193 0.01762693 31
-0.080972917 1.0086007 0.017661836 33
-0.076533347 0.99691427 0.017452406 33
-0.07349132 1.0031585 0.01755712 35
-0.069919929 0.99739993 0.017452406 32
-0.067235187 1.0096096 0.017661836 37
-0.063332848 1.0038509 0.01755712 36
-0.058995768 0.99009281 0.017312787 37
-0.055427365 0.98829615 0.017277882 34
-0.052397247 0.99647135 0.017417502 39
-0.049114659 1.0006428 0.017487312 36
-0.045621466 1.0008081 0.017487312 38
-0.04111867 0.97698617 0.017068453 38
-0.037862327 0.98112011 0.017138263 38
-0.034890551 0.98923409 0.017277882 34
-0.031627793 0.99534595 0.017382598 33
-0.027700936 0.97945911 0.017103359 30
-0.024182707 0.97555166 0.017033549 30
-0.020606944 0.96763319 0.016893929 25
-0.01776311 0.9976899 0.017417502 29
-0.014394886 1.0057437 0.01755712 29
-0.01071099 0.98979127 0.017277882 28
-0.0071386416 0.97382551 0.016998643 26
-0.0037239562 0.96984512 0.016928835 25
-0.00034342849 0.98385006 0.017173167 27
