# .PCD v0.7 - Point Cloud Data file format
VERSION 0.7
FIELDS x y z intensity
SIZE 4 4 4 4
TYPE F F F F
COUNT 1 1 1 1
WIDTH 51
HEIGHT 1
VIEWPOINT 0 0 0 1 0 0 0
POINTS 51
DATA ascii
0.0019788996 0.75588226 0.013194019 11
0.0048372857 0.79186457 0.013822306 10
0.0073500983 0.77984655 0.013612877 12
0.0098656164 0.76381993 0.013333638 7
0.017351786 0.87969488 0.015358117 59
-1.197924 0.16921015 0.021117412 28
-1.1845988 0.16732793 0.062698476 31
-1.0904573 0.15791447 0.019232552 6
-1.016712 0.15086031 0.017941074 6
-1.0142022 0.15410797 0.017906168 4
-1.0847626 0.16889957 0.019162742 1
-0.16773024 0.87594992 0.015567547 6
-0.1628255 0.86670345 0.015393022 5
-0.16088621 0.87316632 0.015497737 8
-0.15321594 0.84814066 0.015043974 6
-0.13771187 0.82647777 0.014625116 3
-0.13836567 0.84866345 0.01500907 4
-0.13682696 0.85903889 0.015183593 5
-0.13013573 0.83580065 0.014764735 6
-0.12420994 0.81648028 0.014415688 6
-0.12253453 0.82482088 0.014555307 7
-0.1209478 0.83313847 0.014694926 12
-0.11916038 0.84147531 0.014834546 13
-0.11552917 0.83794451 0.014764735 13
-0.11153869 0.83041507 0.014625116 12
-0.10826506 0.82681489 0.014555307 10
-0.10487287 0.82322043 0.014485497 11
-0.10263465 0.82753265 0.014555307 10
-0.097831815 0.81200314 0.014276069 11
-0.095176376 0.81634527 0.014345878 11
-0.092693746 0.81864345 0.014380783 11
-0.089760117 0.81695861 0.014345878 11
-0.087897703 0.8252055 0.014485497 14
-0.08295387 0.80963749 0.014206259 11
-0.080663003 0.81388801 0.014276069 11
-0.077201128 0.80618864 0.014136449 11
-0.074343264 0.80444902 0.014101544 9
-0.072277904 0.81467545 0.014276069 11
-0.067874826 0.79498619 0.01392702 12
-0.065123409 0.79722267 0.013961925 10
-0.063416556 0.80939579 0.014171354 9
-0.060590848 0.80961221 0.014171354 14
-0.05719262 0.79983568 0.01399683 14
-0.053581197 0.79206884 0.013857211 14
-0.050954308 0.79224217 0.013857211 12
-0.048674084 0.80039924 0.01399683 13
-0.046019595 0.80055624 0.01399683 14
-0.043514878 0.80870676 0.014136449 14
-0.040127117 0.79486656 0.013892115 12
-0.037726827 0.80899745 0.014136449 21
-0.063857757 1.474393 0.025759751 21
