# .PCD v0.7 - Point Cloud Data file format
VERSION 0.7
FIELDS x y z intensity
SIZE 4 4 4 4
TYPE F F F F
COUNT 1 1 1 1
WIDTH 74
HEIGHT 1
VIEWPOINT 0 0 0 1 0 0 0
POINTS 74
DATA ascii
0.16310613 0.6394245 0.011518588 20
0.16322289 0.63113612 0.011378969 22
0.16796218 0.64023376 0.011553493 31
0.17059819 0.64160579 0.011588397 36
0.17387795 0.64486784 0.011658208 36
0.17571269 0.64229739 0.011623302 45
0.17581607 0.63397229 0.011483683 31
0.17802797 0.63335466 0.011483683 27
0.18023771 0.63272941 0.011483683 31
0.18244524 0.63209641 0.011483683 31
0.18184432 0.62185907 0.011309159 33
0.18628569 0.62888998 0.011448778 38
0.1884798 0.62823588 0.011448778 38
0.19241554 0.63331413 0.011553493 42
0.19286108 0.62690473 0.011448778 36
0.19315593 0.6205337 0.011344064 31
0.19652279 0.62367022 0.011413874 27
0.19444512 0.60964441 0.01116954 24
0.200872 0.62228304 0.011413874 27
0.20169328 0.61781156 0.011344064 29
0.20133971 0.60950863 0.011204445 29
0.20346606 0.60880214 0.011204445 27
0.20366853 0.60240513 0.011099731 27
0.21288791 0.6225037 0.011483683 29
0.21179119 0.61230761 0.011309159 36
0.21184069 0.60593891 0.011204445 38
0.21128841 0.5976544 0.011064826 42
0.21875815 0.61197728 0.011344064 45
0.22021334 0.60932928 0.011309159 47
0.22223274 0.60859567 0.011309159 51
0.22020105 0.59656036 0.011099731 47
0.22298108 0.59766167 0.011134636 45
0.22788811 0.60436404 0.011274255 42
0.2320262 0.60921127 0.011378969 42
0.22912355 0.59533387 0.011134636 45
0.23254536 0.59829849 0.011204445 45
0.22951581 0.58445388 0.010960111 35
0.23534518 0.59290189 0.011134636 38
0.23964609 0.59764493 0.01123935 38
0.24377267 0.60245013 0.011344064 38
0.24057838 0.58863813 0.011099731 42
0.24044429 0.58220756 0.010995016 42
0.24863321 0.59612954 0.011274255 45
0.24895366 0.59165913 0.011204445 45
0.25258139 0.59446746 0.011274255 45
0.25465491 0.59358215 0.011274255 54
0.25354612 0.5853498 0.011134636 58
0.2621021 0.59907281 0.011413874 72
0.26095995 0.59083736 0.011274255 72
0.26953521 0.60453391 0.011553493 78
0.26589906 0.59082466 0.011309159 83
0.2662034 0.58629805 0.01123935 74
0.26824835 0.5853653 0.01123935 72
0.27448708 0.59350026 0.011413874 76
0.27486563 0.58891445 0.011344064 76
0.2725583 0.57895356 0.01116954 83
0.27371949 0.57619238 0.011134636 85
0.27745783 0.5788399 0.011204445 85
0.2838299 0.58686888 0.011378969 92
0.28499979 0.58407742 0.011344064 87
0.2835041 0.57590264 0.011204445 94
0.28195485 0.56774557 0.011064826 96
0.28930911 0.5774852 0.011274255 94
0.29022059 0.57478839 0.01123935 99
0.29767039 0.58446324 0.011448778 100
0.29057127 0.56563336 0.011099731 99
0.29438385 0.56816667 0.01116954 100
0.29914376 0.57245255 0.011274255 100
0.29554623 0.56079054 0.011064826 94
-1.1845109 0.16794816 0.062698476 31
-1.08048 0.15704724 0.019058028 5
-1.0126771 0.15080357 0.017871264 6
-1.0378435 0.15825628 0.018325027 2
-1.084733 0.16908889 0.019162742 1
