# .PCD v0.7 - Point Cloud Data file format
VERSION 0.7
FIELDS x y z intensity
SIZE 4 4 4 4
TYPE F F F F
COUNT 1 1 1 1
WIDTH 97
HEIGHT 1
VIEWPOINT 0 0 0 1 0 0 0
POINTS 97
DATA ascii
0.12749003 0.66580045 0.011832732 27
0.13046238 0.66929954 0.011902541 29
0.13162957 0.66295588 0.011797827 23
0.13620292 0.67427635 0.012007256 40
0.13423902 0.65222758 0.011623302 29
0.13599154 0.64982152 0.011588397 24
0.13931991 0.65320599 0.011658208 23
0.14445052 0.66642058 0.011902541 31
0.14646134 0.66393393 0.011867637 34
0.14603876 0.65173674 0.011658208 34
0.14953032 0.65709841 0.011762922 42
0.14990783 0.6488055 0.011623302 42
0.1528556 0.6501717 0.011658208 31
0.15733133 0.65938669 0.011832732 27
0.15445225 0.6374554 0.011448778 22
0.15895195 0.64664918 0.011623302 27
0.15986763 0.64024186 0.011518588 24
0.16198987 0.63970822 0.011518588 27
0.16593993 0.64489132 0.011623302 27
0.16555387 0.63466281 0.011448778 27
0.16572228 0.62634832 0.011309159 24
0.17349528 0.64704144 0.011693113 27
0.17365427 0.6387133 0.011553493 27
0.1763024 0.64006186 0.011588397 27
0.17714347 0.63360262 0.011483683 29
0.17706434 0.62531555 0.011344064 29
0.17979755 0.62661582 0.011378969 33
0.18801136 0.64713937 0.011762922 29
0.18473268 0.62726355 0.011413874 29
0.18566915 0.62281477 0.011344064 27
0.18448079 0.61064464 0.011134636 31
0.18884335 0.61767876 0.011274255 29
0.19347262 0.62462312 0.011413874 27
0.19374892 0.61825353 0.011309159 22
0.19640237 0.61951387 0.011344064 27
0.19601314 0.61124241 0.011204445 27
0.20010497 0.61622572 0.011309159 33
0.20277126 0.61745858 0.011344064 33
0.20492536 0.61674702 0.011344064 29
0.20569578 0.61227292 0.011274255 33
0.20665094 0.60772842 0.011204445 38
0.2112653 0.61460418 0.011344064 45
0.22074322 0.63460135 0.011728018 51
0.22350965 0.63575238 0.011762922 61
0.22047716 0.61985642 0.011483683 69
0.22253147 0.61912185 0.011483683 69
0.22605716 0.62210023 0.011553493 65
0.22811887 0.62134719 0.011553493 65
0.23248285 0.62613082 0.011658208 63
0.23034428 0.61412251 0.011448778 67
0.23330274 0.61514384 0.011483683 72
0.23605667 0.61623418 0.011518588 74
0.23820628 0.61540645 0.011518588 76
0.24170178 0.61833805 0.011588397 76
0.23955745 0.60628933 0.011378969 74
0.24156666 0.60549158 0.011378969 74
0.24827109 0.61572981 0.011588397 76
0.24804971 0.60934675 0.011483683 78
0.24952067 0.60658419 0.011448778 76
0.25229767 0.60760021 0.011483683 78
0.25044626 0.59753895 0.011309159 76
0.25398457 0.60038853 0.011378969 76
0.25932676 0.60680884 0.011518588 76
0.26133758 0.60594553 0.011518588 74
0.25647151 0.58843929 0.011204445 72
0.26003155 0.59124655 0.011274255 69
0.26533955 0.59764594 0.011413874 69
0.26650247 0.5949378 0.011378969 74
0.27290735 0.60301918 0.011553493 69
0.26410863 0.57846296 0.011099731 51
0.266862 0.5794003 0.011134636 45
0.26793933 0.57669866 0.011099731 42
0.27259886 0.58114398 0.011204445 45
0.2728141 0.57662159 0.011134636 45
0.26975465 0.56479114 0.010925206 42
0.27509734 0.57109982 0.011064826 45
0.2744669 0.56474048 0.010960111 45
0.28601876 0.58357912 0.011344064 54
0.28726915 0.58073449 0.011309159 56
0.28651562 0.57441038 0.011204445 58
0.28502253 0.56621176 0.011064826 65
0.28870866 0.56882977 0.011134636 49
0.29545009 0.57661539 0.011309159 51
0.29460725 0.57030255 0.011204445 49
0.2882804 0.55330986 0.010890301 49
0.29476291 0.56120265 0.011064826 45
0.29494518 0.55658466 0.010995016 45
0.28897467 0.54531783 0.032343622 11
0.28513518 0.53378654 0.031715591 6
0.2986559 0.55005574 0.010925206 42
-1.0903599 0.148973 0.057674225 26
-1.1921595 0.16712277 0.021012697 23
-1.1076345 0.15527363 0.058616269 30
-1.1361471 0.1633165 0.020035362 4
-1.0366529 0.15270984 0.018290121 6
-1.0222722 0.15423916 0.018045789 5
-1.0652055 0.1645218 0.018813694 1
