# .PCD v0.7 - Point Cloud Data file format
VERSION 0.7
FIELDS x y z intensity
SIZE 4 4 4 4
TYPE F F F F
COUNT 1 1 1 1
WIDTH 93
HEIGHT 1
VIEWPOINT 0 0 0 1 0 0 0
POINTS 93
DATA ascii
0.038984586 0.74887174 0.013089305 5
0.038924366 0.70281571 0.012286494 12
0.042089544 0.71264941 0.012461018 16
0.045324162 0.72647661 0.012705352 20
0.048513848 0.73428702 0.012844971 30
0.050810121 0.73212719 0.012810066 33
0.052783772 0.72396779 0.012670447 24
0.054576155 0.7158131 0.012530828 24
0.057996023 0.72557497 0.012705352 32
0.059406161 0.71342188 0.012495923 22
0.062713556 0.72116804 0.012635542 22
0.063486062 0.70303178 0.012321399 26
0.066500112 0.70877874 0.012426114 22
0.069430336 0.71452528 0.012530828 24
0.072650813 0.72023481 0.012635542 30
0.074831508 0.71800101 0.012600637 26
0.075960569 0.70380491 0.012356304 20
0.076303527 0.68566227 0.01204216 19
0.07950145 0.69133782 0.012146875 19
0.083326496 0.70297086 0.012356304 20
0.08505287 0.69672084 0.012251589 18
0.085739657 0.682531 0.012007256 19
0.089160837 0.69217479 0.012181779 19
0.09131404 0.68987697 0.012146875 19
0.092644341 0.68162811 0.012007256 19
0.096128024 0.68922263 0.012146875 19
0.094968177 0.66313219 0.011693113 17
0.097863153 0.66675365 0.011762922 17
0.10126147 0.67433554 0.011902541 17
0.10543785 0.68583685 0.01211197 19
0.10577318 0.67161834 0.011867637 19
0.10620897 0.65939951 0.011658208 19
0.10980958 0.66691726 0.011797827 19
0.11412749 0.67836183 0.012007256 19
0.11524417 0.67208713 0.011902541 19
0.11689982 0.6677413 0.011832732 21
0.1174714 0.65748656 0.011658208 21
0.12120007 0.66494161 0.011797827 21
0.12521689 0.67233491 0.011937446 23
0.12905498 0.67975211 0.012077065 23
0.1296732 0.67148966 0.011937446 23
0.13008627 0.66122252 0.011762922 27
0.13082214 0.6529215 0.011623302 40
0.13629808 0.66813558 0.011902541 42
0.14147525 0.68136132 0.012146875 44
0.14302604 0.67695028 0.012077065 46
0.14130084 0.6568718 0.011728018 44
0.14487496 0.66223502 0.011832732 46
0.14738822 0.66372877 0.011867637 44
0.14970416 0.66321021 0.011867637 44
0.15291251 0.66658175 0.011937446 44
0.15160708 0.650464 0.011658208 48
0.15341599 0.64798492 0.011623302 49
0.15801443 0.65716684 0.011797827 48
0.16362739 0.67020971 0.01204216 55
0.16500375 0.66575253 0.011972351 53
0.16293615 0.64771897 0.011658208 48
0.16667992 0.65295899 0.011762922 51
0.16834326 0.65046674 0.011728018 48
0.17162834 0.65374345 0.011797827 48
0.17608273 0.66083914 0.011937446 53
0.176302 0.6524986 0.011797827 51
0.1775219 0.64802194 0.011728018 51
0.18138804 0.65317869 0.011832732 51
0.18463597 0.65642357 0.011902541 53
0.18308899 0.64231342 0.011658208 48
0.18255557 0.63206452 0.011483683 45
0.18465057 0.63145572 0.011483683 40
0.18458186 0.62313789 0.011344064 31
0.18722154 0.62443781 0.011378969 27
0.19009028 0.62566078 0.011413874 29
0.192164 0.625027 0.011413874 38
0.19564286 0.62813693 0.011483683 40
0.19411884 0.61604118 0.011274255 33
0.20063126 0.6286608 0.011518588 38
0.20148629 0.62418604 0.011448778 38
0.19942389 0.61013818 0.011204445 31
0.20897678 0.63225752 0.011623302 45
0.20980456 0.62776792 0.011553493 38
0.20612395 0.61001855 0.01123935 27
0.21558619 0.63003451 0.011623302 27
0.20786913 0.6009686 0.011099731 22
0.20930536 0.59835178 0.011064826 20
0.21328799 0.60331041 0.01116954 22
0.21886495 0.61193907 0.011344064 20
0.22497104 0.6224938 0.011553493 20
-1.1226542 0.14859764 0.059348974 22
-1.180364 0.16483907 0.020803269 22
-1.161966 0.16640693 0.020489125 32
-1.0683887 0.15681335 0.0188486 6
-1.0302628 0.15489309 0.018185407 5
-1.0099516 0.15544643 0.01783636 1
-0.00070675061 0.80987632 0.014136449 50
