# .PCD v0.7 - Point Cloud Data file format
VERSION 0.7
FIELDS x y z intensity
SIZE 4 4 4 4
TYPE F F F F
COUNT 1 1 1 1
WIDTH 103
HEIGHT 1
VIEWPOINT 0 0 0 1 0 0 0
POINTS 103
DATA ascii
0.0018665179 0.76388139 0.013333638 11
0.0043430883 0.7318756 0.012775161 14
0.0069365283 0.74985367 0.013089305 18
0.009528487 0.74782538 0.0130544 20
0.012104636 0.75378799 0.013159115 16
0.014867325 0.75373852 0.013159115 16
0.0172746 0.74968678 0.013089305 24
0.020175707 0.74561346 0.013019496 24
0.022830296 0.75153875 0.01312421 22
0.025318125 0.74745739 0.0130544 20
0.027796645 0.74736935 0.0130544 18
0.029555948 0.72328609 0.012635542 22
0.032748733 0.74116385 0.012949686 24
0.034668967 0.727063 0.012705352 22
0.037691008 0.73892665 0.012914781 16
0.04005244 0.73479712 0.012844971 16
0.04179614 0.72268212 0.012635542 18
0.043830745 0.71254444 0.012461018 18
0.047228534 0.72835922 0.012740256 18
0.049350962 0.72020113 0.012600637 16
0.051738963 0.72003353 0.012600637 16
0.054252032 0.71984857 0.012600637 16
0.054756109 0.69574231 0.012181779 14
0.058947761 0.71546638 0.012530828 14
0.062129468 0.72322571 0.012670447 14
0.062872529 0.70308691 0.012321399 14
0.064586133 0.69489872 0.012181779 17
0.067273468 0.69866168 0.012251589 16
0.070307672 0.70439202 0.012356304 18
0.074616015 0.72204423 0.012670447 18
0.075223505 0.70388407 0.012356304 18
0.076802321 0.69566667 0.012216684 19
0.078551061 0.68943387 0.01211197 19
0.081423774 0.69312751 0.012181779 19
0.08504393 0.70276517 0.012356304 20
0.08799085 0.70643276 0.012426114 20
0.087915316 0.68628639 0.012077065 23
0.09059155 0.68997216 0.012146875 25
0.092732213 0.68766999 0.01211197 27
0.096777 0.69922698 0.012321399 36
0.10090358 0.71076399 0.012530828 36
0.10033643 0.68862259 0.012146875 40
0.10126341 0.67837924 0.011972351 36
0.10556398 0.68986362 0.012181779 38
0.10735265 0.68553972 0.01211197 38
0.11057317 0.6911037 0.012216684 40
0.11007957 0.67295229 0.011902541 38
0.11341704 0.67848092 0.012007256 40
0.11499386 0.67415869 0.011937446 40
0.12112071 0.6954236 0.012321399 44
0.12307651 0.69304919 0.012286494 42
0.12133348 0.66898233 0.011867637 40
0.12391462 0.67054272 0.011902541 40
0.12711263 0.67401415 0.011972351 38
0.13123257 0.68340796 0.012146875 40
0.13335221 0.68096 0.01211197 42
0.13404639 0.67266947 0.011972351 42
0.13531697 0.66629457 0.011867637 40
0.13833472 0.66975892 0.011937446 40
0.14037691 0.66729051 0.011902541 42
0.14509785 0.6785543 0.01211197 42
0.14151596 0.65068746 0.011623302 38
0.14410438 0.65216714 0.011658208 34
0.14857131 0.66141558 0.011832732 27
0.15165329 0.66481847 0.011902541 25
0.15330045 0.66033548 0.011832732 31
0.15319601 0.65009159 0.011658208 36
0.15639524 0.65344238 0.011728018 40
0.15808937 0.65097696 0.011693113 29
0.1647855 0.66786641 0.012007256 40
0.16408654 0.65567708 0.011797827 44
0.16501091 0.649257 0.011693113 42
0.16927356 0.65642244 0.011832732 51
0.1700456 0.65002382 0.011728018 44
0.17385209 0.65522474 0.011832732 31
0.17227733 0.64115697 0.011588397 24
0.1718861 0.63090479 0.011413874 20
0.1746197 0.63222849 0.011448778 24
0.17844284 0.6373921 0.011553493 20
0.18066666 0.6367653 0.011553493 18
-1.1023381 0.14982566 0.058302253 27
-1.1764318 0.16408059 0.020733459 21
-1.1176332 0.15587978 0.059139632 30
-1.1778314 0.16846925 0.020768363 31
-1.0605018 0.15546669 0.01870898 6
-1.0243304 0.15400118 0.018080693 6
-1.0297159 0.15848842 0.018185407 1
-0.043996885 0.83671641 0.014625116 61
-0.040139794 0.8148877 0.014241164 53
-0.037972357 0.83300793 0.014555307 46
-0.034112129 0.80715644 0.014101544 48
-0.030209959 0.77929586 0.013612877 15
-0.027271381 0.76939958 0.013438353 14
-0.024705244 0.77748907 0.013577973 12
-0.022160748 0.78356731 0.013682687 15
-0.019276788 0.77764261 0.013577973 15
-0.016945379 0.79569834 0.013892115 43
-0.013527017 0.75976384 0.013263829 16
-0.011017954 0.76980388 0.013438353 14
-0.0083956849 0.77583641 0.013543067 15
-0.0056288261 0.76786238 0.013403448 15
-0.0029100606 0.75787896 0.013228924 15
-0.00026385358 0.75588483 0.013194019 11
