# .PCD v0.7 - Point Cloud Data file format
VERSION 0.7
FIELDS x y z intensity
SIZE 4 4 4 4
TYPE F F F F
COUNT 1 1 1 1
WIDTH 55
HEIGHT 1
VIEWPOINT 0 0 0 1 0 0 0
POINTS 55
DATA ascii
0.11849502 0.99078733 0.017417502 1
0.11982755 0.97451097 0.017138263 2
0.12163927 0.96017838 0.016893929 3
0.12482266 0.95976973 0.016893929 3
0.12833956 0.95930576 0.016893929 5
0.13260697 0.9667995 0.017033549 6
0.13598092 0.96633071 0.017033549 6
0.13946985 0.96785372 0.017068453 9
0.14155394 0.95744509 0.016893929 7
0.14801744 0.97871971 0.017277882 7
0.15129736 0.97619456 0.017242977 10
0.15453371 0.97568744 0.017242977 11
0.15778869 0.9731406 0.017208073 18
0.16166808 0.97655767 0.017277882 20
0.16624774 0.98187345 0.017382598 22
0.17222577 0.99708092 0.017661836 23
0.17414117 0.9865967 0.017487312 15
0.17493308 0.97223717 0.017242977 11
0.17921798 0.97552305 0.017312787 10
0.1828198 0.97688895 0.017347692 13
0.18680699 0.98020601 0.017417502 12
0.19119906 0.98547041 0.017522216 10
0.19325745 0.97691625 0.017382598 10
0.19706126 0.97819602 0.017417502 10
0.20087636 0.97946113 0.017452406 10
0.20797138 0.99637157 0.01776655 12
0.21103267 0.99368346 0.017731644 11
0.2106998 0.97534931 0.017417502 10
0.21581937 0.98242033 0.01755712 12
0.2222985 0.99532229 0.017801454 15
0.22621416 0.99649036 0.01783636 19
0.23059016 0.99959171 0.017906168 19
0.23225282 0.9909929 0.01776655 18
0.23339519 0.9804495 0.017592026 16
0.23852333 0.98744529 0.017731644 16
0.24577923 1.0021437 0.018010883 16
0.2473435 0.99351788 0.017871264 16
0.24983029 0.9887709 0.017801454 16
0.25576335 0.99757802 0.017975979 15
0.25823724 0.99280858 0.017906168 13
0.26578233 1.0073694 0.018185407 14
0.2687802 1.0045037 0.018150503 16
0.26966679 0.99390978 0.017975979 14
0.27525598 1.0006747 0.018115599 18
0.27874732 0.99970782 0.018115599 13
0.28604189 1.012199 0.018359931 11
0.29159763 1.0189351 0.018499551 11
0.29292503 1.0102286 0.018359931 11
0.29363164 0.99960679 0.018185407 13
-1.1802776 0.16545708 0.020803269 23
-1.12148 0.15721455 0.059348974 29
-1.118333 0.16075578 0.019721219 4
-1.0366529 0.15270984 0.018290121 6
-1.0123857 0.1527475 0.017871264 4
-1.0533478 0.16269039 0.018604266 1
