# .PCD v0.7 - Point Cloud Data file format
VERSION 0.7
FIELDS x y z intensity
SIZE 4 4 4 4
TYPE F F F F
COUNT 1 1 1 1
WIDTH 91
HEIGHT 1
VIEWPOINT 0 0 0 1 0 0 0
POINTS 91
DATA ascii
0.00084286556 0.9658525 0.016859025 100
0.0042579412 0.97584206 0.017033549 100
0.007711356 0.98182017 0.017138263 100
0.011115815 0.97978771 0.017103359 100
0.014130319 0.96374959 0.016824121 100
0.017494347 0.96369439 0.016824121 100
0.020861678 0.97162801 0.016963739 100
0.024253165 0.97154927 0.016963739 100
0.027700936 0.97945911 0.017103359 100
0.03080217 0.96936303 0.016928835 100
0.034284022 0.96724516 0.016893929 100
0.03804918 0.97711051 0.017068453 100
0.041374914 0.97497386 0.017033549 100
0.044869713 0.97682106 0.017068453 100
0.047420051 0.962686 0.016824121 100
0.050990868 0.96650845 0.016893929 100
0.054476622 0.96832108 0.016928835 100
0.058452822 0.97810566 0.017103359 100
0.061444193 0.97391504 0.017033549 100
0.064577669 0.96970403 0.016963739 100
0.067570627 0.96148175 0.016824121 100
0.072103612 0.97719425 0.017103359 100
0.075804994 0.98293108 0.017208073 100
0.078592718 0.97468758 0.017068453 82
0.081323825 0.96643668 0.016928835 73
0.084696822 0.96614689 0.016928835 58
0.088976711 0.97580254 0.017103359 51
0.092570893 0.97747684 0.017138263 49
0.096225627 0.98315173 0.017242977 55
0.098244742 0.9688834 0.016998643 52
0.10183486 0.9705233 0.017033549 60
0.10694695 0.98606622 0.017312787 73
0.11016575 0.98369962 0.017277882 64
0.11405782 0.98728204 0.017347692 70
0.11632125 0.97694957 0.017173167 76
0.11948738 0.97455275 0.017138263 64
0.12346826 0.98010319 0.017242977 68
0.12791614 0.98759878 0.017382598 52
0.13241786 0.99507511 0.017522216 45
0.13426632 0.98271912 0.017312787 38
0.14047195 1.0020478 0.017661836 72
0.14311533 0.99561328 0.01755712 52
0.14688122 0.99708599 0.017592026 21
0.14916748 0.98865789 0.017452406 5
-1.1306027 0.15970083 0.019930648 4
-1.1608672 0.16397578 0.061442412 31
-1.1023594 0.15944165 0.019441981 5
-1.0325363 0.15320833 0.018220313 6
-1.0142291 0.15393096 0.017906168 4
-1.053234 0.16342571 0.018604266 1
-0.14318383 0.98752165 0.017417502 1
-0.1646587 1.1642346 0.020524031 4
-0.20537174 1.4876623 0.026213514 10
-0.19549893 1.4950423 0.02631823 19
-0.1875031 1.4738948 0.025934275 20
-0.1713126 1.3852345 0.024363559 27
-0.15478946 1.2885383 0.022653224 32
-0.16514114 1.4121603 0.024817321 31
-0.16336541 1.4405456 0.02530599 28
-0.15374969 1.3993646 0.024572989 27
-0.13236445 1.2468026 0.021885317 35
-0.11678763 1.1398581 0.020000458 24
-0.10317584 1.0447578 0.018325027 29
-0.097811483 1.0251877 0.017975979 38
-0.093140185 1.0155826 0.017801454 41
-0.089949183 1.0158702 0.017801454 41
-0.086056158 1.0142006 0.01776655 39
-0.081567071 0.99852139 0.017487312 43
-0.07868427 1.0087819 0.017661836 53
-0.074768513 0.99905348 0.017487312 49
-0.070964366 0.99732614 0.017452406 48
-0.067712359 1.0035651 0.01755712 47
-0.06352444 0.99582392 0.017417502 49
-0.060395658 0.99601859 0.017417502 44
-0.056972094 1.0002261 0.017487312 44
-0.05344072 0.99641591 0.017417502 41
-0.05118518 1.0245659 0.017906168 42
-0.046657145 0.99675661 0.017417502 38
-0.043089718 0.99891877 0.017452406 44
-0.039840192 1.0050575 0.01755712 54
-0.035796799 0.99520475 0.017382598 55
-0.032909766 0.99730515 0.017417502 57
-0.028843859 0.98342723 0.017173167 60
-0.025565825 0.989519 0.017277882 76
-0.021888254 0.97960621 0.017103359 68
-0.018732496 0.99367207 0.017347692 73
-0.015202395 0.98973244 0.017277882 63
-0.011751671 0.97578061 0.017033549 61
-0.0083625913 0.97781527 0.017068453 70
-0.0049493276 0.97783852 0.017068453 82
-0.0015485686 0.98584861 0.017208073 85
