# .PCD v0.7 - Point Cloud Data file format
VERSION 0.7
FIELDS x y z intensity
SIZE 4 4 4 4
TYPE F F F F
COUNT 1 1 1 1
WIDTH 80
HEIGHT 1
VIEWPOINT 0 0 0 1 0 0 0
POINTS 80
DATA ascii
0.0019080512 0.99384677 0.017347692 85
0.0052581993 0.97183776 0.016963739 88
0.0084459996 0.9678157 0.016893929 79
0.011946407 0.97777808 0.017068453 70
0.015516466 0.98772764 0.017242977 68
0.018810628 0.97967017 0.017103359 68
0.022139465 0.97560018 0.017033549 66
0.025492465 0.97351795 0.016998643 58
0.029127814 0.98141831 0.017138263 56
0.032818627 0.98930502 0.017277882 66
0.035758812 0.97519594 0.017033549 51
0.038921911 0.96907097 0.016928835 52
0.04248276 0.97692776 0.017068453 57
0.046080314 0.9807685 0.017138263 63
0.04913146 0.97661597 0.017068453 63
0.053184852 0.98841935 0.017277882 82
0.056977995 0.99421698 0.017382598 100
0.059355676 0.97604793 0.017068453 100
0.063318759 0.98181045 0.017173167 100
0.067152523 0.98756874 0.017277882 99
0.070142493 0.98335135 0.017208073 81
0.072828412 0.97312993 0.017033549 88
0.07638102 0.97486335 0.017068453 53
0.081904501 1.0005002 0.017522216 35
0.11323299 1.3289816 0.023281511 26
0.13130192 1.4799606 0.025934275 32
0.13077337 1.4177647 0.024852227 40
0.13819955 1.4431772 0.02530599 39
-1.1820837 0.16697267 0.020838173 25
-1.1430686 0.16146167 0.060500365 30
-1.1043385 0.1597279 0.019476885 5
-1.0285802 0.15262133 0.018150503 6
-1.0300455 0.15633145 0.018185407 4
-1.0334735 0.16035958 0.018255217 1
-0.17258497 0.99295968 0.017592026 5
-0.1565028 1.0016934 0.01769674 7
-0.15192603 0.99632978 0.017592026 10
-0.1487418 0.99883193 0.01762693 13
-0.14525431 0.999345 0.01762693 18
-0.14148435 0.99786609 0.017592026 21
-0.13927115 1.006253 0.017731644 24
-0.13655955 1.0126783 0.01783636 20
-0.13388687 1.0211029 0.017975979 20
-0.12855038 1.0076787 0.017731644 19
-0.12446867 1.0021461 0.01762693 22
-0.1216884 1.0085304 0.017731644 21
-0.11834332 1.0089284 0.017731644 19
-0.11798514 1.0371517 0.018220313 23
-0.11502135 1.0435201 0.018325027 22
-0.12389486 1.1612315 0.02038441 33
-0.12414999 1.2034287 0.021117412 32
-0.11023365 1.1063526 0.019407077 25
-0.10005769 1.0410433 0.018255217 24
-0.093473315 1.0095274 0.01769674 26
-0.088884354 0.99789667 0.017487312 29
-0.086252801 1.008163 0.017661836 30
-0.083060145 1.0124439 0.017731644 30
-0.080151729 1.0207019 0.017871264 33
-0.075267173 1.0010214 0.017522216 33
-0.072058447 1.0052671 0.017592026 34
-0.069501042 1.0194781 0.01783636 38
-0.064780571 1.0017546 0.017522216 32
-0.061405476 1.0039706 0.01755712 34
-0.057325039 0.99419701 0.017382598 33
-0.053638011 0.99039751 0.017312787 33
-0.050382894 0.994573 0.017382598 33
-0.047476072 1.0067277 0.017592026 32
-0.043612745 0.99889606 0.017452406 33
-0.039162666 0.97506517 0.017033549 27
-0.036491577 0.99517947 0.017382598 33
-0.033457838 1.0032893 0.017522216 33
-0.029657139 0.993406 0.017347692 31
-0.026136627 0.99150449 0.017312787 25
-0.022675473 0.99158967 0.017312787 25
-0.019020351 0.98166621 0.017138263 25
-0.015752375 0.99172384 0.017312787 24
-0.012216179 0.98577416 0.017208073 24
-0.0088463081 0.99380922 0.017347692 25
-0.0052690189 0.97383738 0.016998643 22
-0.0018888555 0.98384833 0.017173167 23
