# .PCD v0.7 - Point Cloud Data file format
VERSION 0.7
FIELDS x y z intensity
SIZE 4 4 4 4
TYPE F F F F
COUNT 1 1 1 1
WIDTH 63
HEIGHT 1
VIEWPOINT 0 0 0 1 0 0 0
POINTS 63
DATA ascii
0.0012166579 0.99584758 0.017382598 27
0.0047776168 1.0138344 0.01769674 38
0.0083929589 1.0018122 0.017487312 34
0.011794955 0.99377859 0.017347692 34
0.01509038 0.99373406 0.017347692 38
0.018559067 0.99367529 0.017347692 38
0.022116169 0.99760288 0.017417502 36
0.025752217 1.0035167 0.017522216 22
0.040549602 1.3991994 0.024433369 25
-1.1662946 0.15375268 0.061651755 20
-1.1058183 0.15383843 0.0585116 28
-1.1778902 0.1680581 0.020768363 29
-1.0645405 0.15548941 0.01877879 6
-1.0125716 0.15151051 0.017871264 5
-1.0179664 0.15595259 0.017975979 2
-0.19362456 0.9951846 0.01769674 7
-0.19127467 1.001747 0.017801454 10
-0.19072227 1.0181327 0.018080693 11
-0.18716717 1.0187922 0.018080693 11
-0.18219194 1.0115672 0.017941074 9
-0.17570509 0.99444306 0.01762693 8
-0.17052749 0.98519838 0.017452406 9
-0.16891839 0.99764657 0.017661836 9
-0.16560915 0.99820119 0.017661836 9
-0.16212377 0.99877322 0.017661836 9
-0.15692769 0.9874559 0.017452406 7
-0.1526942 0.98407233 0.017382598 6
-0.1506303 0.99248147 0.017522216 6
-0.14699167 0.99302691 0.017522216 6
-0.14598787 1.0093417 0.017801454 10
-0.13949752 0.99006861 0.017452406 11
-0.13648598 0.9925068 0.017487312 13
-0.13443834 1.0048926 0.01769674 12
-0.13110526 1.0053329 0.01769674 13
-0.126917 1.001839 0.01762693 14
-0.12285987 0.99630034 0.017522216 15
-0.12009481 1.0026797 0.01762693 18
-0.11676915 1.0030724 0.01762693 17
-0.1139877 1.0114421 0.01776655 18
-0.11150242 1.019766 0.017906168 19
-0.10608351 1.0042588 0.01762693 19
-0.10519434 1.0284768 0.018045789 20
-0.10044318 1.0189052 0.017871264 19
-0.096495084 1.0132606 0.01776655 19
-0.092416093 1.0096247 0.01769674 18
-0.088013493 0.99797386 0.017487312 15
-0.08418677 0.99629712 0.017452406 16
-0.08086995 0.99857813 0.017487312 14
-0.077847145 1.0048355 0.017592026 11
-0.074486636 1.0070953 0.01762693 12
-0.070864812 1.0033474 0.01755712 12
-0.065888919 0.98164135 0.017173167 12
-0.062715858 0.98585671 0.017242977 11
-0.059274193 0.98606962 0.017242977 11
-0.056283887 0.9942565 0.017382598 12
-0.051858488 0.97647494 0.017068453 13
-0.049143195 0.99063069 0.017312787 16
-0.04734287 1.0267526 0.017941074 17
-0.048270613 1.1327993 0.019791029 18
-0.045332178 1.1589371 0.020244792 16
-0.04097224 1.1390897 0.019895744 23
-0.040890124 1.2591443 0.021990033 34
-0.042287439 1.459165 0.025480513 37
