# .PCD v0.7 - Point Cloud Data file format
VERSION 0.7
FIELDS x y z intensity
SIZE 4 4 4 4
TYPE F F F F
COUNT 1 1 1 1
WIDTH 65
HEIGHT 1
VIEWPOINT 0 0 0 1 0 0 0
POINTS 65
DATA ascii
0.00026734371 0.76588327 0.013368543 24
0.0028144319 0.76787788 0.013403448 17
0.0054948088 0.76786339 0.013403448 15
0.0078735827 0.75184423 0.01312421 18
0.010614884 0.76980954 0.013438353 21
0.013065002 0.76377189 0.013333638 20
0.015988866 0.76971668 0.013438353 15
0.018493092 0.76766032 0.013403448 15
0.020973668 0.75559384 0.013194019 13
0.023417078 0.75352138 0.013159115 13
0.026109274 0.751432 0.01312421 11
0.028753102 0.75533777 0.013194019 11
0.030974343 0.74524295 0.013019496 3
-1.0947565 0.14626618 0.057883568 23
-1.1880531 0.16760437 0.020942887 24
-1.1450745 0.16154116 0.060605038 30
-1.0905124 0.15753381 0.019232552 5
-1.0444856 0.15442248 0.018429741 6
-1.0261185 0.15555224 0.018115599 4
-1.0374538 0.16079174 0.018325027 1
-0.14824808 0.86728692 0.015358117 5
-0.14305851 0.85396826 0.015113784 6
-0.1405739 0.85843372 0.015183593 8
-0.13551018 0.84507382 0.01493926 4
-0.13148379 0.83963799 0.014834546 3
-0.12869874 0.84006941 0.014834546 3
-0.12561886 0.84053546 0.014834546 3
-0.12268408 0.84096885 0.014834546 4
-0.11749373 0.82555395 0.014555307 6
-0.11351191 0.8180362 0.014415688 6
-0.11094141 0.81838876 0.014415688 6
-0.10808402 0.81877106 0.014415688 6
-0.10522532 0.81914335 0.014415688 9
-0.10236534 0.81950563 0.014415688 11
-0.099745035 0.82184309 0.014450593 14
-0.095471665 0.81027055 0.014241164 14
-0.093861543 0.82253581 0.014450593 14
-0.090770006 0.82087088 0.014415688 13
-0.086768262 0.8092376 0.014206259 11
-0.083530471 0.80555749 0.014136449 13
-0.079920828 0.79788518 0.01399683 13
-0.077904627 0.80612099 0.014136449 14
-0.075461082 0.81037015 0.014206259 13
-0.071561165 0.79867834 0.01399683 13
-0.068772823 0.79892325 0.01399683 13
-0.06664183 0.8071301 0.014136449 13
-0.063824013 0.80735785 0.014136449 13
-0.059800375 0.79162359 0.013857211 12
-0.05746296 0.79580653 0.01392702 14
-0.053588293 0.78004235 0.013647782 14
-0.051645648 0.79219741 0.013857211 14
-0.049265288 0.79635608 0.01392702 14
-0.04625218 0.7925306 0.013857211 12
-0.043404032 0.78868628 0.013787401 12
-0.04071819 0.79283416 0.013857211 15
-0.037992891 0.79096746 0.013822306 19
-0.035182215 0.79309911 0.013857211 14
-0.03238802 0.78921539 0.013787401 14
-0.029047156 0.77733898 0.013577973 15
-0.026605336 0.7814281 0.013647782 15
-0.024259547 0.78950703 0.013787401 15
-0.021641314 0.78958315 0.013787401 12
-0.018750716 0.79565787 0.013892115 10
-0.016395496 0.80971068 0.014136449 32
-0.013626576 0.82176185 0.014345878 42
