# .PCD v0.7 - Point Cloud Data file format
VERSION 0.7
FIELDS x y z intensity
SIZE 4 4 4 4
TYPE F F F F
COUNT 1 1 1 1
WIDTH 56
HEIGHT 1
VIEWPOINT 0 0 0 1 0 0 0
POINTS 56
DATA ascii
0.11394198 0.98930836 0.017382598 10
0.11244424 0.94720381 0.016649596 3
0.11866187 0.97062457 0.017068453 3
0.1206337 0.96030521 0.016893929 3
0.12500973 0.96781117 0.017033549 6
0.12838726 0.9673689 0.017033549 6
0.13257325 0.97285897 0.017138263 9
0.13458374 0.96248817 0.016963739 7
0.13709113 0.95607418 0.016859025 7
0.14275354 0.97141737 0.017138263 8
0.14703649 0.97684538 0.017242977 11
0.15288179 0.99213713 0.017522216 15
0.15509829 0.98369628 0.017382598 19
0.15659966 0.97333264 0.017208073 22
0.16161895 0.98264599 0.017382598 23
0.16504803 0.98207587 0.017382598 21
0.16881342 0.9834646 0.017417502 15
0.17259051 0.98483902 0.017452406 11
0.17532307 0.98029369 0.017382598 12
0.1776671 0.97377402 0.017277882 14
0.18216249 0.97904581 0.017382598 11
0.18706948 0.98626262 0.017522216 10
0.19051103 0.98560363 0.017522216 11
0.191802 0.97312707 0.017312787 10
0.19677185 0.98029399 0.017452406 10
0.20002154 0.97963607 0.017452406 11
0.20343988 0.9789319 0.017452406 10
0.20933802 0.98995435 0.017661836 10
0.21068965 0.97944272 0.017487312 12
0.21649854 0.9904601 0.01769674 17
0.21995458 0.98969835 0.01769674 20
0.22419444 0.99079686 0.017731644 19
0.22899601 0.99585474 0.01783636 17
0.23065105 0.98726028 0.01769674 18
0.23501928 0.99034047 0.01776655 17
0.23894331 0.99145812 0.017801454 17
0.24240269 0.99061799 0.017801454 16
0.2479206 0.99955601 0.017975979 18
0.247991 0.98511016 0.017731644 15
0.25241804 0.98811346 0.017801454 16
0.25887585 0.99884081 0.018010883 17
0.26523536 1.0095812 0.018220313 15
0.26772812 1.0047847 0.018150503 17
0.27106196 1.001819 0.018115599 17
0.27297029 0.99508131 0.018010883 16
0.28108722 1.0115108 0.018325027 13
0.28461635 1.0105234 0.018325027 14
0.28961131 1.0153431 0.018429741 11
0.28815681 0.99703634 0.018115599 12
0.29388303 1.0037009 0.018255217 13
-1.0904895 0.14802143 0.057674225 26
-1.1646053 0.1620167 0.020524031 21
-1.1580937 0.1652336 0.020419316 29
-1.0566257 0.15433335 0.01863917 6
-1.0244377 0.15328602 0.018080693 5
-1.0218923 0.15673658 0.018045789 1
