# .PCD v0.7 - Point Cloud Data file format
VERSION 0.7
FIELDS x y z intensity
SIZE 4 4 4 4
TYPE F F F F
COUNT 1 1 1 1
WIDTH 80
HEIGHT 1
VIEWPOINT 0 0 0 1 0 0 0
POINTS 80
DATA ascii
0.0023942247 0.97984779 0.017103359 68
0.0058026509 0.97783381 0.017068453 58
0.0092158923 0.97780764 0.017068453 55
0.012438484 0.98977107 0.017277882 66
0.015732815 0.97972441 0.017103359 56
0.019035336 0.9736656 0.016998643 56
0.022341816 0.9695949 0.016928835 50
0.025895409 0.9695065 0.016928835 50
0.02958131 0.97940409 0.017103359 46
0.033230957 0.99129206 0.017312787 46
0.035729349 0.96519178 0.016859025 56
0.039413445 0.97705644 0.017068453 56
0.042823769 0.97691292 0.017068453 57
0.046800852 0.98874223 0.017277882 80
0.050150402 0.98657572 0.017242977 91
0.053702377 0.9883914 0.017277882 100
0.055882134 0.96623796 0.016893929 93
0.059499446 0.97002888 0.016963739 86
0.064696625 0.99775237 0.017452406 97
0.066745535 0.98158348 0.017173167 76
0.069315746 0.96937692 0.016963739 56
0.075866915 1.0089977 0.017661836 55
0.085193604 1.0824873 0.018953314 41
0.10219014 1.2456249 0.021815509 38
0.12239034 1.4305553 0.025061656 33
-1.1683016 0.15380983 0.061756428 21
-1.1621108 0.16539285 0.020489125 29
-1.0606371 0.15454116 0.01870898 6
-1.0264956 0.15304449 0.018115599 5
-1.0140673 0.15499298 0.017906168 2
-1.0846739 0.16946752 0.019162742 1
-0.17379677 0.98665744 0.017487312 6
-0.17290652 1.001022 0.017731644 6
-0.16032331 0.99096185 0.017522216 6
-0.15797475 0.99741328 0.01762693 10
-0.1555403 1.0058905 0.01776655 13
-0.15280184 1.0103551 0.01783636 18
-0.14705525 0.9970603 0.017592026 19
-0.14545935 1.009418 0.017801454 23
-0.1409248 1.0040035 0.01769674 19
-0.13840879 1.0104089 0.017801454 16
-0.1350574 1.0108624 0.017801454 19
-0.13041329 1.0013899 0.01762693 22
-0.12674214 1.0018611 0.01762693 20
-0.12488552 1.0141841 0.01783636 20
-0.12021904 1.0066928 0.01769674 19
-0.12102965 1.0428404 0.018325027 19
-0.12345766 1.0989184 0.019302361 19
-0.12091885 1.1112704 0.019511791 20
-0.11452658 1.0878212 0.019092932 22
-0.10607281 1.0424577 0.018290121 24
-0.100283 1.0209303 0.017906168 28
-0.095775992 1.0113202 0.017731644 30
-0.091876008 1.005658 0.01762693 28
-0.088715009 1.0099567 0.01769674 28
-0.085012741 1.010275 0.01769674 28
-0.081164256 1.0065792 0.01762693 29
-0.077363543 1.0008615 0.017522216 30
-0.073869415 1.0011255 0.017522216 33
-0.070654757 1.0053668 0.017592026 34
-0.067677841 1.0135883 0.017731644 33
-0.063886829 1.009827 0.017661836 33
-0.059884317 1.0020593 0.017522216 34
-0.055997685 0.99226975 0.017347692 32
-0.052639376 0.99445611 0.017382598 34
-0.049266487 0.99663103 0.017417502 32
-0.046154328 1.0047873 0.01755712 32
-0.041964673 0.99296224 0.017347692 28
-0.038498331 0.99310267 0.017347692 29
-0.034921534 0.9852311 0.017208073 26
-0.032120805 1.0053338 0.01755712 24
-0.028440697 0.99944311 0.017452406 21
-0.024502683 0.98154467 0.017138263 22
-0.020904602 0.97362727 0.016998643 20
-0.01772156 0.98569053 0.017208073 22
-0.014222817 0.98174739 0.017138263 22
-0.010795792 0.98179108 0.017138263 20
-0.0074939267 0.97582257 0.017033549 22
-0.0041546347 0.99184018 0.017312787 27
-0.00070779765 1.0138453 0.01769674 38
