# .PCD v0.7 - Point Cloud Data file format
VERSION 0.7
FIELDS x y z intensity
SIZE 4 4 4 4
TYPE F F F F
COUNT 1 1 1 1
WIDTH 59
HEIGHT 1
VIEWPOINT 0 0 0 1 0 0 0
POINTS 59
DATA ascii
0.0027920979 0.99984378 0.017452406 26
0.0063827019 1.0158252 0.017731644 37
0.0095572108 0.97780436 0.017068453 24
0.013016415 1.0077624 0.017592026 40
0.016370054 0.99771369 0.017417502 26
0.025263362 1.2695552 0.022164555 38
-1.0901246 0.15068555 0.057674225 26
-1.166157 0.1653458 0.020558935 26
-1.0706125 0.15542223 0.018883504 6
-1.0245711 0.15239199 0.018080693 6
-1.0240328 0.15596747 0.018080693 3
-1.084733 0.16908889 0.019162742 1
-0.20229526 1.0179354 0.018115599 8
-0.19835784 1.0166726 0.018080693 10
-0.19214879 1.0015798 0.017801454 11
-0.18828155 1.0002792 0.01776655 9
-0.18606487 1.0088286 0.017906168 7
-0.18325394 1.0134076 0.017975979 8
-0.1767486 0.99628913 0.017661836 9
-0.17292739 0.99492985 0.01762693 8
-0.17113115 1.0053841 0.017801454 9
-0.16531998 0.99216783 0.01755712 8
-0.16282099 0.99865979 0.017661836 6
-0.15587026 0.97749984 0.017277882 6
-0.15492114 0.99384463 0.01755712 5
-0.15054776 0.98844868 0.017452406 6
-0.14886166 1.0008358 0.017661836 9
-0.14651634 1.0092651 0.017801454 11
-0.13973586 0.98801547 0.017417502 12
-0.13755257 0.99639702 0.01755712 12
-0.13478144 1.0008113 0.01762693 12
-0.13198252 1.0052181 0.01769674 12
-0.12728512 0.99776059 0.01755712 14
-0.12372925 0.99619275 0.017522216 16
-0.12007719 0.99663955 0.017522216 15
-0.11653894 0.99504614 0.017487312 15
-0.11496724 1.0153563 0.01783636 14
-0.11072598 1.007781 0.01769674 14
-0.10763041 1.0121384 0.01776655 18
-0.10509288 1.0204464 0.017906168 18
-0.100385 1.0128826 0.01776655 19
-0.096453756 1.0072381 0.017661836 16
-0.093113102 1.0075525 0.017661836 16
-0.08870694 0.99590486 0.017452406 15
-0.083863705 0.98428327 0.017242977 12
-0.080436088 0.98256296 0.017208073 9
-0.078548633 1.0047809 0.017592026 10
-0.074320793 0.99307114 0.017382598 11
-0.070284769 0.98534602 0.017242977 11
-0.067288183 0.98956382 0.017312787 12
-0.063404098 0.98581266 0.017242977 11
-0.060986791 0.99998939 0.017487312 12
-0.057036754 0.99221057 0.017347692 14
-0.053357363 0.98841006 0.017277882 13
-0.05504876 1.090445 0.019058028 16
-0.054620657 1.1625403 0.0203146 16
-0.052734222 1.212669 0.021187222 20
-0.050818071 1.2707906 0.022199461 27
-0.050757524 1.3908621 0.024293751 34
