# .PCD v0.7 - Point Cloud Data file format
VERSION 0.7
FIELDS x y z intensity
SIZE 4 4 4 4
TYPE F F F F
COUNT 1 1 1 1
WIDTH 724
HEIGHT 1
VIEWPOINT 0 0 0 1 0 0 0
POINTS 724
DATA ascii
0.055289477 0.0029476285 0.047835063 66
0.051660478 0.0029175282 0.047939736 47
0.048038065 0.0087347031 0.015916595 8
0.041797101 0.0056720972 0.016021309 4
0.040204585 0.0032769442 0.048253752 100
0.043221593 0.013269186 0.047730394 76
0.036114633 0.0084203482 0.048149079 35
0.026856244 0.00021731853 0.048777111 24
0.025300741 0.003696084 0.048672438 16
0.037502468 0.026815057 0.047311705 10
0.018690526 0.0058304667 0.048777111 8
0.020741701 0.014140785 0.048358422 8
0.017974913 0.016085684 0.048358422 8
-1.0426445 1.1341792 0.028517231 3
-1.0270751 1.130619 0.084784247 5
-1.025172 1.1301839 0.14136662 6
-1.016042 1.1338532 0.028063469 8
-1.0005159 1.1302458 0.083423518 16
-1.0180831 1.1343274 0.14084367 34
-0.99718255 1.1354533 0.027749326 27
-0.99918503 1.1359264 0.083423518 88
-1.0186763 1.1405302 0.14101799 84
-0.98423034 1.1380529 0.027539898 38
-0.99984044 1.1417977 0.083528183 100
-1.0289979 1.1487924 0.14206386 95
-0.98500949 1.1433436 0.027574802 42
-0.97731727 1.1414727 0.082376793 100
-1.0065045 1.1485716 0.14014643 86
-0.98952109 1.1501377 0.027679516 23
-0.98570639 1.1491957 0.082900152 100
-0.98583072 1.1492263 0.13840333 91
-0.96477574 1.1502043 0.027260659 27
-0.98423904 1.1550896 0.082900152 54
-0.99595791 1.158031 0.13944919 84
-0.97119063 1.1574639 0.027400278 41
-0.98288554 1.1604427 0.082900152 33
-0.99073249 1.1624414 0.13910057 78
-0.96595663 1.1617708 0.027330469 59
-0.97184461 1.1632924 0.082376793 62
-0.9970693 1.1698112 0.13979781 87
-0.97231728 1.1690885 0.027470088 61
-0.9704625 1.1686022 0.082376793 100
-0.97446436 1.1696514 0.13788038 89
-0.95352191 1.1697752 0.027155945 78
-0.95941097 1.1713411 0.081853434 88
-0.96343261 1.1724105 0.13700883 99
-0.94825584 1.1739799 0.027086135 81
-0.96571428 1.1786873 0.08227212 98
-0.96394247 1.1782095 0.13718314 100
-0.94683653 1.1792073 0.027086135 93
-0.94501287 1.1787088 0.081225403 100
-0.96827394 1.1850679 0.13770607 99
-0.9531073 1.186566 0.027225753 89
-0.93780297 1.1823246 0.08091139 100
-0.97257584 1.1919615 0.13822901 89
-0.95171767 1.1915482 0.027225753 96
-0.93450457 1.1867163 0.080806717 88
-0.95198578 1.1916234 0.13648589 98
-0.95023698 1.1967876 0.027225753 77
-0.93880397 1.1935351 0.081120729 72
-0.94283944 1.1946832 0.13578865 100
-0.95649964 1.2039744 0.027365373 55
-0.93547207 1.197917 0.081016064 42
-0.9471665 1.2012858 0.13631158 100
-0.94345802 1.205869 0.027155945 45
-0.92821747 1.201421 0.080702044 24
-0.95138973 1.2081839 0.13683452 84
-0.92842764 1.2073689 0.026911611 71
-0.91896552 1.2045697 0.080283359 28
-0.94595259 1.2125534 0.13648589 84
-0.92306083 1.2113791 0.026841801 75
-0.91935283 1.210268 0.080388032 32
-0.92913026 1.2131976 0.13509139 94
-0.91592568 1.2142646 0.026737086 78
-0.9236967 1.2166197 0.080702044 80
-0.92773062 1.2178422 0.13509139 98
-0.90671915 1.2170323 0.026597468 85
-0.92594749 1.2229331 0.08091139 100
-0.92425352 1.2224132 0.1349171 99
-0.90507084 1.2223685 0.026597468 85
-0.90520531 1.2224102 0.079864666 91
-0.92448801 1.2284051 0.13509139 78
-0.91111284 1.2298461 0.026737086 88
-0.89790183 1.2256883 0.079550654 74
-0.92667991 1.2347455 0.13544002 49
-0.90949875 1.2349436 0.026737086 85
-0.90391451 1.2331647 0.079969339 70
-0.90036958 1.2320354 0.13317397 46
-0.88883466 1.2338991 0.026388038 85
-0.9098925 1.2406884 0.080388032 84
-0.89874798 1.2370952 0.13317397 46
-0.88340443 1.2376783 0.02631823 99
-0.90254432 1.2439229 0.080074012 100
-0.91226166 1.2470934 0.13456847 59
-0.88935882 1.2451864 0.026457848 100
-0.88950175 1.2452337 0.07944598 100
-0.91247934 1.2528194 0.13474278 77
-0.89156872 1.2512233 0.026527658 100
-0.88602346 1.2493722 0.079341307 100
-0.91087013 1.2576666 0.13474278 82
-0.88988012 1.2562524 0.026527658 93
-0.8843413 1.2543819 0.079341307 100
-0.89405781 1.2576632 0.13334829 80
-0.87303537 1.2561042 0.02624842 92
-0.89020187 1.2619683 0.07976 100
-0.89234668 1.2627009 0.13334829 97
-0.86376959 1.2584565 0.0261088 89
-0.88470036 1.2656881 0.079550654 100
-0.88873488 1.267082 0.13317397 99
-0.86583155 1.2647078 0.02617861 83
-0.85845011 1.2621286 0.078189917 95
-0.91332334 1.281302 0.13561434 56
-0.87540883 1.2736441 0.026388038 77
-0.84354156 1.2623843 0.077457212 55
-0.90025812 1.2824242 0.13456847 40
-0.871759 1.2779438 0.026353134 88
-0.84557599 1.2685896 0.077666558 23
-0.89095563 1.2848022 0.13387123 38
-0.85681182 1.2781482 0.0261088 96
-0.86261183 1.2802432 0.078713275 42
-0.87041098 1.2830603 0.1321281 28
-0.84760505 1.2800683 0.025969181 93
-0.86654061 1.286979 0.079027295 85
-0.86683017 1.2870846 0.13195379 16
-0.84206384 1.2835594 0.025899371 100
-0.85348457 1.2877728 0.078399263 100
-0.87436277 1.2954751 0.13282534 11
-0.8477574 1.2912102 0.026038991 100
-0.8329547 1.2856905 0.077352546 91
-0.89492172 1.3087974 0.1349171 1
-0.84592956 1.2960861 0.026038991 100
-0.82927734 1.2898104 0.077247873 48
-0.87065953 1.3054062 0.13282534 1
-0.83287221 1.2966852 0.025829561 79
-0.84425265 1.3010197 0.078189917 51
-0.82781976 1.2947609 0.1289905 11
-0.82915908 1.3007909 0.025794657 72
-0.84425455 1.3066006 0.07829459 57
-0.85759002 1.311733 0.13195379 50
-0.83475274 1.3085009 0.025934275 74
-0.83120424 1.3071209 0.077666558 68
-0.85754734 1.3173652 0.1321281 100
-0.8347258 1.3140626 0.025969181 96
-0.81259054 1.3053656 0.076724514 63
-0.84450179 1.3179035 0.13108224 97
-0.82547897 1.3157017 0.025829561 96
-0.82380313 1.3150369 0.077457212 82
-0.83156532 1.3181164 0.13003637 99
-0.81242877 1.3160362 0.025620133 100
-0.82745403 1.3220581 0.077771232 95
-0.82594484 1.3214533 0.12968774 99
-0.80680722 1.3192879 0.025550323 100
-0.83107251 1.3291113 0.078085244 97
-0.8277052 1.3277481 0.13003637 100
-0.80858344 1.3255343 0.025620133 100
-0.81617171 1.3286372 0.077352546 100
-0.83128232 1.3348161 0.1305593 100
-0.78947514 1.3177209 0.1776855 22
-0.80663604 1.3302734 0.025620133 100
-0.79390699 1.3250165 0.076201156 99
-0.82377785 1.3373528 0.13003637 100
-0.78755504 1.3223932 0.1776855 22
-0.81943685 1.3411636 0.025899371 100
-0.79749149 1.3320106 0.076515168 100
-0.80340046 1.334475 0.12829325 100
-0.77829021 1.3240021 0.17671055 18
-0.79531997 1.3366259 0.025480513 100
-0.79920286 1.3382614 0.076724514 100
-0.80142182 1.339196 0.12829325 100
-0.79281336 1.3355701 0.17890419 21
-0.78965348 1.3397533 0.025410704 93
-0.80640072 1.3468759 0.077247873 70
-0.80492705 1.3462491 0.12881619 100
-0.7634297 1.3286004 0.17524812 16
-0.80990952 1.35342 0.025829561 59
-0.81008822 1.3534966 0.077561885 40
-0.81592709 1.3560016 0.13003637 30
-0.7762627 1.338985 0.17719802 5
-0.81153458 1.359753 0.025899371 86
-0.80071229 1.3550652 0.0771432 85
-0.83215564 1.368685 0.13177948 45
-0.78337628 1.3475561 0.17841671 8
-0.80193263 1.3617692 0.025759751 100
-0.80760401 1.3642516 0.077666558 100
-0.81889552 1.3691941 0.13073361 100
-0.78114885 1.3526716 0.17841671 28
-0.78888422 1.3616352 0.025550323 100
-0.80552143 1.368987 0.077666558 100
-0.80768365 1.3699424 0.12986206 100
-0.78455395 1.3597217 0.17914793 29
-0.79432505 1.3690944 0.025689943 100
-0.81457883 1.3781204 0.07829459 100
-0.80215245 1.3725827 0.12951343 100
-0.76274961 1.3550229 0.17646681 22
-0.7939437 1.3748384 0.025724847 100
-0.80141288 1.3781998 0.077666558 100
-0.81083602 1.3824406 0.1305593 100
-0.76964766 1.3639039 0.1776855 22
-0.80082041 1.3838968 0.025899371 100
-0.79735643 1.3823225 0.077561885 100
-0.80858225 1.3874242 0.1305593 100
-0.78011256 1.3744859 0.17939167 19
-0.80764872 1.3930137 0.026073895 100
-0.79873353 1.3889227 0.077771232 100
-0.80631012 1.3923995 0.1305593 100
-0.77608389 1.378529 0.17914793 14
-0.79468709 1.3924723 0.025864467 100
-0.81117362 1.400104 0.07860861 100
-0.79700643 1.3935459 0.12986206 100
-0.76325005 1.3779197 0.1776855 11
-0.78333861 1.3931631 0.025689943 100
-0.808855 1.4050887 0.07860861 100
-0.80554181 1.4035403 0.13090792 100
-0.77360159 1.3886124 0.17939167 8
-0.7922278 1.4024631 0.025899371 100
-0.80504638 1.4085033 0.078503937 100
-0.81075412 1.4111928 0.13160518 100
-0.7662645 1.390229 0.17866045 5
-0.79351228 1.4090964 0.025969181 100
-0.79728621 1.4108915 0.078189917 100
-0.8119933 1.4178876 0.13195379 100
-0.77653068 1.4010184 0.18036664 1
-0.80040032 1.417873 0.026143705 100
-0.80415732 1.4196755 0.078713275 100
-0.80624467 1.4206769 0.13160518 100
-0.79621691 1.4219465 0.0261088 100
-0.80715972 1.4272459 0.079027295 100
-0.7930916 1.420433 0.1305593 100
-0.79045385 1.4246521 0.026038991 100
-0.8067674 1.4326193 0.079131968 100
-0.8088302 1.4336267 0.13230242 100
-0.79521996 1.4330971 0.02617861 100
-0.80432969 1.4375876 0.079131968 100
-0.8063888 1.4386027 0.13230242 100
-0.79671186 1.4390996 0.02624842 100
-0.79507107 1.4382844 0.078713275 100
-0.81677169 1.4490662 0.1335226 100
-0.79782552 1.4458237 0.02631823 100
-0.79261261 1.4432099 0.078713275 100
-0.80893046 1.4513919 0.13299966 100
-0.79569572 1.4500546 0.02631823 100
-0.80653423 1.4555318 0.079655327 100
-0.80322665 1.4538605 0.13265105 100
-0.78963131 1.4531653 0.02624842 100
-0.80401248 1.4604993 0.079655327 100
-0.80958575 1.4633415 0.1335226 100
-0.7943514 1.4614961 0.026388038 100
-0.79804176 1.4633943 0.07944598 100
-0.81247252 1.4708171 0.13404553 100
-0.78825814 1.4645764 0.02631823 100
-0.79903668 1.4701706 0.079655327 100
-0.81519991 1.4785595 0.13456847 100
-0.8036657 1.478281 0.026667276 99
-0.79670745 1.4746404 0.079655327 100
-0.80225068 1.4775407 0.1335226 100
-0.79045016 1.4776363 0.026457848 92
-0.79941458 1.4823687 0.079969339 100
-0.79436249 1.4797018 0.13299966 100
-0.78822047 1.4818441 0.026457848 27
-0.80951303 1.4931703 0.080702044 22
-0.79036719 1.482986 0.13282534 56
0.13055867 1.2892628 0.12975012 5
0.16090423 1.2551501 0.010855397 13
0.13763613 1.2841623 0.03454173 27
0.1436277 1.2766917 0.056825545 23
0.1273233 1.2970209 0.10700117 10
0.13851535 1.283066 0.12784202 17
0.20129979 1.2047822 0.128672 8
0.13421914 1.2884228 0.17806751 6
0.15761745 1.2627627 0.010995016 51
0.16307208 1.2559125 0.032552965 59
0.15408662 1.2671968 0.055605363 49
0.15182695 1.2700346 0.078483857 14
0.16238931 1.25677 0.09855371 24
0.14886948 1.2737485 0.12517071 72
0.18946648 1.2227659 0.13362093 15
0.1480653 1.2747585 0.17289113 21
0.16802126 1.2531487 0.010750682 100
0.170964 1.2494265 0.032029606 100
0.15706024 1.2670128 0.055431053 99
0.15849936 1.2651925 0.077508904 29
0.16531593 1.2565706 0.098240845 36
0.16280624 1.2597449 0.12135452 100
0.18742335 1.2286078 0.13497064 38
0.15222591 1.2731276 0.17185585 50
0.16600597 1.259198 0.010855397 100
0.16894019 1.2554599 0.032343622 100
0.15633714 1.2715158 0.055779677 100
0.1724872 1.250941 0.075071514 30
0.17189547 1.2516949 0.096989371 37
0.17179137 1.2518275 0.11906482 100
0.18421343 1.2360022 0.13677025 37
0.15040612 1.2790718 0.17340876 35
0.16525748 1.26369 0.010925206 100
0.18045878 1.2441841 0.031506244 93
0.15809014 1.272887 0.055779677 98
0.18270993 1.2412956 0.073365346 31
0.17600772 1.2498956 0.096363634 25
0.17709601 1.2484992 0.11791996 100
0.18105075 1.2434245 0.13856985 29
0.15099803 1.2819873 0.1739264 42
0.17065424 1.2602853 0.010820492 78
0.17722744 1.2517898 0.031924933 61
0.16472483 1.2679487 0.055082429 50
0.17828351 1.2504249 0.074584037 30
0.17526752 1.2543228 0.096989371 25
0.18237275 1.2451397 0.1167751 26
0.2017858 1.2200494 0.13137141 23
0.14687672 1.2910166 0.1765146 27
0.17114979 1.2631923 0.010855397 65
0.1679613 1.267343 0.032866981 29
0.17374766 1.2598103 0.054036561 51
0.18117204 1.2501452 0.074340299 61
0.19862077 1.2274302 0.09135773 54
0.17924964 1.2526478 0.11830158 13
0.19386187 1.2336254 0.13497064 22
0.14987472 1.2908885 0.17599694 55
0.17295998 1.2645775 0.010855397 65
0.16494325 1.2750933 0.03328567 28
0.17675334 1.2596016 0.053862248 51
0.18052733 1.2546511 0.074827775 45
0.18832368 1.2444243 0.094486415 52
0.19768471 1.2321452 0.11295892 20
0.20265225 1.2256291 0.13227122 39
0.17286846 1.2646976 0.16667947 67
0.1794304 1.2594479 0.010715778 39
0.15215316 1.2954757 0.03454173 27
0.17717633 1.2624252 0.054036561 51
0.18453303 1.2527084 0.074340299 46
0.19347608 1.2408965 0.093547814 65
0.19329381 1.2411371 0.11486702 13
0.19945985 1.2329931 0.13407083 46
0.17451099 1.2659454 0.16667947 75
0.17865196 1.2638707 0.010785587 39
0.15389788 1.2967921 0.03454173 27
0.17641655 1.2668437 0.054385185 51
0.19090775 1.2475712 0.073365346 62
0.18910378 1.2499704 0.095112152 38
0.19839773 1.23761 0.11372216 13
0.20568171 1.2279227 0.13227122 31
0.17499667 1.2687321 0.16719711 67
0.18029171 1.2650994 0.010785587 52
0.20105731 1.2372909 0.030564198 32
0.1768741 1.2696762 0.054559495 50
0.1960566 1.2439877 0.072634131 94
0.19424316 1.2464162 0.094173551 52
0.20817298 1.227762 0.11105084 14
0.21186605 1.2228162 0.13047162 48
0.17780846 1.2684249 0.16667947 67
0.1857664 1.2616948 0.010680873 80
0.20642072 1.2338127 0.030250182 65
0.18235332 1.2663023 0.054036561 51
0.19315273 1.2517236 0.073609084 93
0.21018505 1.228731 0.090419121 82
0.2052587 1.2353814 0.1125773 13
0.21360722 1.2241113 0.13047162 32
0.18547463 1.2620887 0.16409127 69
0.1968787 1.2500137 0.010401634 83
0.19849244 1.24782 0.031087559 63
0.18872371 1.2610991 0.053339314 78
0.1923995 1.2561024 0.07409656 76
0.20468476 1.2394025 0.092296332 80
0.2044771 1.2396848 0.11334054 13
0.21742451 1.2220848 0.12957181 24
0.18596369 1.264851 0.16460891 69
0.19392416 1.2577652 0.010541254 95
0.20848948 1.2378131 0.030354854 65
0.19170085 1.2608107 0.053165004 79
0.20120627 1.2477899 0.072634131 78
0.20757225 1.2390696 0.091983467 100
0.21314636 1.231434 0.11105084 14
0.22482881 1.215431 0.1273223 16
0.19347513 1.2583803 0.16202073 70
0.197891 1.2557052 0.010471444 82
0.2123872 1.235709 0.030145511 65
0.19449982 1.2603831 0.05299069 100
0.20978335 1.2393007 0.071171694 81
0.20333251 1.2481992 0.093547814 100
0.2066122 1.243675 0.11372216 13
0.23202664 1.2086179 0.12507279 8
0.18829337 1.2689444 0.16512655 68
0.19024429 1.2699162 0.010750682 79
0.20934844 1.2433691 0.030564198 97
0.18806735 1.2729414 0.054210871 100
0.21026409 1.2420967 0.071415432 64
0.21308067 1.2381828 0.09135773 94
0.2185885 1.2305291 0.1102876 14
0.23811275 1.2033982 0.12327318 8
0.19680768 1.2607957 0.16202073 70
0.19655463 1.2645986 0.010611063 94
0.20743635 1.2493711 0.030878214 95
0.19437078 1.2676547 0.053513627 100
0.20721483 1.2496811 0.072390392 47
0.21922913 1.2328687 0.090106249 100
0.19842973 1.2619746 0.11753834 19
0.24861583 1.191746 0.11967396 17
0.19843715 1.2619643 0.16202073 70
0.20299652 1.2593658 0.010471444 82
0.21612725 1.2408481 0.030250182 98
0.19850206 1.2657042 0.053165004 100
0.21012348 1.2493149 0.072146654 95
0.21864262 1.2373008 0.090731993 100
0.21159127 1.247245 0.11372216 27
0.23100117 1.219872 0.1273223 16
0.20247751 1.2600977 0.16098544 72
0.20462123 1.2605138 0.010471444 96
0.2165406 1.2435857 0.030354854 65
0.20014781 1.266867 0.053165004 100
0.21628624 1.2439469 0.071171694 65
0.21905681 1.2400122 0.091044858 100
0.20639402 1.2579961 0.11601187 66
0.22688511 1.2288942 0.12957181 32
0.20299247 1.262827 0.16150309 70
0.21091774 1.2551602 0.010331824 98
0.22048408 1.2414727 0.030145511 65
0.19731888 1.2746176 0.053862248 100
0.21453112 1.2499902 0.071902916 48
0.21956784 1.2427835 0.09135773 100
0.20809954 1.2591925 0.11601187 100
0.22737256 1.2316166 0.13002171 64
0.2013948 1.2687857 0.163056 70
0.21024823 1.2595677 0.010401634 97
0.22774294 1.2343585 0.029622151 100
0.19445041 1.2823317 0.054559495 100
0.22404712 1.2396841 0.07019674 82
0.22564244 1.2373853 0.090106249 100
0.22091696 1.2441945 0.11219569 91
0.22890511 1.2326839 0.13002171 96
0.20305076 1.2699389 0.163056 70
0.2097767 1.2641037 0.010471444 96
0.2181201 1.2519866 0.03066887 96
0.20875987 1.2655804 0.05264207 100
0.22239342 1.2457805 0.070927955 48
0.22959825 1.235317 0.089480512 97
0.22043034 1.2486315 0.11295892 82
0.22618237 1.2402779 0.13182132 86
0.21145907 1.2616603 0.15995017 72
0.21367431 1.2619276 0.010401634 83
0.22084749 1.2514358 0.030564198 64
0.21152964 1.2650646 0.052467756 100
0.22621369 1.2435869 0.070440479 65
0.23560259 1.2298542 0.088229038 98
0.2253435 1.2448597 0.11181407 98
0.22444409 1.2461752 0.13317102 93
0.21745262 1.2564013 0.15787962 73
0.21435702 1.264812 0.010436539 68
0.21925068 1.2575976 0.030878214 63
0.21446487 1.264653 0.052293446 80
0.22683731 1.2464132 0.070684217 81
0.22841895 1.2440815 0.090731993 100
0.22929031 1.2427969 0.11105084 91
0.22619155 1.2473652 0.13317102 93
0.2192376 1.2576169 0.15787962 73
0.21823385 1.2626051 0.010366729 41
0.23760489 1.233843 0.029308135 34
0.21499407 1.2674154 0.052467756 53
0.23285452 1.2408963 0.069709264 83
0.23440671 1.2385917 0.089480512 100
0.22976321 1.2454863 0.11143246 98
0.23757368 1.2338893 0.1291219 96
0.21869808 1.2619157 0.15891489 73
0.21337572 1.2737938 0.010576159 40
0.22599164 1.2549127 0.030564198 32
0.21571252 1.2702966 0.05264207 53
0.22245112 1.2602115 0.072390392 63
0.23173648 1.246315 0.090731993 100
0.23259884 1.2450244 0.11105084 84
0.23819336 1.2366517 0.12957181 96
0.21835673 1.2663393 0.15995017 72
0.21725911 1.2715746 0.010506349 27
0.20331115 1.2925998 0.032866981 29
0.22177905 1.2647612 0.051944822 54
0.22517592 1.2596408 0.072146654 95
0.24532983 1.2292607 0.087290429 99
0.22549337 1.2591623 0.11410378 82
0.24081981 1.2360592 0.1291219 96
0.22000447 1.2674363 0.15995017 72
0.21909973 1.2727908 0.010506349 27
0.18766096 1.3205609 0.03454173 27
0.23564315 1.2476537 0.050027397 57
0.2258814 1.2624862 0.072390392 95
0.24158531 1.2386248 0.088854775 98
0.23484355 1.2488687 0.11143246 91
0.24145877 1.2388171 0.12957181 96
0.2282021 1.25896 0.15684435 74
0.23608193 1.2504488 0.010017681 29
0.21570769 1.2816315 0.032029606 30
0.22742069 1.2637048 0.051596198 54
0.22751632 1.2635584 0.072390392 100
0.24422151 1.2379913 0.08854191 84
0.24072871 1.243337 0.10990598 92
0.23981735 1.2447318 0.13092151 96
0.22876865 1.2616417 0.15736198 74
0.23566967 1.2549522 0.010087491 43
0.23931161 1.2493334 0.029936166 33
0.22381401 1.2732433 0.052467756 53
0.24120423 1.2464135 0.069709264 83
0.2448644 1.2407665 0.088854775 100
0.24566913 1.239525 0.10876112 94
0.25003889 1.2327833 0.1273223 97
0.23057276 1.2628158 0.15736198 74
0.23511541 1.2593552 0.0101573 57
0.25819498 1.2234877 0.028261416 35
0.22979712 1.2676202 0.051770512 54
0.24171162 1.2491041 0.069953002 66
0.24963397 1.2367922 0.087916173 84
0.24297836 1.2471355 0.1102876 85
0.25473869 1.2288591 0.12597258 90
0.22593656 1.2736199 0.1604678 72
0.23897791 1.2570806 0.010087491 57
0.24258149 1.2514371 0.029936166 66
0.23689744 1.2603387 0.050898954 55
0.24124917 1.2535236 0.070440479 65
0.25764388 1.2278484 0.086038955 58
0.24147597 1.2531683 0.11143246 84
0.25529343 1.2315294 0.12642249 90
0.23393461 1.2649786 0.15736198 74
0.24068001 1.2581632 0.010087491 71
0.25067794 1.2423847 0.029308135 100
0.24074373 1.2580627 0.05055033 56
0.24293888 1.2545984 0.070440479 49
0.25924385 1.2288661 0.086038955 72
0.24211362 1.2559007 0.11181407 91
0.25377715 1.2374936 0.1277722 97
0.24083436 1.2579197 0.15477379 67
0.24664354 1.2524686 0.0099478718 73
0.24807626 1.2501899 0.029726824 100
0.23714668 1.2675726 0.051421888 82
0.24885887 1.2489452 0.069465525 49
0.25664151 1.2365674 0.087290429 71
0.25739676 1.2353662 0.10685304 81
0.26267183 1.2269766 0.12462288 83
0.23636961 1.2688086 0.15787962 65
0.24409556 1.2603108 0.010087491 57
0.25186867 1.2478518 0.029517479 100
0.23677617 1.2720425 0.051770512 81
0.25053251 1.2499934 0.069465525 49
0.25408944 1.2442924 0.08854191 70
0.24551332 1.2580384 0.11181407 91
0.25807959 1.2378969 0.1273223 97
0.23402235 1.2764564 0.15995017 64
0.2446703 1.2630227 0.010122396 85
0.25766125 1.2420459 0.029098792 100
0.2426388 1.2663029 0.051073264 83
0.25526139 1.2459209 0.068734311 67
0.26606447 1.228477 0.085413218 58
0.25436911 1.2473617 0.10914274 78
0.26886708 1.2239516 0.12327318 93
0.23773783 1.2742167 0.15891489 65
0.24848697 1.2606779 0.010052586 86
0.2551282 1.2498701 0.029517479 100
0.24541619 1.2656753 0.050898954 83
0.25172809 1.2554034 0.069953002 49
0.26352981 1.2361975 0.086664692 57
0.24884233 1.2600996 0.11181407 91
0.26637241 1.2315714 0.12507279 92
0.237477 1.2785954 0.15995017 64
0.2553221 1.253139 0.0098780617 73
0.2608811 1.2440248 0.029098792 100
0.24706158 1.2666826 0.050898954 83
0.24610376 1.268253 0.071659178 80
0.27022037 1.2287126 0.085100345 58
0.26478127 1.2376302 0.10647142 66
0.26891932 1.2308457 0.12462288 92
0.25526029 1.2532403 0.15166797 69
0.26425746 1.2421889 0.0096337283 90
0.26046944 1.2484486 0.029308135 100
0.2498287 1.2660325 0.05072464 100
0.25914997 1.2506291 0.068978049 50
0.26466432 1.2415166 0.087290429 57
0.26031673 1.248701 0.10876112 79
0.26548511 1.2401602 0.12687239 82
0.24994767 1.2658358 0.15529142 75
0.25784287 1.2570009 0.0099129668 87
0.25922629 1.2546949 0.029622151 100
0.24456078 1.2791409 0.051944822 81
0.26916727 1.2381241 0.067028143 51
0.27054176 1.2358329 0.086038955 58
0.26013699 1.2531768 0.10952436 85
0.27531254 1.2278805 0.12327318 85
0.24092174 1.285207 0.16098544 64
0.26363552 1.2511443 0.0097733475 89
0.27011332 1.2402604 0.028680105 100
0.24837786 1.2767799 0.051596198 100
0.26166567 1.2544539 0.069221787 33
0.2741901 1.2334107 0.085413218 73
0.26282945 1.2524986 0.10914274 78
0.27691254 1.2288365 0.12327318 93
0.25062627 1.2730021 0.15684435 66
0.2592164 1.2624726 0.0099827768 87
0.26261714 1.256713 0.029622151 100
0.26027879 1.2606733 0.049853086 85
0.26234919 1.2571669 0.069465525 49
0.27580938 1.2343706 0.085413218 73
0.25952446 1.2619509 0.11105084 84
0.28049746 1.2264309 0.12237337 85
0.25434837 1.2707171 0.15580906 67
0.26194793 1.261759 0.0099478718 87
0.27340314 1.242203 0.028680105 100
0.25997931 1.2651199 0.050201707 85
0.25803152 1.2684453 0.070927955 97
0.27543518 1.2387339 0.086038955 72
0.26322803 1.2595737 0.1102876 85
0.27815253 1.2340949 0.12417299 92
0.26586217 1.2550768 0.15063268 70
0.26868966 1.2541167 0.0097733475 89
0.26903239 1.2535268 0.029308135 100
0.25970733 1.2695746 0.05055033 84
0.2717413 1.248865 0.068003096 51
0.27905795 1.2362735 0.085413218 73
0.27282968 1.246992 0.10723466 81
0.27879509 1.2367258 0.12462288 92
0.25979239 1.2694283 0.15477379 67
0.26438943 1.2654905 0.0099827768 87
0.27670646 1.2441224 0.028680105 100
0.25747299 1.2774895 0.051247578 82
0.27341455 1.2498333 0.068003096 51
0.27871421 1.2406392 0.086038955 72
0.27449638 1.2479565 0.10723466 81
0.28626508 1.2275397 0.12192347 85
0.26057273 1.2721119 0.15529142 67
0.26909849 1.2612767 0.0098780617 73
0.28034586 1.2416058 0.02847076 100
0.26517999 1.2681298 0.050201707 85
0.27509117 1.2507958 0.068003096 51
0.28330025 1.2364388 0.085100345 58
0.26837048 1.2625499 0.1102876 92
0.29173297 1.2216905 0.12012386 86
0.25849155 1.2798274 0.15736198 66
0.26884204 1.265733 0.0099478718 73
0.27214053 1.2599171 0.029517479 100
0.26790345 1.267388 0.050027397 85
0.27285388 1.2586594 0.068978049 50
0.28590459 1.2356486 0.084787481 73
0.27783984 1.2498683 0.10723466 66
0.29331124 1.2225894 0.12012386 86
0.27476117 1.2552965 -0.0097384425 88
0.26789737 1.2673987 0.15322088 68
0.28413552 1.2422187 0.009459204 77
0.27760047 1.2538261 0.029098792 100
0.27630967 1.2561188 0.048807215 100
0.27828595 1.2526085 0.068003096 51
0.28543052 1.2399187 0.085413218 58
0.2774224 1.2541424 0.10799789 87
0.28804201 1.2352803 0.12327318 85
0.27325243 1.2615489 0.15115032 69
0.2877354 1.2396522 0.0093893949 77
0.28026477 1.2530303 0.028994121 100
0.27217981 1.2675084 0.049853086 85
0.27803653 1.2570205 0.068490572 50
0.28610936 1.242564 0.08572609 58
0.2829428 1.2482345 0.10647142 81
0.29156795 1.2327889 0.12237337 85
0.26931864 1.2726321 0.15425615 67
0.28162551 1.2545593 0.0096686333 75
0.28775856 1.2434858 0.028366089 100
0.27005687 1.2754469 0.05055033 84
0.28358537 1.2510207 0.067515619 51
0.2887176 1.2417543 0.085413218 73
0.27890655 1.2594684 0.10876112 79
0.27387464 1.2685537 -0.0099478718 86
0.27481884 1.2668489 0.1521856 69
0.28235582 1.2572458 0.0097035384 90
0.29133609 1.2408972 0.028156744 100
0.27278215 1.2746747 0.05037602 84
0.28431034 1.2536876 0.067759357 34
0.2951211 1.2340065 0.083848871 59
0.28534278 1.251808 0.10685304 81
0.28139308 1.2589984 -0.0097384425 88
0.27655482 1.2678064 0.1521856 69
0.28318715 1.2599796 0.0097384425 90
0.28542253 1.2558745 0.028994121 100
0.27653939 1.2721877 0.050027397 85
0.28418627 1.2581449 0.068246834 85
0.29776818 1.2332028 0.083536007 60
0.2842938 1.2579474 0.10799789 79
0.27744925 1.2705169 -0.0099478718 86
0.2793051 1.2671087 0.15166797 77
0.29060021 1.2503508 0.0095290141 76
0.28522211 1.2603099 0.029203463 100
0.28776112 1.2556082 0.048284281 88
0.28683507 1.257323 0.068003096 51
0.29375485 1.2445092 0.085413218 58
0.28973013 1.2519621 0.10647142 73
0.27919802 1.2714652 -0.0099478718 86
0.28563172 1.2595514 0.14907977 70
0.29597193 1.2441578 0.0093893949 77
0.29062226 1.2541431 0.028784776 100
0.2856093 1.2635001 0.048981529 87
0.28657764 1.2616926 0.068490572 50
0.29596549 1.2441697 0.10456333 75
0.2799181 1.2741231 -0.0099827768 96
0.28178275 1.2706426 0.1521856 69
0.29106131 1.2574033 0.0096337283 90
0.29981014 1.2409352 0.0279474 100
0.28920308 1.260901 0.048632905 88
0.29760891 1.2450786 0.066053182 52
0.2979174 1.2444979 0.085100345 58
0.29393783 1.2519886 0.1060898 73
0.28171924 1.2749879 0.15322088 68
0.29666027 1.2513157 0.0094941091 92
0.28830594 1.267188 0.049155839 87
0.29396158 1.2564429 0.10685304 81
0.28827772 1.2672416 -0.0098082526 88
0.28276044 1.2777238 0.15373851 76
0.29085359 1.2663342 0.0097733475 89
0.29948887 1.2497953 0.028366089 100
0.29733324 1.2539239 0.047761347 90
0.29917741 1.2503918 0.066540658 52
0.2955761 1.2572893 0.10685304 73
0.28992808 1.2681068 -0.0098082526 88
0.29428092 1.2597699 0.1480445 71
0.29810369 1.2565807 0.0095639192 91
0.29538012 1.2618418 0.068003096 51
0.29599211 1.2606596 0.1480445 71
0.29971862 1.2574134 0.0095639192 91
0.29972294 1.2574049 0.047935657 59
0.29701251 1.2626834 0.068003096 51
0.29497325 1.2666547 0.14959741 78
0.29608947 1.2689731 0.048981529 58
0.29416686 1.2727513 0.15115032 77
0.29954094 1.266255 0.048632905 59
0.29321653 1.2787861 -0.0099478718 100
0.29496503 1.2753217 0.15166797 77
