# .PCD v0.7 - Point Cloud Data file format
VERSION 0.7
FIELDS x y z intensity
SIZE 4 4 4 4
TYPE F F F F
COUNT 1 1 1 1
WIDTH 731
HEIGHT 1
VIEWPOINT 0 0 0 1 0 0 0
POINTS 731
DATA ascii
0.053134084 0.0019621849 0.047939736 54
0.054818988 0.010393858 0.047521047 40
0.044494689 0.00044167042 0.048253752 25
0.041811526 0.0022109151 0.048253752 100
0.040376127 0.0055621862 0.048149079 79
0.044392884 0.017293394 0.047521047 58
0.032946289 0.0057402849 0.048358422 25
0.028031766 0.0042491555 0.048567768 16
0.024097681 0.0045211911 0.048672438 16
0.025975764 0.012930512 0.048253752 8
0.037302315 0.034244418 0.046997689 10
0.0094904304 7.6055527e-05 0.049300469 7
-1.0143149 1.1236813 0.084051549 3
-1.0474241 1.1311672 0.14328404 6
-1.0363517 1.1347803 0.028412517 7
-1.0071685 1.1280696 0.08373753 7
-1.0189056 1.1307685 0.14084367 9
-1.0039761 1.1327653 0.02785404 11
-1.0118074 1.1345936 0.084051549 43
-1.0254617 1.137781 0.14154093 45
-0.98901635 1.1352265 0.027609708 31
-0.98714131 1.1347815 0.082795486 91
-1.020226 1.1426328 0.1411923 91
-0.98390847 1.1393917 0.027539898 38
-0.98980671 1.140812 0.083004825 100
-1.0151076 1.1469049 0.14084367 84
-0.99031383 1.1469123 0.027679516 38
-0.97485703 1.1431302 0.08227212 100
-0.99823326 1.1488502 0.13944919 91
-0.98517388 1.1510547 0.027609708 23
-0.97942668 1.1496282 0.082586139 88
-0.98923367 1.1520624 0.13875194 91
-0.9645099 1.1512617 0.027260659 27
-0.98784357 1.1571357 0.083109498 41
-0.99761873 1.1595964 0.13962349 71
-0.96517485 1.1567765 0.027295563 45
-0.97300488 1.1587753 0.082376793 34
-0.9866659 1.1622624 0.13875194 85
-0.96761853 1.1633307 0.027365373 61
-0.96770293 1.1633526 0.082167454 80
-0.98907512 1.1688918 0.13910057 91
-0.96630591 1.1683612 0.027365373 68
-0.96832186 1.1688908 0.08227212 98
-0.97810894 1.1714621 0.13822901 94
-0.94937807 1.1697944 0.027086135 81
-0.96106023 1.1729093 0.081958108 90
-0.96507651 1.1739802 0.13718314 100
-0.94418317 1.1737211 0.027016325 92
-0.95778769 1.177397 0.081853434 98
-0.96372849 1.1790022 0.13718314 100
-0.94269341 1.1791949 0.027016325 89
-0.94665343 1.1802804 0.081330076 100
-0.9699052 1.1866546 0.13788038 98
-0.94518179 1.1852127 0.027086135 93
-0.93566245 1.1825691 0.080806717 100
-0.96851522 1.1916924 0.13788038 89
-0.94749957 1.1917742 0.027155945 92
-0.93990773 1.189636 0.081120729 84
-0.9458639 1.1913136 0.13596296 99
-0.95370978 1.1991943 0.027295563 63
-0.93459266 1.1937379 0.08091139 72
-0.94246823 1.1959858 0.13578865 100
-0.9483605 1.2033296 0.027225753 48
-0.93502313 1.1994724 0.081016064 34
-0.94862801 1.2034069 0.13648589 98
-0.92764848 1.2029346 0.026876707 56
-0.92584831 1.2024071 0.080597371 24
-0.94901806 1.2091956 0.1366602 80
-0.93195623 1.2095382 0.026981421 71
-0.91483217 1.2044593 0.080074012 26
-0.94755334 1.2141641 0.1366602 80
-0.93232805 1.2152838 0.027016325 78
-0.90756828 1.207846 0.07976 38
-0.93072861 1.2148033 0.13526571 99
-0.91163331 1.2146355 0.026667276 78
-0.91940659 1.2170001 0.080492698 94
-0.9234485 1.2182298 0.13474278 100
-0.90625018 1.2185576 0.026597468 85
-0.9197461 1.2227145 0.080597371 92
-0.92187494 1.2233703 0.13474278 98
-0.90077859 1.2227006 0.026527658 89
-0.90473074 1.2239339 0.079864666 87
-0.9259091 1.2305424 0.13526571 66
-0.9106304 1.2313759 0.026737086 83
-0.90313739 1.2290092 0.079864666 70
-0.91669315 1.233291 0.13456847 45
-0.91671175 1.2386516 0.026876707 85
-0.9035098 1.2344332 0.079969339 78
-0.91514868 1.2381521 0.13456847 43
-0.89604002 1.2376157 0.026527658 88
-0.90568048 1.2407331 0.080178685 98
-0.90402704 1.2401985 0.13369691 49
-0.88299578 1.2389289 0.02631823 99
-0.90023202 1.2445693 0.079969339 100
-0.90995115 1.2477497 0.13439415 71
-0.88135022 1.2439282 0.02631823 100
-0.88908643 1.2464896 0.07944598 100
-0.91205746 1.2540956 0.13474278 82
-0.8872717 1.2514623 0.026457848 99
-0.87605149 1.2477038 0.078817949 100
-0.9084695 1.2585633 0.13456847 80
-0.88179451 1.2551928 0.026388038 96
-0.88194174 1.2552427 0.079236634 100
-0.89732021 1.2604541 0.13369691 78
-0.88017768 1.2599381 0.026388038 96
-0.88221413 1.2606359 0.079341307 100
-0.89380103 1.264605 0.1335226 100
-0.86712176 1.2609994 0.02617861 83
-0.88615435 1.2675937 0.079655327 100
-0.89771348 1.2715988 0.13404553 87
-0.86917371 1.2672656 0.02624842 77
-0.86367482 1.2653389 0.078503937 76
-0.90535527 1.2799433 0.1349171 52
-0.87119895 1.2735522 0.02631823 78
-0.85064167 1.2662684 0.077875905 46
-0.90356642 1.2850204 0.1349171 36
-0.86566752 1.2771611 0.02624842 93
-0.85830206 1.2745224 0.078399263 17
-0.88300318 1.2833717 0.13317397 41
-0.85636789 1.2793757 0.0261088 99
-0.85653239 1.2794353 0.078399263 55
-0.86808938 1.2836211 0.13195379 22
-0.84707016 1.2815316 0.025969181 100
-0.86599845 1.2884622 0.079027295 100
-0.8644169 1.287883 0.13177948 15
-0.83777457 1.2836287 0.025829561 100
-0.85106844 1.2885489 0.07829459 100
-0.87381166 1.2969664 0.13282534 3
-0.83971912 1.2898712 0.025899371 100
-0.8342846 1.2878382 0.077457212 70
-0.87196356 1.3019333 0.13282534 1
-0.84537786 1.2975477 0.026038991 100
-0.82873219 1.2912545 0.077247873 48
-0.84587067 1.297734 0.1305593 3
-0.83979183 1.3009878 0.025969181 79
-0.83436722 1.2989153 0.077666558 53
-0.83843654 1.3004701 0.13003637 18
-0.82487148 1.3007944 0.025724847 74
-0.84182864 1.3073411 0.078189917 63
-0.84401113 1.3081837 0.13073361 58
-0.83232504 1.3092239 0.025899371 81
-0.82878023 1.3078412 0.077561885 68
-0.85326105 1.3173907 0.13177948 100
-0.82299274 1.3111131 0.025759751 93
-0.81760365 1.308989 0.077038527 69
-0.84021991 1.3179026 0.13073361 97
-0.82862276 1.3186207 0.025899371 100
-0.8269431 1.3179522 0.077666558 89
-0.83099061 1.3195629 0.13003637 99
-0.81185621 1.3174627 0.025620133 100
-0.83058137 1.3249902 0.077980578 95
-0.82906383 1.3243802 0.13003637 100
-0.80623132 1.3207084 0.025550323 100
-0.82308418 1.3275516 0.077666558 97
-0.82896632 1.3299401 0.13021068 100
-0.76689929 1.3047373 0.1745169 11
-0.80430073 1.3254392 0.025550323 100
-0.81558591 1.3300676 0.077352546 100
-0.81778651 1.33097 0.12933913 100
-0.79808396 1.3228896 0.17890419 19
-0.80604857 1.3316936 0.025620133 100
-0.79701549 1.3279521 0.076410495 100
-0.81950146 1.3372661 0.12968774 100
-0.78147393 1.3215146 0.17695428 20
-0.81514841 1.341054 0.025829561 100
-0.80058736 1.3349628 0.076724514 100
-0.81016082 1.3389676 0.1289905 100
-0.7832033 1.3276911 0.17744176 16
-0.79104167 1.3364782 0.025410704 100
-0.79308754 1.3373424 0.076410495 96
-0.78981286 1.3359591 0.12724738 100
-0.78490573 1.3338863 0.17792924 22
-0.7964136 1.3442941 0.025550323 81
-0.8021217 1.3467288 0.077038527 56
-0.79882497 1.3453226 0.12829325 90
-0.75919217 1.3284178 0.17476064 15
-0.81276685 1.3569001 0.025899371 56
-0.8111065 1.3561851 0.077666558 53
-0.83340651 1.3657889 0.13177948 20
-0.78458303 1.3447622 0.17841671 8
-0.80704218 1.3600588 0.025829561 99
-0.80355722 1.3585434 0.077352546 100
-0.82035559 1.3658476 0.13073361 58
-0.80077308 1.3573328 0.18085411 21
-0.8031432 1.3639884 0.025794657 100
-0.81063861 1.3672786 0.077875905 100
-0.81279427 1.3682249 0.13021068 100
-0.78417331 1.3556612 0.17890419 35
-0.79192036 1.3646572 0.025620133 100
-0.81219751 1.3736428 0.078085244 100
-0.81434089 1.3745927 0.1305593 100
-0.78575057 1.3619232 0.17939167 38
-0.79004556 1.36887 0.025620133 100
-0.81758815 1.3811789 0.078503937 100
-0.80515867 1.3756242 0.12986206 100
-0.76213628 1.3563974 0.17646681 22
-0.79159266 1.3751886 0.025689943 100
-0.80452281 1.3810214 0.077875905 100
-0.81393343 1.3852664 0.13090792 100
-0.76912886 1.3650553 0.1776855 24
-0.79846448 1.3842463 0.025864467 100
-0.79500395 1.3826702 0.077457212 100
-0.81166917 1.3902614 0.13090792 100
-0.76513249 1.3690633 0.17744176 16
-0.80357963 1.3922908 0.026004085 100
-0.80374521 1.3923669 0.078085244 100
-0.80587524 1.3933463 0.1305593 100
-0.76483709 1.3744794 0.1776855 15
-0.79414338 1.3936454 0.025864467 100
-0.81062323 1.4012916 0.07860861 100
-0.80007643 1.3963983 0.13021068 100
-0.78432757 1.3890913 0.18061037 12
-0.78833622 1.3966377 0.025794657 100
-0.81383771 1.408578 0.078922622 100
-0.80509919 1.4044864 0.13090792 100
-0.74979824 1.3785934 0.17622307 7
-0.79337281 1.4047226 0.025934275 100
-0.80437702 1.4099219 0.078503937 100
-0.8100819 1.4126174 0.13160518 100
-0.77099878 1.3941512 0.17939167 3
-0.7984814 1.4126149 0.026073895 100
-0.80224746 1.4144096 0.078503937 100
-0.81513792 1.4205525 0.13230242 100
-0.7832579 1.4053602 0.18134159 1
-0.80343884 1.4207842 0.026213514 100
-0.80358976 1.420857 0.078713275 100
-0.8020851 1.4201334 0.13125655 100
-0.7922768 1.4209063 0.026038991 100
-0.80142409 1.4253421 0.078713275 100
-0.79992181 1.4246135 0.13125655 100
-0.78258389 1.4225377 0.025899371 100
-0.80427903 1.4331614 0.079027295 100
-0.80455583 1.4332969 0.13195379 100
-0.79475671 1.4340363 0.02617861 100
-0.80207247 1.4376487 0.079027295 100
-0.80949455 1.4413137 0.13265105 100
-0.79947287 1.4425282 0.02631823 100
-0.79961628 1.4425998 0.079027295 100
-0.80702502 1.4462919 0.13265105 100
-0.80795592 1.4523869 0.026527658 100
-0.80273229 1.4497619 0.079341307 100
-0.8012144 1.4489992 0.13230242 100
-0.79141527 1.4496559 0.02624842 100
-0.80403394 1.4560494 0.079550654 100
-0.79717797 1.4525757 0.1321281 100
-0.7855925 1.452281 0.02617861 100
-0.80175143 1.4605358 0.079550654 100
-0.80377847 1.4615712 0.13299966 100
-0.78663772 1.4590042 0.02624842 100
-0.79921144 1.4654856 0.079550654 100
-0.81363136 1.4729186 0.13421984 100
-0.79499191 1.4689655 0.026457848 100
-0.79335326 1.4681139 0.079341307 100
-0.81836456 1.4811118 0.1349171 100
-0.79583985 1.4759825 0.026527658 99
-0.79243141 1.4741945 0.07944598 100
-0.80856651 1.4826585 0.13421984 100
-0.77934927 1.4729633 0.02624842 81
-0.79185444 1.4795761 0.079550654 97
-0.80091184 1.4843657 0.13369691 94
-0.81058961 1.4958769 0.1349171 26
0.12740651 1.2942873 0.13089497 11
0.16132775 1.2554895 0.010855397 13
0.16304952 1.2533388 0.032448292 29
0.12414709 1.3019317 0.059614528 21
0.14753622 1.2727165 0.10199527 11
0.14877903 1.2711641 0.12478908 36
0.19924352 1.2081289 0.12957181 8
0.1419158 1.2797369 0.17496167 7
0.15431476 1.267801 0.011099731 75
0.16722459 1.2515595 0.032238949 90
0.15452066 1.2675421 0.055605363 73
0.15226346 1.2703817 0.078483857 14
0.17756417 1.2385516 0.094799288 25
0.15419573 1.2679509 0.12364423 85
0.18864915 1.2246059 0.13407083 23
0.15331423 1.2690599 0.17082056 29
0.16216317 1.2612629 0.010925206 100
0.17129877 1.249691 0.032029606 100
0.15740731 1.267287 0.055431053 100
0.16376537 1.2592335 0.076533951 29
0.17789596 1.2413346 0.095112152 38
0.15828219 1.2661788 0.122881 100
0.1925737 1.2227426 0.13317102 46
0.15138018 1.2749214 0.17237349 42
0.16889969 1.2563848 0.010785587 100
0.17059582 1.2542201 0.032238949 100
0.15923259 1.2687225 0.055431053 100
0.17045841 1.2543955 0.07555899 30
0.17718932 1.245805 0.095737889 38
0.172212 1.2521574 0.11906482 100
0.18702403 1.2332534 0.13587044 30
0.15561649 1.2733376 0.1713382 43
0.16437414 1.2655367 0.010960111 100
0.17956331 1.2460183 0.031610917 92
0.15477046 1.2778776 0.056302611 96
0.17694336 1.2493849 0.074584037 30
0.15935844 1.271982 0.10074379 23
0.17984161 1.2456607 0.11715672 100
0.18377498 1.2406062 0.13767004 30
0.14898267 1.2853149 0.17496167 42
0.17230454 1.2590336 0.010785587 65
0.18008965 1.2489535 0.031715591 61
0.16515952 1.2682848 0.055082429 50
0.16414222 1.2696019 0.077508904 72
0.16844562 1.26403 0.098866582 24
0.1926493 1.2326915 0.13497064 22
0.14733157 1.2913681 0.1765146 41
0.16906008 1.2666301 0.010925206 65
0.16709304 1.2691945 0.032971654 29
0.16438878 1.27272 0.055431053 49
0.19117272 1.2378018 0.072390392 47
0.19292891 1.2355123 0.092922069 53
0.18556109 1.2451177 0.11639348 13
0.19181353 1.2369664 0.13587044 30
0.16082039 1.2773721 0.1713382 58
0.1781503 1.2584761 0.010715778 53
0.16408619 1.2769513 0.033390339 28
0.1746816 1.2630327 0.054210871 51
0.18086579 1.254909 0.074827775 45
0.18985146 1.2431051 0.094173551 65
0.19681826 1.2339532 0.11334054 13
0.1994293 1.2305232 0.13362093 46
0.17789447 1.2588122 0.16460891 69
0.1821841 1.2565162 0.010645968 40
0.16817841 1.2750418 0.033180997 28
0.17151245 1.2706318 0.054908119 50
0.18846157 1.2482129 0.073609084 77
0.18903974 1.2474482 0.094799288 64
0.19480678 1.23982 0.1144854 13
0.19273183 1.2425647 0.13677025 37
0.17718741 1.2631254 0.16564418 68
0.17916933 1.2642593 0.010785587 39
0.17482659 1.2700474 0.032762308 29
0.17574131 1.2688283 0.054559495 50
0.19736475 1.2400076 0.072146654 79
0.19909063 1.2377074 0.092609204 53
0.19653115 1.2411187 0.1144854 13
0.20616144 1.228283 0.13227122 31
0.17667854 1.2675791 0.16667947 67
0.18319997 1.2622793 0.010715778 79
0.20512685 1.2328514 0.030250182 32
0.17025501 1.2796526 0.055605363 49
0.2012974 1.2379909 0.071659178 80
0.19474226 1.2467885 0.094173551 65
0.20044142 1.2391397 0.11372216 13
0.22165519 1.2106688 0.12687239 33
0.18294764 1.2626179 0.16460891 69
0.18135303 1.2683797 0.010820492 78
0.19961819 1.2436867 0.030878214 31
0.17796054 1.272966 0.054733805 50
0.19348913 1.2519727 0.073609084 62
0.20815593 1.2321444 0.091044858 68
0.20558369 1.2356219 0.1125773 13
0.217401 1.2196459 0.1291219 32
0.18352059 1.2654493 0.16512655 68
0.19958159 1.2470368 0.010331824 84
0.19527891 1.2528943 0.031401575 62
0.18434858 1.2677741 0.054036561 77
0.19508937 1.2531523 0.073609084 62
0.206182 1.2380515 0.091983467 93
0.20480511 1.2399259 0.11334054 13
0.21889389 1.2207463 0.1291219 24
0.19431502 1.2542064 0.16098544 72
0.19426477 1.2580136 0.010541254 81
0.20999265 1.2364374 0.030250182 65
0.18734908 1.2675009 0.053862248 100
0.20387858 1.244825 0.072146654 79
0.19975457 1.2504826 0.094173551 100
0.21346858 1.2316689 0.11105084 14
0.22054818 1.2219568 0.1291219 16
0.19267821 1.2601901 0.16253836 70
0.19831499 1.2560123 0.010471444 82
0.22098973 1.2246768 0.029412808 67
0.18791988 1.2703779 0.054036561 77
0.20786557 1.2428138 0.071659178 64
0.20606598 1.2453008 0.092922069 100
0.21508214 1.2328409 0.11105084 14
0.23697919 1.2025802 0.12327318 17
0.18986142 1.2676947 0.16460891 85
0.19768041 1.2604852 0.010541254 95
0.21442243 1.2371776 0.030145511 98
0.19083109 1.2700205 0.053862248 100
0.20951807 1.2440052 0.071659178 80
0.2111845 1.2416854 0.091983467 93
0.20868227 1.2451689 0.11372216 13
0.22939593 1.2163322 0.12687239 16
0.18483865 1.278363 0.16771474 67
0.19707277 1.2649684 0.010611063 81
0.21953383 1.2334676 0.029831495 99
0.19489211 1.2680267 0.053513627 100
0.20425993 1.2548887 0.073121607 78
0.22315449 1.2283897 0.089167647 100
0.21490216 1.2399633 0.11219569 21
0.23095587 1.2174486 0.12687239 16
0.20119566 1.2591863 0.16098544 72
0.20111319 1.2629329 0.010541254 95
0.21653828 1.2411392 0.030250182 98
0.20353889 1.2595057 0.052467756 100
0.19563326 1.2706754 0.075315252 100
0.22133294 1.234365 0.090106249 96
0.20293424 1.26036 0.1167751 33
0.23026806 1.2217407 0.1277722 24
0.2073696 1.2540934 0.15891489 73
0.20513508 1.2608752 0.010471444 96
0.21703672 1.2439346 0.030354854 97
0.20066831 1.2672331 0.053165004 100
0.21678275 1.2442961 0.071171694 81
0.22068474 1.2387421 0.090731993 95
0.20013362 1.2679942 0.11830158 84
0.23184687 1.2228541 0.1277722 32
0.20461929 1.2616094 0.16098544 80
0.21142599 1.2555151 0.010331824 98
0.22097796 1.2418175 0.030145511 98
0.2001268 1.271718 0.053513627 100
0.21844038 1.2454565 0.071171694 81
0.21667337 1.2479903 0.092296332 100
0.20748901 1.2611606 0.11639348 100
0.22674146 1.2335527 0.13047162 80
0.19307712 1.2818272 0.16719711 75
0.20629421 1.2665594 0.010541254 95
0.22035351 1.2462475 0.030354854 97
0.19961238 1.2762127 0.053862248 100
0.22236162 1.2433465 0.070684217 65
0.22846222 1.2345327 0.089480512 100
0.21814445 1.249439 0.11334054 96
0.22947064 1.2330759 0.13002171 88
0.2036618 1.2703624 0.163056 70
0.21020803 1.2644004 0.010471444 96
0.22532839 1.2424002 0.03004084 99
0.20806396 1.26752 0.05281638 100
0.2171869 1.2542461 0.072146654 79
0.23224217 1.2323406 0.088854775 100
0.22307214 1.245683 0.11219569 91
0.22438532 1.2437723 0.13272113 94
0.21188825 1.2619556 0.15995017 72
0.21869716 1.2556717 0.010262015 98
0.22923037 1.2402307 0.029831495 66
0.20980272 1.2687106 0.05281638 100
0.21664196 1.2586846 0.072634131 63
0.2271789 1.243238 0.090731993 100
0.21920288 1.2549305 0.11410378 100
0.22713926 1.2432961 0.13227122 94
0.21360755 1.2631328 0.15995017 72
0.2237578 1.2518578 0.0101573 42
0.22415528 1.2512707 0.030459527 32
0.21377966 1.2665954 0.052467756 80
0.22502732 1.2499826 0.071171694 97
0.2277253 1.2459977 0.091044858 100
0.23740774 1.2316968 0.10837951 87
0.22660825 1.2476476 0.13317102 100
0.21316481 1.2675035 0.16098544 72
0.21428859 1.2695913 0.010506349 40
0.23920476 1.2325121 0.029203463 34
0.21107015 1.2743808 0.053165004 52
0.21231148 1.2725335 0.074340299 100
0.23049057 1.2454802 0.090731993 100
0.23573631 1.2376738 0.10952436 92
0.23697272 1.2358336 0.12957181 96
0.21598095 1.2670728 0.1604678 72
0.2204726 1.2641054 0.010366729 41
0.22530678 1.2568569 0.03066887 32
0.20841098 1.2821912 0.053862248 51
0.22287905 1.2604972 0.072390392 100
0.23653635 1.2400188 0.089480512 100
0.22756699 1.2534679 0.11295892 100
0.24184445 1.2320597 0.12822211 97
0.21343058 1.2746645 0.16253836 70
0.22882161 1.2552476 0.0101573 42
0.2093704 1.2846352 0.032343622 30
0.22339702 1.2634432 0.051770512 54
0.22788012 1.25667 0.071659178 96
0.24472064 1.2312268 0.087603301 99
0.23467454 1.2464048 0.11105084 91
0.24238363 1.2347577 0.128672 97
0.22372434 1.2629488 0.15839726 73
0.22393012 1.2663939 0.010366729 27
0.20458966 1.2958369 0.032971654 29
0.21965212 1.2729065 0.05264207 53
0.23176062 1.2544732 0.071171694 81
0.24416342 1.2355917 0.088229038 98
0.23849517 1.2442207 0.1102876 99
0.23972821 1.2423437 0.13047162 96
0.2275683 1.2608553 0.15736198 74
0.22566485 1.2675291 0.010366729 27
0.22387859 1.2702692 0.031296901 31
0.23555422 1.2523589 0.05037602 56
0.23995805 1.2456033 0.069709264 83
0.24039674 1.2449305 0.089793384 83
0.24551308 1.237082 0.10837951 94
0.24989256 1.2303638 0.12687239 82
0.22717369 1.2652146 0.15839726 73
0.23174825 1.2619423 0.01022711 42
0.24732405 1.2378658 0.029203463 34
0.22533551 1.2718549 0.052293446 53
0.24162009 1.2466828 0.069709264 66
0.24420238 1.2426912 0.089167647 98
0.24287981 1.2447355 0.10990598 85
0.24832585 1.2363173 0.12822211 97
0.22890428 1.2663383 0.15839726 73
0.23778868 1.2563192 0.010087491 43
0.25003806 1.2372388 0.029098792 68
0.22601292 1.2746618 0.052467756 53
0.2465032 1.2427449 0.068978049 50
0.24798861 1.2404311 0.08854191 84
0.24453881 1.2458047 0.10990598 85
0.25627217 1.2275281 0.12552269 90
0.22542045 1.2755846 0.16098544 72
0.23948812 1.257406 0.010087491 57
0.24845147 1.2433364 0.029412808 67
0.2299175 1.2724289 0.052119136 81
0.23748934 1.2605435 0.071415432 48
0.25387803 1.2348185 0.087290429 71
0.24514669 1.2485238 0.1102876 71
0.25368279 1.2351248 0.1273223 81
0.23237717 1.268568 0.15839726 73
0.24546558 1.2517259 0.0099478718 73
0.24903831 1.2460743 0.029517479 100
0.2327379 1.2718589 0.051944822 81
0.23814282 1.2633092 0.071659178 80
0.25128016 1.2425281 0.08854191 56
0.24786797 1.2479256 0.10990598 92
0.25843212 1.2312148 0.12597258 90
0.23515174 1.2680407 0.15787962 65
0.24379078 1.257761 0.010052586 86
0.25159734 1.2453259 0.029412808 67
0.23749414 1.267791 0.051421888 82
0.25130421 1.2457929 0.068978049 50
0.25486672 1.2401181 0.087916173 84
0.26085326 1.2305821 0.10570818 88
0.25677413 1.2370799 0.1273223 89
0.23671791 1.2690274 0.15787962 65
0.24655256 1.2571297 0.010017681 72
0.25642642 1.2412789 0.029098792 100
0.23501986 1.2756432 0.052119136 81
0.25086769 1.2502024 0.069465525 49
0.25024283 1.2512056 0.089793384 69
0.2510443 1.2499189 0.10990598 85
0.26046705 1.2347925 0.12642249 90
0.23744032 1.2717576 0.15839726 65
0.24930617 1.2564849 0.0099827768 87
0.2559731 1.2456987 0.029308135 100
0.23783433 1.2750449 0.051944822 81
0.25463313 1.2478665 0.068978049 50
0.2602331 1.2388065 0.087290429 57
0.25065693 1.2542995 0.11066922 85
0.27028793 1.2225391 0.12282328 85
0.23716226 1.2761321 0.15943253 65
0.24891528 1.2609408 0.010052586 86
0.26181203 1.2399118 0.028889447 100
0.25209853 1.2557503 0.049853086 100
0.2500762 1.2590479 0.070440479 98
0.26806763 1.2297115 0.085413218 58
0.24824375 1.2620358 0.11219569 91
0.2677941 1.2301575 0.12462288 92
0.24701062 1.2640465 0.15529142 67
0.25487342 1.2552072 0.0099129668 87
0.25938463 1.2477905 0.029308135 100
0.24663323 1.2687545 0.051073264 83
0.25187066 1.2601439 0.070440479 49
0.26770136 1.2341172 0.086038955 58
0.26535279 1.2379785 0.10647142 81
0.26543179 1.2378485 0.12642249 99
0.24882343 1.2651538 0.15529142 67
0.26061806 1.2493355 0.0097733475 89
0.25890613 1.2521712 0.029517479 100
0.24622938 1.273169 0.051421888 82
0.26375729 1.2441357 0.068003096 68
0.27128386 1.2316686 0.085413218 58
0.26589155 1.2406005 0.10685304 95
0.26497045 1.2421262 0.1273223 89
0.25046706 1.2661498 0.15529142 67
0.25612786 1.2606359 0.0099827768 100
0.26264355 1.2497575 0.029308135 100
0.24286875 1.2827725 0.052293446 80
0.2664341 1.2434289 0.067759357 51
0.26680693 1.2428066 0.087290429 57
0.27258 1.2331681 0.10494494 82
0.27262825 1.2330875 0.12462288 92
0.24624479 1.2771361 0.15839726 65
0.26286566 1.2530131 0.0098082526 89
0.27035958 1.2404069 0.028680105 100
0.24762514 1.2786504 0.051770512 81
0.26090503 1.2563112 0.069465525 49
0.26635754 1.2471391 0.087916173 56
0.26107571 1.2560241 0.10990598 85
0.28014019 1.2239541 0.12192347 76
0.24694103 1.2798012 0.15891489 73
0.2605758 1.2609528 0.0099478718 87
0.2639713 1.255193 0.029517479 100
0.25960961 1.2625918 0.050027397 85
0.25966504 1.2624977 0.07019674 82
0.28114951 1.2260535 0.083848871 59
0.26285902 1.2570798 0.10990598 85
0.27586794 1.2350127 0.12462288 75
0.26463792 1.2540622 -0.0098082526 88
0.25960335 1.2626023 0.15322088 68
0.26523489 1.2567319 0.0098431576 88
0.26860756 1.2509671 0.029203463 100
0.25822636 1.2687111 0.05055033 84
0.27032173 1.2480372 0.068003096 51
0.28066826 1.2303525 0.084474608 59
0.27339846 1.2427784 0.10647142 81
0.27937964 1.232555 0.12372308 92
0.26709175 1.253558 0.15011504 70
0.27095073 1.2508049 0.0097035384 90
0.26527539 1.2605835 0.029726824 100
0.26196918 1.2662802 0.050201707 85
0.27597785 1.242143 0.067028143 69
0.27533588 1.2432492 0.086664692 57
0.27505043 1.243741 0.10647142 81
0.2800177 1.2351823 0.12417299 83
0.26102364 1.2679093 0.15425615 67
0.27154863 1.2534604 0.0097384425 90
0.27687198 1.2442178 0.028680105 100
0.25864455 1.2758651 0.051073264 83
0.27952653 1.2396088 0.066540658 52
0.27690673 1.2441574 0.086664692 57
0.27172369 1.2531564 0.10837951 87
0.28156179 1.236075 0.12417299 92
0.25881967 1.2755611 0.1563267 66
0.27439842 1.2527894 0.0097035384 90
0.27968502 1.2435285 0.028575432 100
0.26651558 1.2665982 0.050027397 85
0.2695221 1.2613316 0.069465525 49
0.28362596 1.2366248 0.085100345 58
0.27552754 1.2508113 0.10761628 79
0.29108226 1.2235632 0.12057377 86
0.25693208 1.2833862 0.15839726 65
0.2641736 1.2745798 0.010122396 85
0.28224117 1.2426845 0.02847076 100
0.27209195 1.2606013 0.049330149 87
0.2770234 1.2518955 0.068003096 51
0.28322756 1.2409432 0.08572609 58
0.27518818 1.2551353 0.10837951 79
0.28970626 1.229506 0.12192347 68
0.27600092 1.2537006 -0.0097035384 89
0.26434916 1.2742699 0.15529142 67
0.28258866 1.2459373 0.0095290141 92
0.27997944 1.2505811 0.028889447 100
0.27283022 1.2633054 0.049504463 86
0.2709282 1.2666905 0.069953002 49
0.28680831 1.2384272 0.085100345 58
0.2816917 1.2475338 0.10647142 81
0.2922664 1.2287129 0.12147357 77
0.27181384 1.2651143 -0.0099129668 87
0.27935928 1.2516849 0.1480445 71
0.28611588 1.2433283 0.009459204 77
0.28546482 1.2444961 0.02847076 100
0.27058685 1.2711827 0.050201707 85
0.27837661 1.2572101 0.068490572 50
0.28740123 1.2410228 0.085413218 58
0.28710073 1.2415618 0.10494494 75
0.28999326 1.2363734 0.12327318 85
0.27531385 1.2627039 0.15115032 69
0.28204846 1.2547932 0.0096686333 75
0.2852734 1.2489585 0.028680105 100
0.27435327 1.2687159 0.049853086 85
0.29360792 1.2338792 0.065078229 53
0.28339595 1.2523553 0.087290429 57
0.28598171 1.247677 0.1060898 81
0.29453239 1.2322066 0.12192347 85
0.27151445 1.273852 0.15425615 67
0.28173453 1.2591858 0.0097384425 75
0.29070455 1.2428288 0.028261416 100
0.27505055 1.2713742 0.050027397 85
0.2856026 1.2521324 0.067515619 51
0.29639494 1.2324524 0.083536007 60
0.2847352 1.2537141 0.10723466 81
0.2988776 1.2279252 0.12057377 86
0.27500385 1.2714593 -0.0099827768 86
0.27132902 1.2781605 0.15529142 67
0.28179145 1.2637732 0.0098082526 74
0.29260468 1.243866 0.028261416 100
0.28372234 1.2602184 0.048807215 88
0.27996004 1.2671448 0.069465525 49
0.2973105 1.2352026 0.083848871 59
0.28199366 1.2634009 0.10914274 85
0.28083697 1.2655303 -0.0098431576 87
0.28259212 1.2622992 0.15011504 70
0.2910195 1.250577 0.0095290141 76
0.2941775 1.2447169 0.028261416 100
0.28440425 1.2628527 0.048981529 87
0.28914389 1.2540575 0.067515619 51
0.29885456 1.2360379 0.083848871 59
0.29201356 1.2487324 0.10570818 81
0.29946765 1.2349002 0.12192347 76
0.2824817 1.2664202 -0.0098431576 87
0.28880841 1.25468 0.14752686 79
0.29638579 1.2443793 0.0093893949 93
0.2882199 1.2596533 0.029098792 100
0.28791881 1.2602165 0.048632905 88
0.2907505 1.2549199 0.067515619 51
0.29853871 1.2403523 0.084474608 59
0.29730499 1.2426599 0.10418171 82
0.29917315 1.2391655 0.12282328 76
0.28224373 1.2708316 -0.0099129668 87
0.28221974 1.2708764 0.1521856 69
0.28952774 1.2611171 0.0097035384 90
0.29358831 1.2534609 0.028680105 100
0.28114411 1.2769244 0.050201707 56
0.29608041 1.2487621 0.066540658 52
0.29611415 1.2486985 0.10532656 75
0.28026152 1.2785884 0.15425615 75
0.29615057 1.253307 0.0095290141 92
0.29429865 1.2568328 0.048109971 59
0.2989274 1.2480202 0.06629692 52
0.29621199 1.25319 0.1060898 73
0.28949174 1.2659848 0.15011504 70
0.29498273 1.2594664 0.0096337283 90
0.29898483 1.251785 0.02847076 100
0.29407325 1.261212 0.048458595 59
0.29501057 1.259413 0.067759357 85
0.29600143 1.2575111 0.10685304 73
0.29221079 1.2647867 -0.0097384425 99
0.2911379 1.2668459 0.15011504 70
0.29891965 1.2562511 0.028680105 100
0.29587534 1.2621467 0.048458595 88
0.29771686 1.2585804 0.067515619 51
0.2973924 1.2592087 0.14752686 79
0.28756768 1.2823966 0.15425615 75
0.29734024 1.267374 0.048807215 58
0.29826561 1.2655523 0.068246834 85
0.29976755 1.2625957 0.1480445 71
0.29987004 1.2664644 0.0097035384 100
0.29899099 1.2682091 0.048807215 58
0.29447156 1.2771794 -0.0099129668 100
0.29792553 1.2703238 0.15011504 78
0.29999238 1.2709997 0.0097733475 100
0.29463509 1.2817354 -0.0099827768 100
0.29925314 1.2905483 0.05055033 28
