# .PCD v0.7 - Point Cloud Data file format
VERSION 0.7
FIELDS x y z intensity
SIZE 4 4 4 4
TYPE F F F F
COUNT 1 1 1 1
WIDTH 714
HEIGHT 1
VIEWPOINT 0 0 0 1 0 0 0
POINTS 714
DATA ascii
0.052748561 0.0045923591 0.047835063 42
0.047758102 0.0030783415 0.04804441 32
0.046184182 0.0065031648 0.047939736 100
0.036966562 0.010255039 0.04804441 27
0.037951052 0.016825616 0.047730394 19
0.02842021 0.0088219643 0.048358422 17
0.030568004 0.017040372 0.047939736 9
0.016026318 0.0076897144 0.048777111 8
0.0087623596 0.0030308962 0.0491958 7
-1.0306954 1.1326083 0.028307803 5
-0.99956912 1.125468 0.083318844 5
-1.0229783 1.130838 0.1411923 6
-1.0255251 1.1372159 0.028237993 10
-1.0002639 1.1313282 0.083423518 33
-1.015888 1.1349697 0.14066938 40
-0.9911533 1.1348813 0.027644612 30
-0.99510616 1.1358172 0.083214171 91
-1.0049105 1.1381384 0.13979781 81
-0.97632426 1.1367198 0.027400278 42
-1.0055366 1.1437384 0.083842203 100
-1.0075557 1.1442236 0.14014643 86
-0.98086303 1.1434672 0.027504992 40
-0.97511727 1.1420655 0.08227212 100
-1.0139823 1.151547 0.14084367 92
-0.98925537 1.1512122 0.027679516 22
-0.97187048 1.1469067 0.082167454 98
-1.0087731 1.156046 0.14049506 86
-0.98209721 1.1551205 0.027574802 23
-0.9724825 1.1527036 0.08227212 48
-0.9996869 1.159542 0.13979781 74
-0.96524233 1.156512 0.027295563 44
-0.97694331 1.1594968 0.082586139 36
-0.96935922 1.1575623 0.13718314 78
-0.95807618 1.1602958 0.027190849 63
-0.98717564 1.1678269 0.083214171 69
-0.98535663 1.1673561 0.13875194 92
-0.96250707 1.1670809 0.027295563 68
-0.96645969 1.1681186 0.082167454 98
-0.98203319 1.1722071 0.13857763 94
-0.95724708 1.1713291 0.027225753 78
-0.95155066 1.1698123 0.081434749 92
-0.9825452 1.1780652 0.13875194 99
-0.95969802 1.1776304 0.027295563 81
-0.94821769 1.1745307 0.081330076 98
-0.96572334 1.1792574 0.13735744 99
-0.9466936 1.1797298 0.027086135 92
-0.94487017 1.1792307 0.081225403 100
-0.95659882 1.1824415 0.1366602 100
-0.94140047 1.1838822 0.027016325 93
-0.94920605 1.1860485 0.081539422 100
-0.96282929 1.189829 0.13735744 92
-0.94379669 1.1901686 0.027086135 92
-0.94005412 1.189116 0.081120729 88
-0.9594366 1.1945678 0.13718314 98
-0.94809026 1.1970249 0.027190849 71
-0.93281978 1.1926721 0.080806717 72
-0.95602936 1.1992879 0.13700883 100
-0.96003872 1.2061357 0.027435184 46
-0.93517298 1.198954 0.081016064 36
-0.94303674 1.2012253 0.13596296 100
-0.93355721 1.2041036 0.026981421 49
-0.9259991 1.201892 0.080597371 22
-0.94152242 1.2064342 0.13596296 84
-0.91868812 1.2050452 0.026737086 75
-0.9264738 1.2073514 0.080702044 26
-0.93433589 1.2096803 0.13544002 87
-0.92290658 1.2118931 0.026841801 75
-0.91154701 1.2084851 0.079969339 34
-0.93851715 1.2165766 0.13596296 92
-0.91951972 1.216194 0.026806897 81
-0.90435153 1.2115885 0.079655327 93
-0.9389345 1.2220891 0.13613728 98
-0.92169708 1.222753 0.026876707 85
-0.90463227 1.2175033 0.07976 100
-0.91822439 1.2216848 0.13439415 94
-0.90873152 1.2240651 0.026667276 89
-0.91076833 1.224699 0.080178685 84
-0.92052323 1.2277354 0.13474278 70
-0.89942902 1.2270032 0.026527658 85
-0.90909201 1.2300498 0.080178685 68
-0.91123503 1.2307256 0.13404553 47
-0.89790553 1.2318071 0.026527658 85
-0.90184993 1.2330652 0.079864666 82
-0.90780097 1.2349633 0.13387123 43
-0.90762061 1.2407986 0.026737086 88
-0.89444119 1.2365417 0.079550654 95
-0.91177481 1.2421404 0.13439415 45
-0.89464623 1.2419041 0.026527658 99
-0.8928861 1.2413292 0.079550654 100
-0.91777676 1.2494599 0.13509139 63
-0.88910979 1.2459401 0.026457848 100
-0.89494151 1.2478687 0.07976 100
-0.90276819 1.2504572 0.13387123 80
-0.87614483 1.2469046 0.02624842 93
-0.89713711 1.2539245 0.079969339 100
-0.90305644 1.255904 0.13404553 84
-0.88196379 1.254693 0.026388038 99
-0.88211101 1.2547429 0.079236634 100
-0.8974914 1.2599487 0.13369691 78
-0.88034862 1.2594389 0.026388038 93
-0.86915749 1.2556095 0.07860861 100
-0.90528411 1.2679713 0.13456847 94
-0.87854511 1.2646781 0.026388038 92
-0.87303001 1.2627683 0.078922622 100
-0.88650483 1.2674344 0.13299966 91
-0.86368483 1.2647884 0.026143705 74
-0.86761791 1.266165 0.078713275 89
-0.89424998 1.2754862 0.13387123 50
-0.86374682 1.2706339 0.02617861 78
-0.86578983 1.2713575 0.078713275 53
-0.89614385 1.2821064 0.13421984 38
-0.86019617 1.2746456 0.026143705 88
-0.84719521 1.2699932 0.077771232 17
-0.89443773 1.2868991 0.13421984 40
-0.85645682 1.2791302 0.0261088 96
-0.85474318 1.2785099 0.07829459 53
-0.87941951 1.2874427 0.13299966 22
-0.8622728 1.286539 0.02624842 96
-0.85117346 1.2824794 0.078189917 89
-0.86272651 1.2867049 0.13160518 13
-0.84554631 1.2856746 0.025969181 100
-0.85321325 1.2885076 0.078399263 100
-0.86287409 1.2920774 0.13177948 5
-0.83258802 1.2861035 0.025759751 100
-0.85335726 1.2938564 0.078503937 78
-0.87233454 1.3009404 0.13282534 1
-0.83807904 1.2942345 0.025899371 100
-0.83451945 1.2928901 0.077561885 46
-0.86282986 1.3035822 0.1321281 3
-0.84006971 1.3002601 0.025969181 79
-0.8309117 1.2967666 0.077457212 53
-0.85360652 1.3054239 0.13143086 15
-0.83998257 1.3060709 0.026004085 72
-0.83642572 1.3046992 0.077875905 72
-0.84605783 1.308414 0.13090792 56
-0.82692355 1.3065631 0.025794657 75
-0.82338506 1.3051844 0.077247873 68
-0.84602636 1.3140073 0.13108224 100
-0.81946021 1.3091686 0.025689943 96
-0.82894212 1.3129017 0.077666558 59
-0.83670336 1.3159574 0.130385 99
-0.82128602 1.3154237 0.025759751 100
-0.8159036 1.313283 0.077038527 90
-0.83478922 1.3207946 0.130385 99
-0.81566268 1.318716 0.025689943 100
-0.81399888 1.3180475 0.077038527 100
-0.84210175 1.329339 0.13125655 100
-0.8211506 1.3264878 0.025829561 100
-0.82133073 1.3265609 0.077561885 97
-0.83091015 1.3304487 0.130385 100
-0.77986819 1.3097332 0.17622307 15
-0.81179875 1.3282367 0.025689943 100
-0.8101396 1.3275566 0.077038527 100
-0.82157141 1.3322427 0.12968774 100
-0.7779761 1.3143719 0.17622307 16
-0.80245131 1.3299272 0.025550323 100
-0.80818504 1.3323009 0.077038527 100
-0.80855531 1.3324542 0.12864187 100
-0.78707248 1.3235602 0.1776855 18
-0.80048865 1.3346447 0.025550323 100
-0.79147249 1.330875 0.076201156 100
-0.82128924 1.3433415 0.13003637 100
-0.77231187 1.3228638 0.17597933 16
-0.79850942 1.3393553 0.025550323 100
-0.78950649 1.3355542 0.076201156 100
-0.81560856 1.3465748 0.12968774 100
-0.78317541 1.3328812 0.1776855 24
-0.80387181 1.347196 0.025689943 88
-0.78568691 1.3394432 0.076096483 58
-0.80075806 1.3458686 0.12846756 95
-0.77389818 1.3344173 0.17671055 16
-0.8091957 1.355081 0.025829561 56
-0.81487781 1.3575268 0.077875905 53
-0.81521004 1.3576698 0.13003637 24
-0.80291671 1.3523781 0.18085411 3
-0.79991156 1.3563981 0.025689943 94
-0.81292206 1.3620498 0.077875905 100
-0.83152801 1.3701321 0.13177948 71
-0.77730852 1.3465793 0.1776855 15
-0.79785651 1.3611065 0.025689943 100
-0.80901796 1.3660014 0.077771232 100
-0.82942468 1.3749509 0.13177948 100
-0.78074175 1.3536007 0.17841671 35
-0.80127043 1.3682364 0.025794657 100
-0.80145043 1.3683161 0.077457212 100
-0.81090814 1.3725033 0.13021068 100
-0.77688128 1.3574388 0.17817298 35
-0.80830234 1.3770291 0.025969181 100
-0.80482405 1.3754746 0.077771232 100
-0.80152076 1.3739984 0.12951343 100
-0.7675733 1.3588271 0.17719802 31
-0.78987521 1.3741324 0.025655037 100
-0.81191248 1.3840687 0.07829459 100
-0.7995103 1.3784769 0.12951343 100
-0.77466172 1.3672729 0.17841671 21
-0.78957838 1.3796341 0.025689943 100
-0.81157845 1.3896463 0.078399263 100
-0.80100495 1.3848343 0.12986206 100
-0.76534158 1.3686042 0.17744176 16
-0.79823714 1.3895497 0.025899371 100
-0.80022413 1.3904628 0.077875905 100
-0.81684643 1.3981011 0.13160518 100
-0.76494247 1.3742499 0.1776855 15
-0.80150861 1.3967761 0.026004085 100
-0.80529767 1.3985333 0.07829459 100
-0.81464559 1.4028685 0.13160518 100
-0.75562185 1.3754957 0.17671055 13
-0.80304533 1.4029491 0.026073895 100
-0.80682415 1.4047167 0.078503937 100
-0.80171126 1.4023249 0.1305593 100
-0.77158755 1.3882332 0.17914793 5
-0.78997761 1.4025464 0.025864467 100
-0.81182486 1.4128594 0.078922622 100
-0.80129749 1.40789 0.13073361 100
-0.7748068 1.3953848 0.17987914 3
-0.79126066 1.409174 0.025934275 100
-0.81126243 1.4187057 0.079027295 100
-0.79715186 1.4119813 0.1305593 100
-0.78684193 1.4070681 0.18182907 1
-0.79082352 1.4147184 0.025969181 100
-0.80178982 1.4199915 0.07860861 100
-0.80926746 1.423587 0.13195379 100
-0.80307251 1.4261415 0.02624842 100
-0.79423565 1.4218562 0.07829459 100
-0.81067806 1.4298296 0.13230242 100
-0.80448204 1.4323817 0.02631823 100
-0.80103761 1.4306973 0.078817949 100
-0.80848259 1.4343381 0.13230242 100
-0.7914018 1.4317973 0.0261088 100
-0.7933498 1.4327583 0.078503937 100
-0.79900831 1.43555 0.13160518 100
-0.78919977 1.4362419 0.0261088 100
-0.80902654 1.4461055 0.079550654 100
-0.81106442 1.4471194 0.13299966 100
-0.78674895 1.4411458 0.0261088 100
-0.79939967 1.4474974 0.079131968 100
-0.80679303 1.4512093 0.13282534 100
-0.79878885 1.4528003 0.026388038 100
-0.79536361 1.4510663 0.079027295 100
-0.82408005 1.4656036 0.13474278 100
-0.79983884 1.4595587 0.026457848 100
-0.80175143 1.4605358 0.079550654 100
-0.81087559 1.4651968 0.13369691 100
-0.7904337 1.4603686 0.02631823 100
-0.80122977 1.465929 0.079655327 100
-0.7997064 1.4651445 0.13282534 100
-0.78422445 1.4636656 0.02624842 100
-0.80209178 1.4729548 0.079864666 100
-0.80409831 1.4739981 0.1335226 100
-0.79608625 1.4755127 0.026527658 100
-0.79090816 1.4727988 0.079341307 100
-0.81587392 1.485884 0.1349171 100
-0.79007941 1.4783382 0.026457848 83
-0.77961797 1.4728084 0.078817949 100
-0.80455941 1.485992 0.13404553 100
-0.80041927 1.489543 0.13387123 40
0.13251561 1.2883189 0.1293685 11
0.16890937 1.2461896 0.010645968 26
0.14566252 1.2752376 0.033913698 27
0.16656697 1.2491165 0.053687938 26
0.12293831 1.3036325 0.10825265 10
0.15622675 1.262037 0.12249938 31
0.19201416 1.2173191 0.13227122 7
0.15286857 1.2662333 0.17030293 7
0.16684183 1.2522138 0.010750682 92
0.15861112 1.2625724 0.032971654 87
0.15088907 1.2722908 0.056128297 72
0.16840497 1.2502466 0.075315252 30
0.17887485 1.2370701 0.094486415 26
0.1652748 1.254186 0.12020966 95
0.17902991 1.2368748 0.13767004 30
0.14378682 1.2812291 0.17496167 28
0.1524263 1.273958 0.011204445 100
0.18383664 1.2341427 0.030982886 100
0.15264481 1.2736809 0.056128297 100
0.16393617 1.2593682 0.076533951 29
0.18295446 1.235261 0.093860678 39
0.1596714 1.2647741 0.12249938 100
0.19393873 1.2213374 0.13272113 47
0.15155646 1.2750604 0.17237349 42
0.16158623 1.265897 0.010995016 100
0.17806968 1.2448522 0.031610917 100
0.15686253 1.2719278 0.055779677 100
0.16075051 1.266964 0.077508904 29
0.18701687 1.2334291 0.093234941 39
0.1674538 1.2584057 0.12059128 100
0.17989507 1.2425216 0.13856985 36
0.15332189 1.2764482 0.17237349 42
0.16568846 1.2640256 0.010925206 100
0.1759674 1.2508122 0.031924933 91
0.16464588 1.2653658 0.054908119 100
0.16605723 1.2635515 0.076777689 29
0.17400086 1.2533401 0.096989371 37
0.18113008 1.2441757 0.1167751 100
0.18385711 1.2406701 0.13767004 30
0.1455141 1.2899594 0.1765146 41
0.18208307 1.2463725 0.010506349 68
0.17154387 1.2600183 0.032448292 59
0.16272384 1.2714385 0.055431053 49
0.17506272 1.2554623 0.075315252 45
0.17327541 1.2577765 0.097615108 24
0.1890758 1.2373184 0.13632034 22
0.14496988 1.294426 0.17754987 40
0.17653248 1.2572403 0.010715778 53
0.17577249 1.2582319 0.032238949 30
0.17910904 1.2538788 0.053339314 52
0.18771315 1.2426536 0.073121607 62
0.18227601 1.2497472 0.095737889 51
0.18930998 1.2405703 0.11524864 20
0.19079104 1.2386382 0.13632034 30
0.15864706 1.2805743 0.17237349 57
0.16854787 1.2712717 0.010995016 51
0.20166868 1.2277472 0.030145511 32
0.16270232 1.2789536 0.055953987 48
0.17734408 1.2597126 0.07555899 100
0.18993405 1.2431679 0.094173551 52
0.19095477 1.2418265 0.11524864 13
0.20777041 1.2197288 0.13047162 40
0.16979066 1.2696385 0.16823238 67
0.17021224 1.2725339 0.010995016 38
0.16706234 1.2767019 0.03328567 28
0.16919729 1.2738769 0.055256739 49
0.1861513 1.2514434 0.07409656 76
0.19507816 1.2396314 0.093234941 53
0.18541917 1.2524122 0.11753834 13
0.20338887 1.2286347 0.13272113 47
0.17960301 1.2601081 0.16460891 69
0.18636993 1.254662 0.010576159 40
0.17842251 1.2652547 0.032448292 29
0.18411133 1.2576724 0.053339314 52
0.19021672 1.2495348 0.073609084 62
0.20027614 1.2361273 0.092296332 53
0.19653115 1.2411187 0.1144854 13
0.20616144 1.228283 0.13227122 31
0.18247545 1.2598528 0.16409127 69
0.19045293 1.252721 0.010506349 81
0.18015352 1.2665488 0.032448292 29
0.17748484 1.2701316 0.054559495 50
0.20019332 1.2396437 0.071902916 48
0.19482547 1.2468505 0.094173551 52
0.21107796 1.2250302 0.1102876 14
0.21009138 1.2263547 0.13137141 31
0.18303362 1.262682 0.16460891 69
0.18619564 1.2620125 0.010680873 93
0.19970086 1.2437478 0.030878214 63
0.17449465 1.277837 0.055256739 74
0.1959337 1.2488426 0.073121607 62
0.19884104 1.2449107 0.093547814 65
0.20799944 1.2325249 0.11181407 14
0.21632087 1.2212708 0.12957181 32
0.18016136 1.2701733 0.16667947 75
0.19264844 1.2568313 0.010541254 95
0.21317512 1.2288672 0.029831495 66
0.18216443 1.271114 0.054385185 76
0.20465517 1.2404741 0.071659178 96
0.2051765 1.2397639 0.092296332 93
0.21193945 1.2305505 0.11105084 14
0.22597006 1.2114363 0.12642249 24
0.17390758 1.2823625 0.17030293 72
0.17786288 1.2807018 0.011029921 89
0.204193 1.2445676 0.030773543 64
0.18508923 1.2707846 0.054210871 100
0.19694716 1.2545115 0.073609084 77
0.21496168 1.2297893 0.090106249 96
0.20429963 1.2444212 0.11410378 13
0.2160365 1.2283142 0.13092151 16
0.18593761 1.2696204 0.16564418 83
0.19839984 1.2560737 0.010471444 96
0.20585164 1.2457719 0.030773543 64
0.18917495 1.2688267 0.053862248 100
0.20562121 1.2460904 0.072146654 63
0.2119377 1.2373581 0.09135773 94
0.21286166 1.2360808 0.11181407 14
0.25532886 1.1773715 0.11607474 9
0.19221276 1.2646271 0.16357364 69
0.20009869 1.257298 0.010471444 82
0.21217415 1.2404809 0.030354854 65
0.19091839 1.2700832 0.053862248 100
0.20381171 1.2521271 0.072877869 94
0.20781037 1.2465582 0.092922069 100
0.21449062 1.2372549 0.11181407 14
0.25106955 1.1863123 0.11832426 17
0.2018289 1.2548884 0.15995017 72
0.19948047 1.2617732 0.010541254 95
0.22309247 1.228646 0.029517479 67
0.19266617 1.2713336 0.053862248 100
0.21586642 1.2387841 0.070684217 81
0.20947596 1.2477498 0.092922069 92
0.2047286 1.2544103 0.11563025 20
0.23782048 1.2079829 0.12417299 16
0.19455335 1.2686859 0.16409127 69
0.20119923 1.2629938 0.010541254 95
0.21777406 1.239567 0.030145511 98
0.19671986 1.2693249 0.053513627 100
0.21521175 1.2431885 0.071171694 65
0.21799123 1.2392601 0.091044858 100
0.20755553 1.2540098 0.11524864 40
0.22584474 1.2281599 0.12957181 24
0.19852781 1.2667696 0.163056 70
0.20292222 1.2642083 0.010541254 95
0.21941519 1.2407238 0.030145511 65
0.20533535 1.2607722 0.052467756 100
0.21458378 1.2476033 0.071659178 96
0.22757828 1.2291002 0.088854775 98
0.20022056 1.2680552 0.11830158 91
0.22744599 1.2292886 0.12957181 40
0.20692563 1.2585078 0.15995017 72
0.20922363 1.2588551 0.010401634 97
0.21763387 1.2467903 0.030459527 97
0.20477185 1.2652413 0.05281638 100
0.21625298 1.2487712 0.071659178 64
0.22240499 1.2399459 0.090731993 100
0.22329265 1.2386726 0.11105084 91
0.22459355 1.2368064 0.13137141 86
0.20863295 1.2597024 0.15995017 72
0.22450379 1.2402515 0.0099827768 100
0.21921679 1.2478898 0.030459527 97
0.19961238 1.2762127 0.053862248 100
0.21784249 1.2498753 0.071659178 80
0.21721962 1.2507751 0.092609204 100
0.22708333 1.2365248 0.1102876 92
0.22281605 1.2426898 0.13272113 94
0.20805976 1.2640086 0.16098544 72
0.21708843 1.2545705 0.010262015 84
0.23106572 1.2342257 0.029517479 67
0.20363796 1.2741485 0.053513627 100
0.22401592 1.2444872 0.070684217 65
0.22001848 1.2503057 0.092296332 100
0.21982002 1.2505945 0.11334054 100
0.22777852 1.2390105 0.13137141 94
0.20978624 1.2651992 0.16098544 72
0.21436149 1.2623968 0.010401634 83
0.22939453 1.2403426 0.029831495 66
0.20548809 1.2754145 0.053513627 100
0.22575718 1.2456788 0.070684217 81
0.22845674 1.2417184 0.090419121 100
0.22158372 1.2518015 0.11334054 100
0.23718292 1.2289166 0.12822211 89
0.20833924 1.2712317 0.16253836 70
0.21720287 1.2619091 0.010366729 41
0.23663411 1.2331877 0.029308135 68
0.21172014 1.2700131 0.05281638 79
0.22185785 1.2550285 0.071902916 48
0.23563981 1.2346574 0.088854775 100
0.22546774 1.2496927 0.1125773 89
0.23660278 1.2332339 0.1291219 96
0.21766856 1.2612207 0.15891489 73
0.21437579 1.2696499 0.010506349 40
0.20921633 1.2773309 0.032029606 30
0.21782392 1.2645166 0.052119136 54
0.22678873 1.2511705 0.071171694 97
0.23057356 1.245536 0.090731993 100
0.22924966 1.2475069 0.11181407 98
0.23379418 1.2407414 0.13092151 96
0.22145373 1.2591128 0.15787962 73
0.22277731 1.2608353 0.010296919 42
0.20655781 1.2851646 0.032448292 29
0.21734178 1.2689886 0.052467756 53
0.23067257 1.2489924 0.070684217 81
0.23442692 1.2433608 0.090106249 100
0.23418546 1.243723 0.11066922 85
0.23435834 1.2434638 0.13137141 94
0.21887666 1.2666862 0.15995017 72
0.22007897 1.2686453 0.010436539 41
0.21937889 1.2697035 0.031401575 31
0.22128436 1.2668235 0.052119136 54
0.2301558 1.2534152 0.071171694 65
0.23608118 1.2444595 0.090106249 96
0.24017423 1.2382733 0.10914274 85
0.23923886 1.239687 0.13002171 96
0.22274441 1.2646168 0.15891489 73
0.21304089 1.2831664 0.010715778 39
0.22989517 1.2574984 0.030564198 32
0.21864632 1.2746297 0.05281638 53
0.23402432 1.25121 0.070684217 98
0.23665503 1.2472036 0.090419121 100
0.23642278 1.2475574 0.11105084 98
0.23981065 1.2423978 0.13047162 96
0.22341257 1.2673709 0.15943253 73
0.23230216 1.2575334 0.0101573 42
0.216333 1.2820394 0.032029606 30
0.2280241 1.2640985 0.051596198 54
0.23245466 1.2572994 0.071415432 100
0.2415581 1.2433295 0.089480512 97
0.23380426 1.2552284 0.1125773 96
0.24571723 1.2369469 0.128672 97
0.22726011 1.2652709 0.15839726 73
0.23834947 1.2519228 0.010017681 43
0.23981375 1.2496585 0.029936166 33
0.24273387 1.2451429 0.049504463 57
0.24278128 1.2450696 0.069465525 49
0.24106684 1.2477207 0.090106249 96
0.24616098 1.2398434 0.10876112 87
0.24840724 1.2363698 0.12822211 89
0.231089 1.26315 0.15736198 74
0.24651372 1.24291 0.0098082526 44
0.24688348 1.2423339 0.029412808 67
0.23470962 1.2613039 0.051073264 55
0.2401529 1.2528218 0.070440479 49
0.24807072 1.2404838 0.08854191 84
0.24992356 1.2375965 0.10799789 87
0.24793202 1.2407 0.1291219 80
0.23281237 1.2642603 0.15736198 74
0.2342025 1.2658937 0.010262015 84
0.2431699 1.2518123 0.029936166 66
0.22893497 1.2741653 0.052293446 53
0.24610534 1.2472029 0.069465525 49
0.24971485 1.2415348 0.08854191 70
0.25366673 1.2353293 0.10723466 81
0.25795105 1.2286017 0.12552269 82
0.23142651 1.2702529 0.15891489 73
0.24332848 1.2551064 0.010017681 72
0.25010556 1.2443861 0.029412808 100
0.22528544 1.2836477 0.053165004 79
0.24981096 1.2448521 0.068978049 50
0.25339127 1.2391887 0.087916173 84
0.24786797 1.2479256 0.10990598 92
0.26155606 1.2262732 0.12462288 92
0.2268934 1.2811041 0.16202073 63
0.2450237 1.2561738 0.010017681 58
0.25282463 1.2437382 0.029308135 100
0.24190292 1.2611488 0.05072464 84
0.25041544 1.2475787 0.069221787 67
0.26132911 1.2301809 0.086038955 72
0.2526679 1.243988 0.10876112 72
0.25797272 1.2355313 0.12687239 90
0.24099845 1.2625906 0.15580906 67
0.24566588 1.2589332 0.010052586 86
0.25448009 1.2447726 0.029308135 100
0.24256638 1.2639128 0.050898954 83
0.25103533 1.2503068 0.069465525 49
0.26084948 1.2345397 0.086664692 57
0.25224933 1.2483565 0.10952436 85
0.25959951 1.2365479 0.12687239 90
0.2427198 1.2636663 0.15580906 67
0.24947602 1.2565898 0.0099827768 87
0.25194114 1.2525984 0.029726824 100
0.24324536 1.2666781 0.051073264 83
0.25062752 1.2547253 0.069953002 49
0.25624475 1.2456303 0.08854191 56
0.26423725 1.2326894 0.10570818 88
0.26225385 1.2359008 0.12642249 82
0.24038437 1.2713104 0.15787962 65
0.25535572 1.2508157 0.0098431576 88
0.25988895 1.2434182 0.029098792 100
0.24810404 1.2626494 0.05055033 84
0.25854459 1.245612 0.068490572 50
0.25997105 1.2432842 0.087916173 56
0.24841553 1.2621411 0.11219569 91
0.26591831 1.2335792 0.12552269 82
0.24011737 1.2756824 0.15891489 65
0.25080258 1.2620933 0.010052586 100
0.26154324 1.244428 0.029098792 100
0.24361503 1.2739148 0.051596198 82
0.25505009 1.2551074 0.069709264 49
0.27086112 1.2291028 0.085100345 58
0.25523499 1.2548033 0.1102876 71
0.27260029 1.2262423 0.12327318 93
0.24188441 1.2767611 0.15891489 65
0.24942341 1.2682716 0.0101573 71
0.26113775 1.2488524 0.029308135 100
0.25360897 1.261333 0.050201707 85
0.25469452 1.2595335 0.07019674 82
0.27450609 1.2266915 0.084474608 59
0.25388682 1.2608725 0.11143246 84
0.27117479 1.2322139 0.12462288 100
0.24565095 1.2745252 0.15787962 65
0.25424531 1.2641701 0.010052586 86
0.26486239 1.2464303 0.029098792 100
0.25941855 1.2555262 0.049504463 86
0.26150224 1.2520447 0.068978049 50
0.27204415 1.2344303 0.08572609 58
0.2586267 1.2568493 0.1102876 100
0.26978764 1.2382007 0.12597258 90
0.2573348 1.2590079 0.15270324 68
0.26005581 1.2583216 0.0099129668 87
0.26652718 1.2474227 0.029098792 100
0.25806352 1.261677 0.050027397 85
0.26521358 1.249635 0.068490572 50
0.27164999 1.2387948 0.086351827 58
0.27235582 1.237606 0.10570818 73
0.26943386 1.2425272 0.12687239 90
0.25707093 1.2633488 0.15373851 68
0.25973228 1.2627769 0.0099827768 87
0.27427754 1.2380838 0.02847076 100
0.24562457 1.286727 0.052467756 80
0.27091959 1.2437844 0.067515619 51
0.27228549 1.2414657 0.086664692 57
0.26402548 1.2554884 0.10952436 85
0.2780084 1.2317501 0.12372308 75
0.25683385 1.2676973 0.15477379 67
0.26448086 1.2586074 0.0098780617 73
0.27591312 1.2390435 0.02847076 100
0.25547189 1.2740245 0.051073264 83
0.27057207 1.2481836 0.068003096 51
0.27991271 1.232199 0.084787481 59
0.27364603 1.2429231 0.10647142 73
0.28257146 1.2276491 0.12237337 85
0.2566236 1.2720535 0.15580906 67
0.26117381 1.2682513 0.010052586 86
0.27554876 1.2434533 0.028680105 100
0.26522669 1.2612598 0.049678773 86
0.27025184 1.2525909 0.068490572 50
0.28449976 1.228012 0.083848871 59
0.26643717 1.2591715 0.10990598 78
0.28221595 1.2319517 0.12327318 85
0.2651853 1.2613311 -0.0099129668 76
0.270004 1.2530185 0.14959741 78
0.27387986 1.2501876 0.0096686333 90
0.27521187 1.2478712 0.028889447 100
0.26793641 1.2605236 0.049504463 86
0.27193809 1.2535645 0.068490572 50
0.28216133 1.2357857 0.085100345 58
0.27206108 1.2533506 0.10837951 94
0.28480151 1.2311943 0.12282328 85
0.26690209 1.2623223 -0.0099129668 87
0.26783973 1.2606918 0.15166797 69
0.27456695 1.2528856 0.0097035384 90
0.27589208 1.2505623 0.028994121 100
0.26076606 1.277081 0.051073264 83
0.2755948 1.2510835 0.068003096 51
0.28281012 1.2384337 0.085413218 58
0.27861354 1.2457912 0.10647142 81
0.28448197 1.2355027 0.12372308 83
0.26572567 1.2683859 0.15373851 68
0.27330011 1.2590654 0.0098082526 74
0.28052172 1.2463013 0.028680105 100
0.26744336 1.2694172 0.050201707 100
0.28314081 1.241672 0.066540658 52
0.2844469 1.2393636 0.085413218 58
0.28124276 1.2450268 0.1060898 73
0.28610849 1.2364267 0.12372308 83
0.26556453 1.272738 0.15477379 67
0.27207312 1.2652599 0.0099129668 87
0.2880505 1.2367885 0.028052073 100
0.26041302 1.2860379 0.051770512 81
0.27215979 1.2651055 0.069709264 49
0.28898704 1.2351196 0.084474608 59
0.27617708 1.2579467 0.10876112 87
0.29441398 1.225449 0.12057377 77
0.27011588 1.2687476 -0.0099827768 86
0.26921198 1.2703583 0.15373851 76
0.26991349 1.2732161 0.010052586 86
0.28579614 1.2446806 0.02847076 100
0.27771959 1.2591913 0.048981529 87
0.28064767 1.2539307 0.068003096 51
0.28676942 1.242932 0.08572609 58
0.2769272 1.260615 0.10914274 85
0.29221439 1.2331493 0.12237337 76
0.27574864 1.2627325 -0.0098431576 87
0.27565789 1.2628955 0.15115032 77
0.28230235 1.2549335 0.0096686333 75
0.28745469 1.2456 0.02847076 100
0.28616905 1.2479289 0.047761347 90
0.27658236 1.2652951 0.069465525 49
0.29319519 1.2352011 0.084161744 59
0.28623188 1.2478151 0.1060898 81
0.29759982 1.2272222 0.12057377 77
0.27747026 1.2636868 -0.0098431576 87
0.27831373 1.2621589 0.15063268 70
0.29055351 1.2434962 0.0094242999 93
0.28319168 1.2569318 0.029098792 100
0.28479961 1.2539973 0.048284281 88
0.28195533 1.2591882 0.068490572 50
0.29465795 1.2360055 0.084161744 59
0.28962108 1.245198 0.10532656 82
0.29903746 1.2280128 0.12057377 77
0.28543109 1.2528448 0.14752686 71
0.28838876 1.2514272 0.0095639192 91
0.29252198 1.243821 0.028261416 100
0.27697772 1.2724261 0.050027397 85
0.29124704 1.2461672 0.066540658 52
0.29345661 1.2421011 0.085100345 58
0.2912814 1.246104 0.10532656 82
0.28342858 1.260555 0.14959741 70
0.28437898 1.2628995 0.0097733475 100
0.2941775 1.2447169 0.028261416 100
0.28062353 1.2698683 0.049678773 86
0.29291075 1.2470676 0.066540658 52
0.29510614 1.2429937 0.085100345 58
0.29201356 1.2487324 0.10570818 81
0.2824817 1.2664202 -0.0098431576 87
0.27689439 1.2767882 0.15425615 75
0.28515863 1.2655873 0.0098082526 74
0.28642267 1.263222 0.029308135 100
0.28988245 1.2567478 0.048284281 88
0.28896391 1.2584667 0.068003096 51
0.29955184 1.2386539 0.084161744 59
0.28998491 1.2565562 0.10723466 81
0.28233117 1.2708783 -0.0099129668 87
0.28685978 1.2624041 0.14959741 70
0.29157186 1.2576741 0.0096337283 90
0.29531476 1.2506109 0.047587037 90
0.28974107 1.2611289 0.068246834 34
0.29903907 1.243583 0.10418171 75
0.28969917 1.2612081 -0.0097035384 89
0.29400757 1.2530777 0.14649157 72
0.29978684 1.246182 0.0093893949 77
0.29544654 1.254442 0.028680105 100
0.29792073 1.2497333 0.047412723 90
0.29422712 1.2567626 0.067515619 51
0.28583443 1.2727348 -0.0099129668 87
0.28670937 1.2710698 0.15166797 77
0.29700032 1.2560079 0.0095639192 91
0.29730856 1.2554158 0.028680105 100
0.29884464 1.252465 0.047587037 90
0.29979774 1.2506341 0.10532656 75
0.28506714 1.2789313 0.15373851 68
0.2950297 1.2639959 0.0097035384 90
0.28682315 1.2798958 0.050201707 56
0.29216152 1.2695529 0.15063268 78
0.29932526 1.2594401 0.048109971 59
0.29749447 1.2630147 -0.0096686333 100
0.29821143 1.2747891 0.15115032 77
