# .PCD v0.7 - Point Cloud Data file format
VERSION 0.7
FIELDS x y z intensity
SIZE 4 4 4 4
TYPE F F F F
COUNT 1 1 1 1
WIDTH 728
HEIGHT 1
VIEWPOINT 0 0 0 1 0 0 0
POINTS 728
DATA ascii
0.090053439 0.0048228502 0.046788346 21
0.05179438 0.002830565 0.047939736 48
0.050213099 0.0062455535 0.047835063 30
0.045618415 0.004483819 0.04804441 100
0.038613677 0.011553049 0.047939736 45
0.040589571 0.019862175 0.047521047 19
0.032335162 0.013403118 0.04804441 18
0.026296616 0.010281444 0.048358422 8
0.023647904 0.012114167 0.048358422 8
0.025716424 0.020410419 0.047939736 9
0.0092979074 0.0026532412 0.0491958 7
-1.0620739 1.138918 0.02886628 3
-1.0133836 1.1277754 0.084051549 5
-1.0367622 1.1331255 0.14241248 6
-1.025717 1.1363909 0.028237993 10
-0.99461693 1.1291595 0.083109498 18
-1.0199602 1.1350523 0.14101799 32
-0.99329025 1.1345339 0.027679516 28
-0.99918503 1.1359264 0.083423518 88
-1.0128591 1.1391562 0.14049506 81
-0.98040527 1.1368529 0.027470088 38
-1.0076742 1.1433895 0.083946876 100
-1.0116265 1.1443368 0.14049506 87
-0.98105842 1.1426656 0.027504992 42
-0.97725242 1.1417392 0.082376793 100
-1.0083745 1.1493144 0.14032075 87
-0.98162347 1.1487548 0.027539898 25
-0.97587961 1.1473343 0.082376793 100
-0.99923712 1.1531105 0.13962349 82
-0.98611063 1.1555593 0.027644612 23
-0.97649044 1.1531446 0.082481466 56
-0.99402541 1.1575459 0.13927488 84
-0.96537715 1.1559831 0.027295563 39
-0.98288554 1.1604427 0.082900152 35
-0.98687106 1.1614578 0.13875194 82
-0.96014839 1.1602697 0.027225753 61
-0.99118191 1.1682898 0.083423518 58
-0.97777921 1.164826 0.1380547 91
-0.9607113 1.1660459 0.027260659 66
-0.97432643 1.1696153 0.082586139 100
-0.98410076 1.1721776 0.13875194 91
-0.95738703 1.170803 0.027225753 78
-0.95362037 1.1698015 0.081539422 92
-0.9788366 1.1765063 0.13840333 100
-0.95998234 1.1765764 0.027295563 81
-0.94657117 1.1729653 0.081225403 100
-0.9640848 1.1776811 0.13718314 100
-0.94697934 1.1786848 0.027086135 92
-0.949009 1.1792389 0.081434749 100
-0.96073049 1.182439 0.13700883 100
-0.94168907 1.1828411 0.027016325 92
-0.96104556 1.1881981 0.082167454 100
-0.96312207 1.1887728 0.13735744 92
-0.94023889 1.1880455 0.027016325 92
-0.93650025 1.1869967 0.08091139 90
-0.95397764 1.1918994 0.1366602 99
-0.94823915 1.196502 0.027190849 74
-0.93104631 1.1916077 0.080702044 78
-0.96001166 1.1998532 0.13735744 99
-0.96787626 1.2078254 0.027574802 50
-0.9353227 1.1984355 0.081016064 40
-0.94701594 1.2018085 0.13631158 99
-0.94722086 1.2072508 0.027225753 44
-0.93581086 1.2039186 0.081120729 22
-0.94748825 1.2073288 0.13648589 89
-0.92459255 1.2062343 0.026841801 71
-0.93428725 1.2091024 0.081120729 26
-0.94595259 1.2125534 0.13648589 85
-0.92306083 1.2113791 0.026841801 75
-0.91552645 1.2091215 0.080178685 32
-0.93294734 1.2143413 0.13544002 94
-0.91959757 1.2159376 0.026806897 78
-0.91589588 1.2148143 0.080283359 78
-0.93710691 1.2212507 0.13596296 99
-0.92193395 1.2219825 0.026876707 88
-0.91059417 1.2185004 0.080074012 100
-0.91846079 1.220916 0.13439415 98
-0.90507084 1.2223685 0.026597468 85
-0.910927 1.224189 0.080178685 88
-0.91117007 1.2242646 0.13387123 78
-0.8958531 1.2250435 0.026457848 89
-0.91504806 1.2310846 0.080492698 66
-0.91337651 1.2305586 0.13421984 54
-0.89425594 1.2300878 0.026457848 81
-0.90201145 1.2325584 0.079864666 76
-0.90796322 1.2344544 0.13387123 42
-0.9041422 1.2385542 0.026667276 83
-0.89666754 1.2361457 0.079655327 91
-0.91589683 1.2423419 0.13474278 45
-0.89489311 1.2411476 0.026527658 93
-0.89123386 1.2399545 0.07944598 100
-0.91234487 1.2468382 0.13456847 59
-0.88176328 1.2426789 0.02631823 100
-0.88950175 1.2452337 0.07944598 100
-0.90301961 1.2496964 0.13387123 80
-0.87251776 1.2451397 0.02617861 100
-0.89541167 1.2527865 0.079864666 100
-0.89944643 1.2541342 0.13369691 87
-0.87851268 1.2524135 0.02631823 93
-0.8843413 1.2543819 0.079341307 100
-0.90538365 1.261488 0.13439415 77
-0.87682003 1.2573971 0.02631823 93
-0.87697166 1.2574489 0.079027295 100
-0.90177375 1.2659211 0.13421984 89
-0.87502402 1.2626233 0.02631823 92
-0.87517554 1.2626758 0.079027295 100
-0.88488203 1.2660313 0.13282534 97
-0.86574513 1.2649548 0.02617861 79
-0.86967641 1.2663293 0.078817949 97
-0.90194947 1.2776122 0.13456847 56
-0.85081142 1.265228 0.025934275 75
-0.86981827 1.2719475 0.078922622 55
-0.89265484 1.280021 0.13387123 38
-0.86790425 1.2768457 0.026283324 88
-0.84925038 1.2701777 0.077875905 23
-0.89461809 1.2863948 0.13421984 35
-0.86433488 1.2808657 0.02624842 96
-0.86073333 1.2795646 0.07860861 44
-0.88352817 1.2877983 0.13334829 28
-0.85878628 1.2844276 0.02617861 96
-0.85519379 1.2831159 0.078399263 82
-0.85925382 1.2845984 0.13125655 15
-0.84572619 1.2851872 0.025969181 100
-0.85526782 1.2887094 0.078503937 100
-0.85184151 1.2874446 0.13073361 9
-0.83642513 1.2872602 0.025829561 100
-0.84783489 1.291517 0.078189917 85
-0.89482766 1.3090496 0.1349171 1
-0.83461112 1.2920966 0.025829561 100
-0.8291865 1.2900511 0.077247873 46
-0.89293724 1.3140897 0.1349171 1
-0.84025472 1.2997749 0.025969181 85
-0.83296186 1.2969959 0.077561885 51
-0.86496407 1.3091906 0.13247673 11
-0.84035653 1.3051004 0.026004085 74
-0.82747871 1.3001442 0.077352546 63
-0.85759002 1.311733 0.13195379 50
-0.83475274 1.3085009 0.025934275 74
-0.83306569 1.3078449 0.077771232 72
-0.8464058 1.3130325 0.13108224 100
-0.82355863 1.309675 0.025759751 96
-0.82932085 1.311939 0.077666558 65
-0.83893853 1.3157177 0.1305593 100
-0.81794924 1.3129908 0.025689943 99
-0.81999534 1.313803 0.077247873 82
-0.83702523 1.3205627 0.1305593 100
-0.82346958 1.3207395 0.025829561 100
-0.81994253 1.3193252 0.077352546 95
-0.83879346 1.326884 0.13090792 100
-0.81783193 1.324029 0.025759751 100
-0.82171899 1.3256034 0.077561885 95
-0.82760781 1.3279886 0.13003637 100
-0.80858344 1.3255343 0.025620133 100
-0.82356638 1.331661 0.077771232 100
-0.81099647 1.3265212 0.12864187 100
-0.81519896 1.3282394 0.18109785 21
-0.79554635 1.3256934 0.025410704 100
-0.80682915 1.3303531 0.076933853 100
-0.8127287 1.3327894 0.1289905 100
-0.77471167 1.317089 0.17597933 16
-0.80107921 1.3332301 0.025550323 100
-0.80127662 1.3333125 0.076724514 100
-0.81085485 1.3373053 0.1289905 100
-0.7600643 1.3161321 0.17427316 15
-0.79910487 1.3379428 0.025550323 100
-0.78641647 1.3326013 0.075991809 99
-0.82172042 1.3474635 0.13021068 100
-0.78742331 1.3330252 0.17817298 19
-0.80069464 1.344449 0.025620133 96
-0.79353517 1.3414042 0.076515168 69
-0.80309361 1.3454692 0.12864187 99
-0.77256352 1.332485 0.17646681 16
-0.81338066 1.3554727 0.025899371 60
-0.82273084 1.3594879 0.07829459 48
-0.80290729 1.3509752 0.12881619 33
-0.79065627 1.3457142 0.17914793 5
-0.8058247 1.3578418 0.025794657 90
-0.81883234 1.3634815 0.078189917 89
-0.82646269 1.3667898 0.13125655 48
-0.77588946 1.3448629 0.17744176 9
-0.80010074 1.3609673 0.025724847 100
-0.80760401 1.3642516 0.077666558 100
-0.81889552 1.3691941 0.13073361 100
-0.78114885 1.3526716 0.17841671 33
-0.7980296 1.3656764 0.025724847 100
-0.80369467 1.3681797 0.077561885 100
-0.818618 1.3747742 0.13090792 100
-0.76458102 1.3508959 0.17646681 35
-0.79959458 1.3720076 0.025794657 100
-0.80524641 1.3745286 0.077771232 100
-0.80194205 1.3730546 0.12951343 100
-0.79336482 1.3692286 0.18061037 38
-0.79748493 1.3767148 0.025794657 100
-0.80677027 1.3808956 0.077980578 100
-0.79619533 1.3761342 0.12916481 100
-0.79307491 1.3747292 0.18085411 33
-0.78625637 1.377278 0.025620133 100
-0.813721 1.3897595 0.078503937 100
-0.80495447 1.3857756 0.13021068 100
-0.77288371 1.3712006 0.17841671 21
-0.79321653 1.3861072 0.025794657 100
-0.80973393 1.3936834 0.078399263 100
-0.80641872 1.3921628 0.1305593 100
-0.76897269 1.374987 0.17817298 12
-0.8038699 1.3964362 0.026038991 100
-0.79678255 1.3931568 0.077771232 100
-0.8079645 1.3983307 0.13090792 100
-0.76695925 1.3793576 0.17817298 12
-0.79634899 1.398385 0.025934275 100
-0.80918735 1.4043772 0.07860861 100
-0.8022626 1.4011452 0.1305593 100
-0.78651708 1.3937962 0.18109785 7
-0.79244858 1.4019945 0.025899371 100
-0.80888325 1.4097316 0.078713275 100
-0.79655689 1.4039286 0.13021068 100
-0.77725703 1.3948426 0.18012288 5
-0.78820604 1.4062858 0.025864467 100
-0.81182808 1.4175175 0.079027295 100
-0.80310959 1.413372 0.13108224 100
-0.7909829 1.4076061 0.18231654 1
-0.79690725 1.415908 0.026073895 100
-0.80607158 1.4203027 0.078817949 100
-0.80635816 1.4204402 0.13160518 100
-0.79981643 1.4236897 0.02617861 100
-0.80176705 1.4246343 0.078713275 100
-0.81460983 1.4308538 0.13265105 100
-0.80123502 1.4299173 0.02624842 100
-0.78882068 1.4238545 0.078085244 100
-0.80166906 1.4301293 0.13160518 100
-0.79174811 1.4310948 0.0261088 100
-0.80623776 1.438234 0.079236634 100
-0.79935652 1.4348435 0.13160518 100
-0.78596681 1.433761 0.026038991 100
-0.81116897 1.4462824 0.079655327 100
-0.80428165 1.4428606 0.13230242 100
-0.79067522 1.4422383 0.02617861 100
-0.7979688 1.4458954 0.079027295 100
-0.81249255 1.4531779 0.13334829 100
-0.80271536 1.4538984 0.026457848 100
-0.79572004 1.4503617 0.079027295 100
-0.81377572 1.4594903 0.13369691 100
-0.80376214 1.4606693 0.026527658 100
-0.8003338 1.4589202 0.07944598 100
-0.81123942 1.4644842 0.13369691 100
-0.79079491 1.4596667 0.02631823 100
-0.80337006 1.466135 0.07976 100
-0.79652673 1.462615 0.13247673 100
-0.7849502 1.4622681 0.02624842 96
-0.80282718 1.4715385 0.079864666 100
-0.80837232 1.4744141 0.13387123 100
-0.78973573 1.4703969 0.026388038 100
-0.79695338 1.4741702 0.079655327 100
-0.82015413 1.4862993 0.13526571 100
-0.79069716 1.4771684 0.026457848 92
-0.78553051 1.4744432 0.079131968 100
-0.80870825 1.4866687 0.13439415 100
-0.79893845 1.4872433 0.026667276 22
-0.78318721 1.4788682 0.079131968 19
-0.79752833 1.4864936 0.1335226 52
0.13576201 1.2833707 0.12822364 5
0.16115832 1.2553537 0.010855397 13
0.11792505 1.3093177 0.036216483 24
0.14638451 1.2737944 0.056476921 24
0.1275993 1.2972422 0.10700117 10
0.15105915 1.2679596 0.12402584 24
0.17959562 1.2323402 0.13677025 7
0.12361977 1.3022096 0.18272625 6
0.16285488 1.2567081 0.010855397 52
0.17202982 1.2451737 0.03182026 61
0.14814556 1.2752004 0.056476921 48
0.14961734 1.27335 0.078971334 28
0.16264424 1.2569729 0.09855371 24
0.15524408 1.2662762 0.12326261 85
0.19698229 1.213804 0.13092151 16
0.15193745 1.2704332 0.1713382 21
0.16075206 1.2626965 0.010960111 100
0.17732203 1.2417228 0.031506244 93
0.15105817 1.2749667 0.056302611 96
0.15744165 1.2668867 0.077752642 28
0.17528233 1.2443047 0.095737889 38
0.15810901 1.266042 0.122881 100
0.18395931 1.2333217 0.13632034 45
0.14880878 1.2778139 0.17340876 42
0.1612401 1.2656257 0.010995016 100
0.17034233 1.2540214 0.032238949 100
0.15405291 1.2747886 0.056128297 100
0.1591785 1.268254 0.077752642 28
0.18181685 1.2393926 0.094486415 26
0.1646896 1.261228 0.12135452 100
0.19880864 1.21773 0.13137141 39
0.15296841 1.2761712 0.17237349 42
0.17034447 1.2575134 0.010785587 100
0.17817 1.2474647 0.031715591 92
0.16071406 1.2698798 0.055431053 99
0.17555636 1.2508209 0.074827775 30
0.18103012 1.2437921 0.095112152 25
0.18329439 1.2408845 0.11601187 100
0.18121603 1.2435534 0.13856985 29
0.15829861 1.2729814 0.17082056 43
0.17938739 1.2493438 0.010576159 67
0.17495233 1.25508 0.032134276 60
0.16855469 1.2633545 0.054559495 76
0.17359439 1.2568363 0.07555899 30
0.17060354 1.2607046 0.098240845 24
0.18734205 1.2390554 0.11524864 20
0.18048733 1.2479211 0.13946965 22
0.15296686 1.2835156 0.1739264 28
0.17732534 1.2553282 0.010680873 80
0.17777938 1.2547369 0.032029606 30
0.16291216 1.2740982 0.055605363 49
0.18971881 1.2391884 0.072634131 63
0.18426365 1.2462926 0.095112152 38
0.18292099 1.2480412 0.11715672 13
0.19038221 1.2383244 0.13632034 30
0.15114221 1.2894261 0.17547931 63
0.17295998 1.2645775 0.010855397 39
0.17463019 1.2623867 0.032448292 29
0.16225833 1.2786152 0.055953987 48
0.18534133 1.2483364 0.073852822 46
0.19670689 1.2334278 0.092296332 53
0.19292367 1.2383904 0.1144854 13
0.20265225 1.2256291 0.13227122 39
0.16818359 1.2708429 0.16875002 66
0.16753617 1.2755244 0.011064826 76
0.1523366 1.2956145 0.03454173 27
0.1665293 1.2768552 0.055605363 49
0.18350387 1.254419 0.074584037 61
0.20555884 1.2252676 0.090419121 55
0.18516663 1.2522212 0.11753834 13
0.19844571 1.2346694 0.13452072 46
0.1770153 1.2629952 0.16564418 68
0.17891058 1.264065 0.010785587 52
0.16856745 1.2778358 0.03328567 28
0.18385604 1.2574807 0.053339314 52
0.19354218 1.2445847 0.072877869 63
0.20359114 1.2312057 0.09135773 54
0.20100072 1.2346544 0.11295892 13
0.20592153 1.2281029 0.13227122 31
0.18221903 1.2596602 0.16409127 69
0.19489855 1.2460582 0.010366729 55
0.17264193 1.2758961 0.033076324 29
0.19023964 1.2523041 0.05264207 53
0.19867861 1.2409906 0.072146654 63
0.18740612 1.2561028 0.096050762 63
0.21428189 1.2200724 0.10914274 14
0.20511222 1.2323655 0.13317102 31
0.18037963 1.2655227 0.16564418 68
0.19299239 1.2521161 0.010471444 82
0.19818166 1.2451082 0.030982886 63
0.18006861 1.2695688 0.054385185 51
0.1991435 1.2438093 0.072390392 95
0.19850957 1.2446654 0.093547814 65
0.2041716 1.2370193 0.11295892 13
0.21832532 1.2179055 0.128672 32
0.18211156 1.2668099 0.16564418 68
0.19239357 1.2566441 0.010541254 81
0.2058388 1.2383473 0.030459527 65
0.17482328 1.2805544 0.055431053 74
0.18912765 1.2610885 0.074827775 100
0.20727003 1.2363997 0.091670595 81
0.20356053 1.2414477 0.11372216 13
0.21766129 1.2222589 0.12957181 24
0.18507889 1.2665982 0.16512655 68
0.18466648 1.2708137 0.010820492 91
0.20512161 1.2427729 0.03066887 64
0.18600127 1.2689838 0.054036561 100
0.19903329 1.2511191 0.073121607 78
0.21239266 1.2328055 0.090731993 95
0.20636532 1.241068 0.11334054 13
0.22498432 1.2155445 0.1273223 16
0.19364563 1.2585046 0.16202073 70
0.19579968 1.2591288 0.010541254 81
0.21263111 1.2358856 0.030145511 65
0.18891382 1.2686378 0.053862248 100
0.19256485 1.2635958 0.074827775 100
0.21401021 1.2339811 0.090731993 95
0.20916322 1.2406745 0.11295892 13
0.22539857 1.2182546 0.1277722 8
0.19875219 1.2550516 0.1604678 72
0.20451233 1.2506199 0.010331824 98
0.21192786 1.240304 0.030354854 97
0.19298244 1.2666595 0.053513627 100
0.21166998 1.2406627 0.071171694 97
0.2075609 1.2463789 0.092922069 100
0.21997562 1.2291085 0.10990598 14
0.23833972 1.2035615 0.12327318 17
0.19593713 1.2625492 0.16253836 70
0.20378444 1.2550181 0.010401634 97
0.21348929 1.2414224 0.030354854 97
0.18768606 1.2775705 0.054559495 100
0.21323261 1.2417821 0.071171694 81
0.21488085 1.239473 0.09135773 94
0.21921864 1.2333962 0.11066922 21
0.23638257 1.2093509 0.12462288 16
0.19420528 1.2684376 0.16409127 69
0.20779181 1.2529604 0.010331824 98
0.22091043 1.234446 0.029831495 99
0.19176379 1.2755809 0.054210871 100
0.21717682 1.2397153 0.070684217 98
0.22223189 1.232581 0.089793384 100
0.20040748 1.263382 0.11753834 26
0.23566481 1.213623 0.12552269 16
0.19594732 1.2696767 0.16409127 77
0.20249107 1.2639053 0.010541254 95
0.22130311 1.2371682 0.029936166 66
0.19573531 1.2735071 0.053862248 100
0.21530941 1.2456869 0.071415432 64
0.22490439 1.2320498 0.089480512 97
0.20091578 1.2661442 0.11791996 65
0.23377353 1.2194443 0.12687239 33
0.20316452 1.2629482 0.16150309 70
0.20421726 1.2651153 0.010541254 81
0.225223 1.2350378 0.029726824 100
0.2020582 1.2682067 0.053165004 100
0.21810853 1.2452248 0.071171694 65
0.21860185 1.2445184 0.091670595 100
0.21051854 1.2560927 0.11524864 100
0.22530213 1.2349246 0.13092151 72
0.21263024 1.2530689 0.15787962 73
0.2150616 1.2531717 0.010262015 98
0.21888325 1.2476587 0.030459527 97
0.20833972 1.2628685 0.052467756 100
0.22316217 1.2414861 0.070440479 49
0.21913487 1.2472959 0.091983467 100
0.22340226 1.2411398 0.11143246 91
0.22248611 1.2424613 0.13272113 94
0.21211734 1.2574191 0.15891489 73
0.21675023 1.254338 0.010262015 98
0.23187381 1.2323576 0.029412808 100
0.20328608 1.2739065 0.053513627 100
0.22368473 1.2442595 0.070684217 65
0.2241621 1.2435657 0.091044858 100
0.22504881 1.2422769 0.11143246 91
0.22634655 1.2403909 0.13182132 94
0.20834556 1.2665532 0.16150309 70
0.21176291 1.2654655 0.010471444 96
0.22568801 1.2450674 0.030145511 65
0.20288864 1.2784648 0.053862248 100
0.22542518 1.2454523 0.070684217 65
0.22589999 1.2447567 0.091044858 100
0.21681979 1.2580578 0.11486702 100
0.22917151 1.2399645 0.13137141 100
0.20798942 1.270993 0.16253836 70
0.21237278 1.2682986 0.010506349 54
0.23631081 1.2329688 0.029308135 34
0.20801839 1.2747252 0.053339314 78
0.22040582 1.2564428 0.072146654 79
0.2330994 1.2377084 0.089480512 100
0.22072795 1.2559673 0.11410378 100
0.23627949 1.2330151 0.1291219 96
0.21732569 1.2609886 0.15891489 73
0.22063878 1.2594028 0.010296919 42
0.22661564 1.2505217 0.030354854 32
0.22851652 1.2476971 0.05037602 56
0.2241523 1.254182 0.071659178 96
0.23126161 1.2436182 0.090419121 100
0.22883308 1.2472267 0.11181407 98
0.23447153 1.2388484 0.13047162 100
0.21886981 1.2620313 0.15891489 81
0.2290132 1.2505722 0.010087491 43
0.2305136 1.2483258 0.030145511 32
0.2135866 1.2736685 0.05299069 52
0.22804955 1.252015 0.071171694 81
0.2318196 1.2463706 0.090731993 95
0.24031484 1.2336518 0.10837951 87
0.23178053 1.2464291 0.13227122 94
0.21844336 1.2663971 0.15995017 72
0.22627318 1.2583568 0.01022711 42
0.1946654 1.3060386 0.033704355 28
0.21644759 1.2731791 0.05281638 53
0.23741165 1.2415539 0.069465525 99
0.240033 1.2375995 0.088854775 98
0.23759621 1.2412754 0.10990598 92
0.24421269 1.2312942 0.1277722 100
0.21697596 1.272382 0.16150309 70
0.22358367 1.2661662 0.010366729 27
0.20312494 1.2972643 0.033076324 29
0.21382594 1.2809982 0.053513627 52
0.22596738 1.2625428 0.072390392 100
0.24600983 1.2320775 0.087603301 99
0.23600614 1.2472835 0.11105084 84
0.24475372 1.2339869 0.12822211 97
0.21873164 1.2735415 0.16150309 70
0.22431147 1.2690338 0.010401634 27
0.21815878 1.2784612 0.03182026 30
0.22767925 1.2638736 0.051596198 54
0.2342844 1.2537529 0.070927955 65
0.24122772 1.243114 0.089480512 97
0.23561159 1.2517194 0.11181407 91
0.24539131 1.2367344 0.128672 97
0.2258586 1.2666633 0.15891489 73
0.23366484 1.2584188 0.0101573 42
0.24599338 1.2393836 0.029308135 34
0.23698679 1.2532897 0.05037602 56
0.2251837 1.2715136 0.073365346 100
0.2461026 1.2392149 0.08854191 84
0.24369854 1.2429268 0.10952436 92
0.25020045 1.232888 0.1273223 97
0.23389536 1.2580628 0.15580906 75
0.24177518 1.249373 0.0099478718 58
0.23566967 1.2588687 0.030459527 65
0.23643607 1.2576768 0.05072464 56
0.24509963 1.2442026 0.069221787 67
0.24125022 1.2501895 0.090419121 82
0.25057742 1.2356832 0.10761628 87
0.25173709 1.2338796 0.1273223 97
0.22924677 1.2688581 0.15891489 73
0.23914793 1.257189 0.010087491 57
0.251344 1.2380745 0.029098792 68
0.23492524 1.2638072 0.051247578 55
0.24996004 1.2402437 0.068490572 50
0.2535536 1.2346115 0.087290429 71
0.25114876 1.2383806 0.10799789 72
0.25545457 1.2316322 0.12642249 82
0.22579446 1.2781177 0.16150309 63
0.24076521 1.2582172 0.010087491 71
0.24862298 1.2458115 0.029517479 67
0.22910175 1.2766314 0.052467756 80
0.24833447 1.246267 0.069221787 67
0.25932395 1.2289169 0.086038955 72
0.24219844 1.2559545 0.11181407 98
0.2549015 1.235899 0.1273223 89
0.22748122 1.2791898 0.16150309 63
0.24459952 1.2559075 0.010017681 72
0.24922287 1.2485516 0.029622151 100
0.24147442 1.2608798 0.05072464 84
0.24049172 1.2624433 0.071415432 48
0.2588253 1.2332737 0.086664692 86
0.25225437 1.2437284 0.10876112 79
0.2575666 1.2352763 0.12687239 99
0.23748469 1.2672276 0.15736198 66
0.24532461 1.2587206 0.010052586 86
0.25520533 1.2428713 0.029203463 100
0.24643776 1.256935 0.050201707 85
0.25070009 1.250098 0.069465525 49
0.25634509 1.241043 0.087916173 70
0.2456837 1.2581446 0.11181407 98
0.25515011 1.2429599 0.128672 97
0.23930922 1.2683698 0.15736198 66
0.24598047 1.2614818 0.010087491 71
0.24845225 1.2574859 0.03004084 99
0.2428987 1.2664638 0.051073264 83
0.24715632 1.2595809 0.070684217 65
0.25799114 1.2420652 0.087916173 56
0.26184869 1.235829 0.10647142 73
0.25987834 1.2390143 0.1273223 89
0.23901817 1.272737 0.15839726 65
0.25292805 1.2540185 0.0099129668 87
0.25224522 1.255131 0.029831495 100
0.24463356 1.2675327 0.051073264 100
0.24886712 1.260635 0.070684217 81
0.25964072 1.2430816 0.087916173 56
0.25217989 1.2552376 0.11066922 92
0.26661414 1.2317199 0.12507279 83
0.24077496 1.2738196 0.15839726 65
0.25357932 1.2567605 0.0099478718 73
0.26432851 1.2391089 0.028784776 100
0.24533585 1.2702973 0.051247578 82
0.2598739 1.246424 0.068490572 50
0.26540354 1.2373437 0.086664692 71
0.26102331 1.2445365 0.10799789 72
0.2702547 1.2293774 0.12417299 83
0.24454507 1.271596 0.15736198 66
0.24907562 1.2680615 0.0101573 85
0.26390207 1.2435222 0.028994121 100
0.25326604 1.261126 0.050201707 100
0.25948557 1.250832 0.068978049 50
0.26499355 1.2417157 0.087290429 71
0.25658998 1.2556245 0.1102876 85
0.27286768 1.2286832 0.12372308 83
0.24629784 1.2726591 0.15736198 66
0.26212537 1.2502422 0.0097733475 89
0.25734174 1.2582225 0.029831495 100
0.25600657 1.2604499 0.050027397 85
0.25504208 1.2620589 0.070440479 49
0.27070439 1.2359304 0.086038955 58
0.26434323 1.2465423 0.10799789 72
0.27046278 1.2363336 0.12552269 90
0.25202724 1.2670883 0.15529142 67
0.25962976 1.2580684 0.0099129668 87
0.25896236 1.2591903 0.029831495 99
0.25865325 1.2597098 0.049853086 85
0.26682505 1.2459743 0.068003096 51
0.26821101 1.2436447 0.087290429 57
0.26190987 1.254236 0.10952436 85
0.27201074 1.237258 0.12552269 90
0.25762826 1.2614326 0.15322088 68
0.26540092 1.2521906 0.0097733475 89
0.2708236 1.2430031 0.028784776 100
0.25023732 1.2778821 0.051596198 100
0.26647025 1.2503788 0.068490572 50
0.26785791 1.2480278 0.087916173 70
0.27358097 1.2383313 0.10570818 73
0.27760556 1.2315125 0.12372308 92
0.2554177 1.269105 0.15529142 67
0.26809621 1.2514555 0.0097384425 75
0.2765131 1.2370806 0.028366089 100
0.25704557 1.2703285 0.05072464 84
0.27015486 1.2479396 0.068003096 51
0.27851135 1.2336679 0.085100345 58
0.26728147 1.252847 0.10876112 79
0.28020287 1.2307789 0.12327318 85
0.24935266 1.2834671 0.15943253 65
0.25873038 1.2714574 0.010122396 99
0.27212626 1.2483947 0.028994121 100
0.26279667 1.2644567 0.050027397 85
0.26983079 1.2523466 0.068490572 50
0.28112367 1.2329044 0.084787481 59
0.26798257 1.2555286 0.10914274 78
0.28181294 1.2317178 0.12327318 85
0.26084986 1.2678084 0.15425615 67
0.27745426 1.2430159 0.0095290141 92
0.27778631 1.2424395 0.028575432 100
0.26750845 1.2602773 0.049504463 86
0.27448934 1.2481616 0.067759357 34
0.28274116 1.2338402 0.084787481 59
0.27261952 1.2514068 0.10799789 79
0.28148046 1.2360282 0.12417299 83
0.26547423 1.2638078 -0.0099478718 86
0.26837608 1.2587714 0.15115032 69
0.27513793 1.2509089 0.0096686333 90
0.27547282 1.2503229 0.028994121 100
0.26526693 1.2681795 0.050201707 85
0.27517509 1.2508439 0.068003096 51
0.27946082 1.2433454 0.086351827 58
0.27917263 1.2438496 0.1060898 88
0.27827385 1.2454221 0.12642249 99
0.2671997 1.2647979 -0.0099478718 86
0.26624948 1.2664604 0.15322088 68
0.27188721 1.2605634 0.0098431576 88
0.27321106 1.2582282 0.029412808 100
0.26405981 1.2743701 0.05072464 84
0.27000213 1.2638884 0.069709264 33
0.28306317 1.24085 0.08572609 58
0.27792358 1.2499157 0.10723466 81
0.29242915 1.2243294 0.12057377 86
0.26226765 1.2775314 0.1563267 66
0.27752185 1.254559 0.0097035384 90
0.28274855 1.2452642 0.028575432 100
0.27265802 1.2632086 0.049504463 86
0.27659273 1.2562113 0.068490572 50
0.28664482 1.2383354 0.085100345 58
0.27382681 1.2611301 0.10952436 85
0.29592696 1.2218285 0.11967396 87
0.27066088 1.2667601 -0.0099478718 86
0.26404101 1.2785325 0.1563267 66
0.27239659 1.2677323 0.0099478718 73
0.28246343 1.2496828 0.028784776 100
0.27729279 1.2589536 0.048981529 87
0.28022546 1.2536954 0.068003096 51
0.28924343 1.2375265 0.084787481 73
0.27745545 1.2586619 0.10876112 79
0.29370877 1.2295203 0.12147357 86
0.2762928 1.2607465 -0.0098082526 99
0.27710986 1.2592815 0.15011504 70
0.27994338 1.2581993 0.0097384425 75
0.28027239 1.2576045 0.029203463 100
0.28285885 1.2529287 0.048284281 88
0.27518937 1.2667935 0.069709264 66
0.29278934 1.2349768 0.084161744 59
0.28391439 1.2510207 0.10685304 88
0.29625764 1.228707 0.12102367 77
0.27607161 1.2651986 -0.0098780617 87
0.27507901 1.2669929 0.1521856 69
0.28838196 1.2468667 0.0094941091 92
0.28581873 1.2515389 0.028784776 100
0.2768797 1.2678325 0.049678773 86
0.28551844 1.2520862 0.067515619 51
0.28871316 1.246263 0.086038955 87
0.28559509 1.2519464 0.10685304 81
0.29504839 1.2347155 0.12237337 76
0.27495712 1.271337 0.15322088 68
0.28622532 1.2548032 0.0096337283 90
0.2913194 1.2454405 0.028366089 100
0.27576247 1.2740333 0.050201707 85
0.28910029 1.2495191 0.067028143 51
0.29415354 1.2402315 0.084787481 59
0.29197046 1.2442439 0.10494494 82
0.29853481 1.2321789 0.12147357 86
0.28040192 1.2655063 0.15115032 77
0.28507051 1.2610005 0.0097384425 90
0.29487738 1.2428252 0.028156744 100
0.27279305 1.2837546 0.051073264 83
0.28889045 1.2539209 0.067515619 51
0.2986106 1.2359064 0.083848871 59
0.28896612 1.2537806 0.10685304 81
0.28127223 1.2680399 -0.0098780617 87
0.28213319 1.2664443 0.15115032 77
0.28867286 1.2583959 0.0096686333 75
0.29276034 1.2507569 0.028575432 100
0.28210786 1.2706654 0.049678773 86
0.28870818 1.25833 0.068003096 51
0.28973019 1.2564199 0.10723466 73
0.29992878 1.2373598 0.12237337 85
0.28678602 1.2619224 -0.0097384425 88
0.28477916 1.2656729 0.15063268 78
0.28944203 1.2610717 0.0097035384 90
0.29537618 1.2498876 0.02847076 100
0.2913278 1.2575175 0.048284281 88
0.29227519 1.2557319 0.067515619 51
0.29603061 1.2486541 0.10532656 82
0.2828812 1.2734368 -0.0099478718 86
0.28832191 1.2631826 0.14959741 78
0.29674429 1.2513599 0.0094941091 92
0.29426298 1.2560761 0.028784776 100
0.28839272 1.2672336 0.049155839 87
0.28842658 1.2671694 0.068978049 50
0.29953119 1.2460629 0.10456333 75
0.2883645 1.2672873 -0.0098082526 88
0.28824604 1.2675124 0.15063268 78
0.29750118 1.254014 0.0095290141 76
0.29105151 1.2663773 0.048981529 87
0.29108176 1.2663194 0.068734311 84
0.29847035 1.2521563 0.10570818 81
0.29087779 1.2667103 0.15011504 70
0.2945987 1.2637732 0.0097035384 90
0.28637829 1.2796659 0.050201707 56
0.29000515 1.2726541 -0.0098780617 97
0.28551289 1.2813389 0.15425615 67
0.29432493 1.2681313 0.0097733475 100
0.2925297 1.2716289 0.049330149 58
0.29891142 1.2591954 0.067515619 51
0.29249871 1.2716893 -0.0098431576 100
0.29594207 1.2649806 0.14907977 78
0.29601127 1.2736857 0.15115032 77
0.2986348 1.2728412 0.15063268 78
0.29695299 1.2806547 -0.0099478718 100
0.29953381 1.2754467 0.15115032 77
