# .PCD v0.7 - Point Cloud Data file format
VERSION 0.7
FIELDS x y z intensity
SIZE 4 4 4 4
TYPE F F F F
COUNT 1 1 1 1
WIDTH 725
HEIGHT 1
VIEWPOINT 0 0 0 1 0 0 0
POINTS 725
DATA ascii
0.045702994 0.0054838061 0.015986403 8
0.047417164 0.0080824494 0.047835063 100
0.041443944 0.0048513412 0.048149079 97
0.037531316 0.0050611496 0.048253752 70
0.039334059 0.013476312 0.047835063 37
0.034449995 0.011960447 0.04804441 18
0.033067763 0.01532203 0.047939736 18
0.02930218 0.015487254 0.04804441 9
0.015404344 0.00081759691 0.049091127 7
0.017172217 0.0093256235 0.048672438 8
0.010047495 0.0045685172 0.049091127 7
-1.0505695 1.1354035 0.028656852 3
-1.0213592 1.1287349 0.084470235 5
-1.0330672 1.1314079 0.14206386 6
-1.0278566 1.1360177 0.028272899 8
-0.99091357 1.127448 0.082900152 15
-1.0395596 1.1387324 0.14276111 29
-1.0032129 1.1360192 0.02785404 23
-0.99743241 1.134657 0.083318844 82
-1.0208094 1.1401658 0.1411923 78
-0.98442274 1.1372495 0.027539898 37
-1.0000348 1.1409862 0.083528183 100
-1.005944 1.1424004 0.13997212 84
-0.97924525 1.1416589 0.027470088 45
-0.98514515 1.1430929 0.082795486 100
-0.99882644 1.1464179 0.13944919 92
-0.97793859 1.1469947 0.027470088 26
-0.98383349 1.1484492 0.082795486 100
-1.0013719 1.1527765 0.13979781 86
-0.97855312 1.1528118 0.027504992 23
-0.97862822 1.1528306 0.082586139 62
-1.0019591 1.1586735 0.13997212 78
-0.9752695 1.1576525 0.027470088 35
-0.97147542 1.1566882 0.08227212 38
-0.98900682 1.1611439 0.13892625 78
-0.96616155 1.160977 0.027330469 59
-0.98558825 1.1659865 0.083109498 50
-0.97412711 1.1630311 0.13770607 89
-0.95318002 1.1632304 0.027121039 66
-0.97839993 1.1698279 0.082795486 100
-0.97660094 1.1693573 0.1380547 91
-0.95566386 1.1695008 0.027190849 74
-0.96155125 1.1710629 0.081958108 92
-0.97904915 1.1757057 0.13840333 99
-0.95619124 1.1752737 0.027225753 81
-0.94278413 1.1716663 0.081016064 98
-0.97185177 1.1794875 0.13788038 100
-0.95476741 1.1805289 0.027225753 92
-0.94715351 1.1784517 0.081330076 100
-0.96464676 1.1832241 0.13735744 100
-0.94568795 1.1833857 0.027086135 93
-0.95156604 1.1850103 0.081644088 100
-0.95750695 1.1866523 0.13683452 94
-0.93653363 1.1864463 0.026946515 93
-0.94818503 1.1897104 0.081539422 90
-0.95220631 1.190837 0.13648589 98
-0.93891829 1.1927251 0.027016325 77
-0.94286817 1.1938466 0.081330076 82
-0.95456141 1.1971664 0.13683452 100
-0.96818155 1.2067657 0.027574802 52
-0.92218548 1.1935331 0.080283359 50
-0.9549759 1.2029666 0.13700883 99
-0.94936949 1.2070264 0.027260659 42
-0.92261559 1.1992283 0.080388032 22
-0.94771701 1.2065446 0.13648589 87
-0.92673856 1.2060285 0.026876707 66
-0.92685491 1.2060628 0.080702044 26
-0.93662995 1.2089491 0.13561434 82
-0.91946 1.2094617 0.026771991 74
-0.93106431 1.2129321 0.081016064 26
-0.9331798 1.2135648 0.13544002 98
-0.91217548 1.2128495 0.026667276 81
-0.92186314 1.2157836 0.080597371 74
-0.9335292 1.2193168 0.13561434 99
-0.91842502 1.2197834 0.026806897 81
-0.90899724 1.2168957 0.079969339 100
-0.92830032 1.2228082 0.13526571 100
-0.9168461 1.2249064 0.026806897 88
-0.90552086 1.2213942 0.079864666 91
-0.92290479 1.2267854 0.1349171 80
-0.90753788 1.2278824 0.026667276 81
-0.91338378 1.2297189 0.080388032 70
-0.90601426 1.2274038 0.1335226 54
-0.8868739 1.2269076 0.02631823 83
-0.90986687 1.2342191 0.080283359 68
-0.91200358 1.2348984 0.13421984 43
-0.88907737 1.2331457 0.026388038 85
-0.89683014 1.2356408 0.079655327 91
-0.91606158 1.2418301 0.13474278 45
-0.89886028 1.2418817 0.026597468 93
-0.88759965 1.2382143 0.079236634 100
-0.91251129 1.2463278 0.13456847 57
-0.89728755 1.2466838 0.026597468 100
-0.89742118 1.2467278 0.079864666 100
-0.90524644 1.2493051 0.13404553 78
-0.88423198 1.2479397 0.026388038 96
-0.89385349 1.251146 0.07976 100
-0.89978415 1.2531222 0.13369691 82
-0.87497526 1.2503879 0.02624842 96
-0.88837999 1.2549069 0.079550654 100
-0.89808887 1.2581799 0.13369691 78
-0.87328964 1.2553591 0.02624842 92
-0.88100749 1.257991 0.079236634 100
-0.89826173 1.2638748 0.13387123 89
-0.87528175 1.2618772 0.02631823 93
-0.86788136 1.2593231 0.07860861 100
-0.8926751 1.2678797 0.1335226 100
-0.88110811 1.2694851 0.026457848 83
-0.87370747 1.2669021 0.079027295 97
-0.8871662 1.2715995 0.13317397 71
-0.86427039 1.2691532 0.02617861 79
-0.86254734 1.2685452 0.078503937 59
-0.89104289 1.2786024 0.13369691 38
-0.86063606 1.2734149 0.026143705 88
-0.86267954 1.2741442 0.07860861 25
-0.89113528 1.2842991 0.13387123 36
-0.8532272 1.2762997 0.026038991 96
-0.85903233 1.2783943 0.078503937 34
-0.87433821 1.2839168 0.13247673 26
-0.85896581 1.2839358 0.02617861 96
-0.84786755 1.2798877 0.077980578 72
-0.88563794 1.2936648 0.13369691 19
-0.85350114 1.2872224 0.0261088 100
-0.85366517 1.2872828 0.078399263 100
-0.87454611 1.2949779 0.13282534 13
-0.84044367 1.2879303 0.025899371 100
-0.84810776 1.2907851 0.078189917 95
-0.88390726 1.3041201 0.13387123 1
-0.83123213 1.2897213 0.025759751 100
-0.83515722 1.2911983 0.077561885 44
-0.87093967 1.3046622 0.13282534 1
-0.8331477 1.2959611 0.025829561 85
-0.8333295 1.2960302 0.077561885 53
-0.8467173 1.301121 0.13073361 9
-0.84054321 1.304615 0.026004085 72
-0.83325642 1.3018136 0.077666558 59
-0.86335808 1.3133866 0.13247673 45
-0.83866864 1.3094656 0.026004085 74
-0.83325332 1.307362 0.077771232 72
-0.85030955 1.313988 0.13143086 100
-0.82374698 1.3091955 0.025759751 93
-0.82950991 1.3114574 0.077666558 61
-0.8317104 1.3123212 0.12986206 100
-0.81442088 1.311039 0.025620133 100
-0.83132476 1.3177419 0.077875905 82
-0.83536524 1.319344 0.130385 97
-0.82004493 1.3185337 0.025759751 99
-0.82393831 1.3200924 0.077561885 95
-0.8353855 1.3246757 0.1305593 100
-0.8144142 1.3218132 0.025689943 100
-0.81645507 1.3226385 0.077247873 97
-0.83344096 1.3295083 0.1305593 100
-0.82358688 1.3311098 0.025899371 100
-0.80897075 1.3251392 0.076933853 100
-0.82963496 1.3335805 0.130385 100
-0.78966624 1.3172532 0.1776855 22
-0.80313438 1.3282745 0.025550323 100
-0.81071728 1.331403 0.0771432 99
-0.81845039 1.3345934 0.12951343 100
-0.7969231 1.3257117 0.17890419 15
-0.79758364 1.3312209 0.025480513 100
-0.8125357 1.3374479 0.077352546 99
-0.81840986 1.3398943 0.12968774 100
-0.78041261 1.3240697 0.17695428 18
-0.79561645 1.3359214 0.025480513 100
-0.7976591 1.3367805 0.076619841 100
-0.80906588 1.3415778 0.1289905 100
-0.78030032 1.3294799 0.17719802 24
-0.79363281 1.340615 0.025480513 100
-0.78648072 1.3375777 0.076096483 81
-0.80522865 1.3455396 0.12881619 100
-0.77285784 1.3317924 0.17646681 18
-0.81001133 1.3531826 0.025829561 60
-0.80101198 1.3493235 0.077038527 49
-0.80138022 1.3494815 0.12864187 43
-0.7781865 1.3395358 0.17744176 7
-0.80980247 1.3587208 0.025864467 83
-0.81731004 1.3619711 0.078085244 85
-0.81763309 1.3621111 0.130385 39
-0.80169398 1.3552103 0.18085411 7
-0.79124838 1.3562558 0.025550323 100
-0.81889552 1.3683403 0.07829459 100
-0.81920904 1.3684773 0.13073361 100
-0.78691047 1.3543596 0.17914793 28
-0.79834133 1.3649704 0.025724847 100
-0.80035311 1.3658582 0.077352546 100
-0.81528884 1.3724488 0.1305593 100
-0.77941412 1.3566186 0.17841671 28
-0.79808289 1.3704872 0.025759751 100
-0.8019138 1.3721936 0.077561885 100
-0.81681758 1.3788323 0.13090792 100
-0.77191836 1.3588324 0.1776855 31
-0.79780239 1.3760092 0.025794657 100
-0.80526835 1.379366 0.077875905 100
-0.80378109 1.3786974 0.12986206 100
-0.76261288 1.3601871 0.17671055 24
-0.79567891 1.3807101 0.025794657 100
-0.81040794 1.3873947 0.07829459 100
-0.79439098 1.3801258 0.12916481 100
-0.7858519 1.3762504 0.18012288 19
-0.78455526 1.3810072 0.025620133 100
-0.81743294 1.3960598 0.078817949 100
-0.80685276 1.3912157 0.1305593 100
-0.77300459 1.3757188 0.17866045 14
-0.79149073 1.3898557 0.025794657 100
-0.80617398 1.3966403 0.07829459 100
-0.81191057 1.399291 0.13125655 100
-0.75646597 1.373672 0.17671055 13
-0.79294354 1.3962249 0.025864467 100
-0.80397826 1.4013705 0.07829459 100
-0.80970567 1.4040412 0.13125655 100
-0.76334637 1.3824234 0.17792924 11
-0.80703384 1.4085717 0.02617861 100
-0.80357331 1.4069433 0.078399263 100
-0.79306203 1.401997 0.12986206 100
-0.7773661 1.3946111 0.18012288 5
-0.78853899 1.4055851 0.025864467 100
-0.80855852 1.415091 0.078817949 100
-0.79804689 1.4100997 0.1305593 100
-0.79310971 1.4077554 0.18256028 3
-0.78642398 1.4100204 0.025864467 100
-0.80821317 1.4204552 0.078922622 100
-0.80669862 1.4197299 0.13160518 100
-0.78609484 1.4153183 0.025899371 100
-0.8042503 1.424087 0.078817949 100
-0.81171292 1.4276915 0.13230242 100
-0.79832977 1.4267507 0.02617861 100
-0.80027825 1.4276997 0.078713275 100
-0.81668919 1.4356933 0.13299966 100
-0.79927105 1.4339237 0.02624842 100
-0.79225105 1.4304693 0.078399263 100
-0.80685526 1.4376554 0.13230242 100
-0.79347938 1.4366167 0.02617861 100
-0.8007881 1.4402432 0.079027295 100
-0.80106419 1.4403802 0.13195379 100
-0.78410798 1.4374892 0.026038991 100
-0.80927509 1.4500809 0.079655327 100
-0.8095246 1.4502058 0.13299966 100
-0.79259938 1.4473135 0.02624842 100
-0.80522925 1.453685 0.079550654 100
-0.80726153 1.4547104 0.13299966 100
-0.79723614 1.4558588 0.026388038 100
-0.79381484 1.4541171 0.079027295 100
-0.81362051 1.4641999 0.13387123 100
-0.80207056 1.4639752 0.026527658 100
-0.79509264 1.4603937 0.079236634 100
-0.8077659 1.4668984 0.1335226 100
-0.78874272 1.4636419 0.02631823 100
-0.7995252 1.4692286 0.079655327 100
-0.80331093 1.4711902 0.13334829 100
-0.78998011 1.4699292 0.026388038 100
-0.80428022 1.4773988 0.080074012 100
-0.80627626 1.4784414 0.13387123 100
-0.79119045 1.4762323 0.026457848 93
-0.79485816 1.4781635 0.079655327 100
-0.80920821 1.4857199 0.13439415 100
-0.79767257 1.4853637 0.026632372 35
-0.78720993 1.4798101 0.079341307 36
-0.7962684 1.4846184 0.13334829 75
0.15823159 1.2581333 0.010925206 13
0.13745669 1.2840183 0.03454173 27
0.098555863 1.3324878 0.063100755 19
0.11724788 1.3091979 0.10950413 10
0.13833627 1.2829224 0.12784202 17
0.19017017 1.2183387 0.13272113 7
0.13766578 1.2837578 0.1765146 6
0.15237358 1.2688118 0.011134636 37
0.15534794 1.2650806 0.033180997 57
0.15382633 1.2669894 0.055605363 49
0.13919145 1.2853484 0.080921248 13
0.16336581 1.2550224 0.098240845 12
0.14982954 1.2720032 0.12478908 72
0.14780104 1.2745479 0.17289113 14
0.16156328 1.2607887 0.010925206 100
0.1744315 1.2445297 0.031715591 100
0.14814469 1.277743 0.056651235 95
0.17425549 1.244752 0.074340299 30
0.16996488 1.2501732 0.096989371 37
0.15767628 1.2656999 0.122881 100
0.18839267 1.2268898 0.13452072 38
0.14956471 1.2759488 0.17289113 35
0.16813615 1.2557856 0.010785587 100
0.17847577 1.2426322 0.031506244 100
0.14859936 1.2806392 0.056825545 100
0.17092475 1.252238 0.075315252 30
0.1813255 1.2390068 0.094486415 39
0.1702418 1.2531068 0.11944643 100
0.19713566 1.218894 0.13182132 39
0.15005082 1.2787926 0.17340876 42
0.16376901 1.2650652 0.010960111 100
0.18758178 1.2345423 0.030878214 95
0.16027796 1.2695398 0.055431053 100
0.1568211 1.2739708 0.078483857 42
0.19276759 1.2278953 0.091983467 26
0.17201504 1.2544955 0.11944643 100
0.19159114 1.2294031 0.13452072 31
0.15548322 1.2756858 0.17185585 43
0.17276165 1.2568589 0.010750682 92
0.18423101 1.2420567 0.031296901 62
0.1643773 1.2676797 0.055082429 75
0.16578963 1.2658569 0.077021427 29
0.17976913 1.2478151 0.095737889 25
0.19045848 1.2340196 0.11410378 41
0.1871486 1.2382913 0.13677025 30
0.15479583 1.2800454 0.17289113 35
0.16235861 1.2740902 0.011099731 88
0.17744106 1.2544769 0.032029606 30
0.16377488 1.2722485 0.055431053 49
0.17729038 1.2546729 0.075071514 60
0.18754375 1.2413393 0.094173551 52
0.1849809 1.2446721 0.11639348 13
0.18055186 1.2504317 0.13991955 22
0.15077966 1.2891475 0.17547931 56
0.17010105 1.2674267 0.010925206 52
0.17177615 1.2652335 0.032657638 29
0.16181463 1.2782767 0.055953987 48
0.18371916 1.2495956 0.07409656 61
0.1867108 1.2456785 0.094799288 51
0.18894023 1.2427595 0.11563025 13
0.20107198 1.2268745 0.13272113 39
0.15953878 1.2812567 0.17237349 71
0.17192677 1.2688159 0.010925206 52
0.17118096 1.2697998 0.032866981 29
0.16247666 1.2812839 0.056128297 48
0.19267392 1.2414428 0.072634131 63
0.18964991 1.2454326 0.094486415 52
0.19067541 1.2440796 0.11563025 13
0.20981157 1.218832 0.13002171 48
0.16724986 1.2749864 0.16978529 66
0.1759882 1.2668715 0.010855397 39
0.177645 1.2646704 0.032448292 29
0.1809493 1.2602807 0.053687938 52
0.18827009 1.250555 0.073852822 62
0.19835639 1.2371556 0.092609204 53
0.19106877 1.2468371 0.11601187 13
0.21130183 1.2199576 0.13002171 40
0.18286824 1.2577314 0.16357364 69
0.18020532 1.2650349 0.010785587 52
0.18902287 1.253231 0.031610917 30
0.18036401 1.2648225 0.054036561 51
0.18528181 1.2582392 0.074827775 91
0.20007098 1.2384412 0.092609204 53
0.20691815 1.2292751 0.11143246 14
0.21528578 1.2180736 0.1291219 40
0.18118992 1.2637168 0.16512655 68
0.1878061 1.2582283 0.010611063 94
0.19776717 1.244801 0.030982886 63
0.18675524 1.2596449 0.053339314 52
0.19045106 1.254663 0.07409656 61
0.19338775 1.2507044 0.094799288 64
0.21195218 1.22568 0.1102876 14
0.20980707 1.2285717 0.13182132 31
0.18167815 1.2664887 0.16564418 83
0.19196904 1.2563319 0.010541254 81
0.20779839 1.23483 0.030250182 65
0.17319667 1.2818313 0.055605363 73
0.20164487 1.2431886 0.072146654 79
0.19749424 1.2488267 0.094173551 78
0.21246067 1.228497 0.11066922 14
0.21842206 1.2203994 0.1291219 24
0.18350035 1.2678353 0.16564418 68
0.18650261 1.2672023 0.010750682 92
0.21052045 1.23435 0.030145511 65
0.18665481 1.266994 0.053862248 100
0.20555907 1.2411363 0.071659178 64
0.20607904 1.2404251 0.092296332 80
0.21050692 1.2343684 0.11181407 14
0.22681814 1.2120575 0.12642249 16
0.18857369 1.2643694 0.16409127 69
0.19520235 1.2586957 0.010541254 81
0.20619518 1.2435542 0.03066887 64
0.19064596 1.2649716 0.053513627 100
0.20595706 1.2438823 0.071902916 48
0.20996198 1.2383659 0.091670595 100
0.20858845 1.2402577 0.11295892 13
0.24889386 1.1847414 0.11832426 8
0.19475493 1.2593119 0.16202073 70
0.19223371 1.2664204 0.010680873 80
0.20901802 1.2431312 0.030564198 64
0.18888122 1.2710721 0.054036561 100
0.20297077 1.2515221 0.072877869 63
0.21159896 1.23955 0.091670595 100
0.21597135 1.2334831 0.11105084 14
0.24578589 1.1921138 0.12012386 17
0.20098314 1.2542801 0.15995017 72
0.20327672 1.2546552 0.010401634 97
0.19905081 1.2605623 0.031610917 92
0.19874725 1.2609867 0.05281638 100
0.21273875 1.2414291 0.071171694 97
0.20979199 1.2455481 0.092609204 93
0.20845285 1.24742 0.11410378 13
0.23932424 1.2042675 0.12327318 17
0.1981796 1.2617801 0.16202073 70
0.21191749 1.2460802 0.010192205 99
0.21232939 1.2455001 0.030564198 97
0.18892738 1.2784543 0.054559495 100
0.21208766 1.2458405 0.071659178 80
0.20802283 1.2515645 0.093547814 100
0.20557457 1.255012 0.11563025 20
0.22955886 1.221238 0.1277722 16
0.19989839 1.2630053 0.16202073 70
0.20658368 1.2570041 0.010401634 97
0.21851206 1.2400882 0.030145511 98
0.19520822 1.2731358 0.053862248 100
0.20451558 1.2599369 0.073609084 93
0.22328231 1.2333236 0.089793384 100
0.20039642 1.2657783 0.11791996 58
0.23554912 1.2159277 0.12597258 33
0.19596866 1.2720575 0.16460891 69
0.19911218 1.2713059 0.010680873 93
0.21671912 1.2461512 0.030459527 97
0.20153669 1.2678421 0.053165004 100
0.21078116 1.2546347 0.072634131 94
0.22603434 1.2328428 0.089480512 97
0.20100334 1.268604 0.11830158 97
0.2259329 1.2329878 0.13047162 64
0.2076934 1.2590461 0.15995017 72
0.20779601 1.2627339 0.010471444 96
0.21960583 1.2457292 0.030354854 97
0.21245581 1.2560244 0.051770512 100
0.2216185 1.2428312 0.070684217 65
0.22097209 1.2437619 0.09135773 94
0.21403208 1.2537547 0.1144854 100
0.22429717 1.2389742 0.13182132 94
0.20948815 1.2602974 0.15995017 72
0.2140578 1.2573397 0.010331824 98
0.22353557 1.2435907 0.030145511 98
0.20284647 1.2736037 0.053513627 100
0.22327098 1.2439746 0.070684217 81
0.22711238 1.238402 0.090106249 96
0.22797957 1.237144 0.1102876 92
0.2270422 1.2385038 0.13137141 94
0.20900881 1.2646642 0.16098544 72
0.21576098 1.2585095 0.010331824 84
0.23421317 1.2315406 0.029308135 100
0.20460647 1.2748125 0.053513627 100
0.22268558 1.2483888 0.071171694 65
0.22540301 1.2444171 0.091044858 100
0.22517774 1.2447463 0.11181407 98
0.23308119 1.2331949 0.12957181 96
0.2096467 1.2674458 0.16150309 70
0.21634483 1.2613275 0.010366729 69
0.23470411 1.2342923 0.029412808 67
0.19293895 1.295794 0.055605363 73
0.21543574 1.2626662 0.073121607 93
0.22817075 1.2439131 0.090731993 100
0.22463101 1.2491256 0.1125773 89
0.23469999 1.2342985 0.12957181 96
0.21029988 1.2702291 0.16202073 70
0.20232499 1.2856436 0.010855397 39
0.22619644 1.2502394 0.030354854 32
0.21139213 1.2721958 0.05299069 52
0.22594944 1.2506056 0.071171694 81
0.23637006 1.2351506 0.088854775 98
0.22512409 1.2518297 0.11295892 89
0.23515195 1.2369572 0.13002171 96
0.21844056 1.2617421 0.15891489 73
0.22192115 1.2602634 0.010296919 42
0.2256532 1.2546865 0.030564198 32
0.21425524 1.271719 0.05281638 53
0.22542101 1.2550334 0.071659178 80
0.24129149 1.2313174 0.087916173 100
0.23335916 1.2431711 0.11066922 92
0.23895144 1.2348143 0.1291219 100
0.2244567 1.2564745 0.15684435 74
0.22814438 1.2547987 0.0101573 42
0.22522247 1.2591999 0.030773543 32
0.22160637 1.2646466 0.051944822 54
0.23159274 1.2496046 0.070684217 81
0.2353363 1.2439659 0.090106249 96
0.2318379 1.2492353 0.11181407 100
0.23419005 1.2456924 0.13182132 94
0.21983084 1.2673211 0.15995017 72
0.23423946 1.2492399 0.010017681 29
0.23132756 1.2536595 0.030354854 32
0.21566167 1.277436 0.053165004 52
0.23982188 1.2407672 0.069221787 83
0.23590583 1.2467108 0.090419121 96
0.23999366 1.2405066 0.10952436 99
0.24550205 1.2321463 0.1277722 97
0.22050595 1.2700837 0.1604678 72
0.22488374 1.267019 0.010366729 27
0.21762651 1.2781135 0.03182026 30
0.22934356 1.2602011 0.051247578 55
0.2250846 1.266712 0.072877869 100
0.24613923 1.2345248 0.087916173 84
0.23188314 1.2563188 0.11295892 100
0.24810302 1.2315227 0.1273223 97
0.22110856 1.2727903 0.16098544 72
0.23097593 1.2614417 0.01022711 42
0.23245209 1.2591678 0.030564198 32
0.22346276 1.2730155 0.052467756 53
0.23870999 1.2495278 0.07019674 66
0.24883816 1.2339258 0.087603301 99
0.23785856 1.2508394 0.11143246 84
0.24653265 1.2374773 0.128672 97
0.22391751 1.2723149 0.1604678 72
0.24135697 1.2491038 0.0099478718 43
0.24930447 1.2367671 0.029098792 68
0.22737861 1.2708024 0.052119136 54
0.24038574 1.2506115 0.07019674 66
0.25152919 1.2333136 0.087290429 85
0.2480447 1.2387226 0.10837951 87
0.24605557 1.2418103 0.12957181 96
0.23508886 1.2588338 0.15580906 75
0.24518541 1.2468086 0.0098780617 59
0.24017793 1.2546417 0.030145511 65
0.22912869 1.2719254 0.052119136 81
0.24099606 1.2533618 0.070440479 49
0.25102028 1.2376814 0.087916173 84
0.24016556 1.254661 0.11181407 98
0.25190291 1.2363007 0.1277722 97
0.23263496 1.2664407 0.15787962 73
0.2392678 1.2596356 0.010122396 85
0.25248861 1.2388029 0.029098792 100
0.23506519 1.2662578 0.051421888 55
0.25110996 1.2409754 0.068490572 50
0.25468975 1.2353345 0.087290429 71
0.2501902 1.2424247 0.10876112 79
0.25449505 1.2356412 0.1273223 89
0.23117754 1.2723838 0.15943253 65
0.23884767 1.2641015 0.010192205 85
0.25093397 1.2449088 0.029412808 100
0.23786107 1.2656682 0.051247578 82
0.24640894 1.2520944 0.069953002 49
0.25631586 1.2363625 0.087290429 71
0.24347171 1.2567587 0.11181407 98
0.26235285 1.2267759 0.12462288 100
0.23087427 1.2767631 0.1604678 64
0.23739526 1.2702721 0.010296919 70
0.25047675 1.2493374 0.029622151 100
0.24381641 1.2599962 0.05055033 84
0.24809361 1.2531512 0.069953002 49
0.2621327 1.2306839 0.086038955 72
0.2514149 1.2478361 0.10952436 85
0.26085103 1.232735 0.12597258 90
0.24083495 1.2647675 0.1563267 66
0.24651971 1.2594635 0.010052586 86
0.25215179 1.25038 0.029622151 100
0.24447879 1.2627553 0.05072464 84
0.24559775 1.2609506 0.070927955 48
0.2616607 1.2350438 0.086664692 57
0.2520501 1.250544 0.10990598 92
0.26144114 1.2353978 0.12642249 82
0.24052787 1.2691274 0.15736198 66
0.25242135 1.2537072 0.0099129668 87
0.24964428 1.2582213 0.03004084 99
0.23993677 1.2740006 0.051770512 81
0.24731335 1.2620101 0.070927955 48
0.2612156 1.2394123 0.087290429 57
0.26093036 1.239876 0.10723466 81
0.26306742 1.2364023 0.12642249 90
0.24834561 1.2603322 0.15425615 67
0.25619534 1.2513293 0.0098431576 88
0.26383743 1.2388096 0.028784776 100
0.24481213 1.269978 0.051247578 100
0.25937515 1.24612 0.068490572 50
0.26285592 1.2404175 0.087290429 57
0.25643504 1.2509366 0.10952436 85
0.27281973 1.2240942 0.12282328 93
0.24401996 1.2712758 0.15736198 66
0.2516619 1.2626147 0.010052586 86
0.26444098 1.241514 0.028889447 100
0.24036655 1.2812655 0.052293446 80
0.25898221 1.2505275 0.068978049 50
0.26654634 1.2380376 0.086664692 71
0.26014966 1.2485998 0.10876112 79
0.27642551 1.2217252 0.12192347 85
0.24777311 1.2690359 0.1563267 66
0.25338325 1.2636532 0.010052586 86
0.26300263 1.2476438 0.029203463 100
0.25344083 1.2635574 0.05037602 100
0.25657174 1.2583466 0.069953002 49
0.27326879 1.230558 0.085100345 58
0.25474399 1.2613885 0.11143246 84
0.27198192 1.2326998 0.12462288 100
0.25548679 1.2601523 0.15322088 68
0.26637146 1.2457913 0.0096686333 90
0.26467165 1.2486427 0.029203463 100
0.25822604 1.2594554 0.049853086 85
0.25726172 1.261073 0.07019674 49
0.2718437 1.2366116 0.086038955 58
0.26148742 1.2539843 0.10952436 78
0.2745966 1.2319936 0.12417299 83
0.26313466 1.2512211 0.15011504 70
0.26701608 1.2484996 0.0097035384 90
0.26024404 1.2599505 0.029831495 99
0.2579079 1.2639008 0.050201707 85
0.26200917 1.2569659 0.069465525 66
0.26945198 1.2443808 0.087290429 71
0.27017424 1.2431595 0.10685304 81
0.27323496 1.2379842 0.12552269 90
0.25989923 1.2605336 0.15270324 76
0.26556778 1.2546092 0.0098082526 74
0.26389235 1.2574637 0.029622151 100
0.26257288 1.2597117 0.049678773 86
0.26764488 1.2510703 0.068490572 50
0.27102661 1.2453085 0.087290429 57
0.26776975 1.2508575 0.10837951 79
0.27873406 1.2321768 0.12372308 92
0.25468236 1.2731555 0.1563267 66
0.2662549 1.2573272 0.0098431576 88
0.27062047 1.2498295 0.029098792 100
0.26127651 1.2658775 0.050201707 85
0.27132353 1.2486219 0.068003096 51
0.27268746 1.2462795 0.087290429 71
0.26648641 1.2569296 0.10952436 85
0.28623229 1.2230164 0.12102367 86
0.26223016 1.2642397 -0.0099827768 75
0.26227283 1.2641664 0.15322088 68
0.26186979 1.2686541 0.010052586 86
0.27521086 1.2455653 0.028784776 100
0.2589353 1.2737327 0.050898954 83
0.27489853 1.2461059 0.067515619 51
0.28118637 1.2352238 0.085100345 58
0.26613826 1.2612668 0.1102876 85
0.28383619 1.2306378 0.12282328 85
0.26584613 1.2617724 0.1521856 69
0.27455062 1.2505727 0.0096686333 90
0.27488619 1.2499871 0.028994121 100
0.26862159 1.2609169 0.049504463 86
0.27063927 1.2573967 0.068978049 50
0.28281194 1.2361593 0.085100345 58
0.27761763 1.2452217 0.10647142 81
0.28544572 1.2315642 0.12282328 93
0.2694858 1.2594092 0.15115032 69
0.2723617 1.2585332 0.0098082526 74
0.27269995 1.257938 0.029412808 100
0.27042279 1.261945 0.049504463 86
0.27635083 1.251514 0.068003096 51
0.27964219 1.2457225 0.086664692 57
0.27936125 1.2462168 0.10647142 81
0.28713921 1.2325307 0.12282328 85
0.26937243 1.2637932 0.1521856 69
0.27701458 1.2542734 0.0097035384 90
0.27832791 1.2519436 0.028994121 100
0.26627144 1.2733316 0.05055033 84
0.27803329 1.2524662 0.068003096 51
0.28615451 1.2380593 0.085100345 58
0.27620485 1.2557099 0.10837951 87
0.29162619 1.2283525 0.12147357 77
0.2692005 1.2681355 0.15322088 68
0.28057435 1.2516856 0.0096337283 90
0.28577754 1.2423831 0.028366089 100
0.26405165 1.2812252 0.051247578 82
0.27769661 1.2568305 0.068490572 50
0.29156536 1.2320356 0.083848871 59
0.27590024 1.260042 0.10914274 92
0.29600146 1.2241046 0.12012386 86
0.26519558 1.27918 0.1563267 66
0.27158648 1.2718581 0.010017681 58
0.28355247 1.2502886 0.028784776 100
0.27743638 1.2613133 0.049155839 87
0.28324962 1.2508345 0.067515619 51
0.29413801 1.2312075 0.083536007 60
0.28999373 1.2386777 0.10418171 82
0.29475203 1.2301006 0.12147357 86
0.2754668 1.2648635 -0.0098780617 97
0.27447203 1.2666566 0.1521856 69
0.27824607 1.2641143 0.0098431576 88
0.28531462 1.2512619 0.028784776 100
0.28403968 1.2535801 0.048284281 88
0.28501374 1.251809 0.067515619 68
0.29583013 1.2321422 0.083536007 60
0.28509054 1.2516694 0.10685304 81
0.29550099 1.2327406 0.12192347 85
0.27728242 1.2658664 -0.0098780617 87
0.27629423 1.2676632 0.1521856 69
0.29337814 1.2404823 0.0093544899 93
0.28317064 1.2591965 0.029203463 100
0.28095907 1.2632511 0.049155839 87
0.28479609 1.2562165 0.068003096 51
0.29744488 1.2330266 0.083536007 75
0.29147395 1.2439735 0.10494494 82
0.29618466 1.235337 0.12237337 85
0.28173327 1.2618318 0.15011504 70
0.28922942 1.251883 0.0095639192 91
0.28859657 1.2530525 0.028784776 100
0.28069976 1.2676451 0.049504463 86
0.28829944 1.2536016 0.067515619 100
0.29616126 1.2390735 0.084474608 59
0.29211277 1.2465549 0.10532656 82
0.27784917 1.2729127 0.15322088 68
0.28807637 1.2580763 0.0096686333 90
0.29972854 1.2363634 0.027738057 100
0.28149638 1.2703377 0.049678773 86
0.29374379 1.2475156 0.066540658 52
0.29780018 1.2399566 0.084474608 59
0.2909928 1.2526418 0.10647142 81
0.2833485 1.2668864 -0.0098431576 97
0.27595234 1.2806686 0.15529142 67
0.28884226 1.2607529 0.0097035384 90
0.29572836 1.247813 0.028366089 100
0.29166839 1.2554423 0.048109971 59
0.29261452 1.2536643 0.067271881 34
0.2926791 1.2535429 0.10647142 73
0.286024 1.2660489 -0.0098082526 88
0.28499693 1.2679789 0.15115032 69
0.29615638 1.2510502 0.0094941091 92
0.29926199 1.2451649 0.028156744 100
0.28871527 1.2651515 0.048981529 87
0.28967223 1.2633381 0.068490572 50
0.29620105 1.2509656 0.10570818 81
0.28854001 1.2654837 0.15011504 70
0.29691005 1.2537051 0.0095290141 76
0.29351464 1.2601944 0.028994121 100
0.29229262 1.2625299 0.048632905 88
0.29691768 1.2536905 0.067028143 51
0.29564485 1.2561232 0.14700922 72
0.29860002 1.2545856 0.0095290141 92
0.28942588 1.2722692 0.049504463 86
0.29860762 1.254571 0.067028143 51
0.28844693 1.2741562 0.1521856 69
0.29565111 1.2642727 0.048632905 59
0.28831351 1.2785318 -0.0099827768 100
0.28835231 1.2784563 0.15322088 68
0.29736042 1.2651919 0.0097035384 100
0.2955671 1.268707 0.048981529 58
0.29372531 1.2723169 -0.0098431576 100
0.29627436 1.2673208 0.14959741 70
0.29385209 1.2768668 -0.0099129668 100
0.29991657 1.2731282 0.049155839 58
0.29632932 1.2803452 -0.0099478718 100
0.29820153 1.2812715 -0.0099478718 100
0.29991606 1.2777901 0.15166797 77
