# .PCD v0.7 - Point Cloud Data file format
VERSION 0.7
FIELDS x y z intensity
SIZE 4 4 4 4
TYPE F F F F
COUNT 1 1 1 1
WIDTH 723
HEIGHT 1
VIEWPOINT 0 0 0 1 0 0 0
POINTS 723
DATA ascii
0.090682715 0.0067750812 0.046683673 21
0.054658741 0.008114934 0.047625721 49
0.052134961 0.0097617507 0.047625721 29
0.045084119 0.0048361421 0.04804441 100
0.042549551 0.0065147281 0.04804441 99
0.038216591 0.011820912 0.047939736 27
0.038942814 0.018566489 0.047625721 19
0.030678093 0.012117147 0.048149079 17
0.026901066 0.012290895 0.048253752 8
0.019830704 0.0074703097 0.048672438 8
0.026339114 0.022412479 0.047835063 9
-1.0445938 1.134625 0.028552137 5
-0.99786991 1.1239409 0.083214171 5
-1.0368257 1.1328486 0.14241248 6
-1.0238333 1.1356634 0.028203089 8
-0.99467951 1.1288898 0.083109498 20
-1.0219646 1.1352292 0.1411923 35
-0.98745185 1.1331549 0.027574802 26
-0.99918503 1.1359264 0.083423518 88
-1.008981 1.1382402 0.14014643 81
-0.98034126 1.1371199 0.027470088 38
-1.0192621 1.1464568 0.084574908 100
-1.0096235 1.1441445 0.14032075 95
-0.98099333 1.1429329 0.027504992 41
-0.98106855 1.1429511 0.082586139 100
-1.0083082 1.1495864 0.14032075 87
-0.98938829 1.1506749 0.027679516 25
-0.97781855 1.1478138 0.082481466 100
-1.0069735 1.1550236 0.14032075 87
-0.98223156 1.1545856 0.027574802 23
-0.98423904 1.1550896 0.082900152 50
-0.99209303 1.1570609 0.13910057 84
-0.96343929 1.1554896 0.027260659 42
-0.98095006 1.1599498 0.082795486 31
-0.98687106 1.1614578 0.13875194 78
-0.95434016 1.1587687 0.027121039 59
-0.99118191 1.1682898 0.083423518 58
-0.97970814 1.1653246 0.13822901 91
-0.9529739 1.1640174 0.027121039 66
-0.9704625 1.1686022 0.082376793 100
-0.97639161 1.1701566 0.1380547 92
-0.95545453 1.170289 0.027190849 75
-0.95941097 1.1713411 0.081853434 88
-0.98076206 1.1770182 0.13857763 98
-0.95597881 1.1760623 0.027225753 81
-0.95028716 1.1745276 0.081434749 100
-0.96394247 1.1782095 0.13718314 100
-0.95069438 1.180262 0.027155945 93
-0.95079261 1.1802888 0.081539422 100
-0.9567427 1.1819155 0.1366602 100
-0.94154495 1.1833616 0.027016325 93
-0.94550186 1.1844583 0.081330076 100
-0.96681577 1.1903651 0.13770607 92
-0.93624252 1.187484 0.026946515 96
-0.93635458 1.1875155 0.08091139 90
-0.95958477 1.1940408 0.13718314 98
-0.94823915 1.196502 0.027190849 72
-0.93104631 1.1916077 0.080702044 80
-0.96001166 1.1998532 0.13735744 100
-0.96418589 1.2061886 0.027504992 50
-0.92779523 1.1957055 0.080597371 42
-0.9471665 1.2012858 0.13631158 99
-0.93961877 1.2047485 0.027086135 44
-0.92821747 1.201421 0.080702044 22
-0.94182676 1.2053928 0.13596296 84
-0.92466861 1.205977 0.026841801 71
-0.92670256 1.2065783 0.080702044 28
-0.94220847 1.2111626 0.13613728 84
-0.91547519 1.2088274 0.026702182 75
-0.91942972 1.2100115 0.080388032 32
-0.94065946 1.2163687 0.13613728 98
-0.91967541 1.2156811 0.026806897 78
-0.9140622 1.2139789 0.080178685 84
-0.93337232 1.2198347 0.13561434 99
-0.91811067 1.2208085 0.026806897 88
-0.9144128 1.2196729 0.080283359 100
-0.92417461 1.2226706 0.1349171 100
-0.91262966 1.2249984 0.026737086 88
-0.91656905 1.2262238 0.080492698 86
-0.91870064 1.226887 0.13456847 78
-0.9034031 1.2276986 0.026597468 85
-0.9149676 1.2313404 0.080492698 68
-0.91709691 1.2320108 0.13456847 56
-0.89798611 1.2315545 0.026527658 81
-0.90383369 1.2334183 0.079969339 76
-0.91547519 1.2371292 0.13456847 43
-0.90017241 1.237834 0.026597468 83
-0.89650482 1.2366507 0.079655327 95
-0.90814716 1.2404066 0.13404553 45
-0.8947286 1.241652 0.026527658 93
-0.894867 1.2416972 0.079655327 100
-0.91596633 1.2485853 0.1349171 59
-0.88547832 1.2441832 0.026388038 100
-0.89700466 1.2479907 0.079864666 100
-0.9029358 1.2499499 0.13387123 80
-0.88018793 1.2474241 0.02631823 99
-0.89549583 1.2525343 0.079864666 100
-0.89953095 1.2538812 0.13369691 85
-0.87851268 1.2524135 0.02631823 93
-0.88623363 1.255021 0.07944598 100
-0.90160841 1.260213 0.13404553 78
-0.87682003 1.2573971 0.02631823 99
-0.8845318 1.2600313 0.07944598 100
-0.90365916 1.2665652 0.13439415 87
-0.87510997 1.2623746 0.02631823 96
-0.87714928 1.2630792 0.079131968 100
-0.89250118 1.2683833 0.1335226 97
-0.86583155 1.2647078 0.02617861 77
-0.87164849 1.2667402 0.078922622 93
-0.90203804 1.2773588 0.13456847 56
-0.86221057 1.2689807 0.026143705 75
-0.87743849 1.2743613 0.079341307 59
-0.89274389 1.2797692 0.13387123 38
-0.86413831 1.2754996 0.026213514 83
-0.85301179 1.2715223 0.078085244 21
-0.89086574 1.2850536 0.13387123 38
-0.86048442 1.2797531 0.02617861 96
-0.85876602 1.279132 0.078503937 46
-0.88531154 1.2887256 0.1335226 28
-0.85878628 1.2844276 0.02617861 96
-0.85519379 1.2831159 0.078399263 85
-0.87235445 1.2893821 0.13247673 16
-0.8419742 1.2838024 0.025899371 100
-0.85339421 1.2880177 0.078399263 100
-0.85931808 1.2902043 0.13143086 7
-0.83642513 1.2872602 0.025829561 100
-0.84783489 1.291517 0.078189917 85
-0.89482766 1.3090496 0.1349171 1
-0.83461112 1.2920966 0.025829561 100
-0.8291865 1.2900511 0.077247873 46
-0.87056607 1.305654 0.13282534 1
-0.84025472 1.2997749 0.025969181 85
-0.82922918 1.2955735 0.077352546 53
-0.84634608 1.302096 0.13073361 11
-0.8477276 1.3082174 0.026143705 74
-0.83856934 1.3046908 0.077980578 63
-0.85377675 1.3105468 0.13160518 50
-0.83475274 1.3085009 0.025934275 75
-0.83865005 1.3100164 0.078085244 68
-0.8464058 1.3130325 0.13108224 100
-0.82355863 1.309675 0.025759751 93
-0.82932085 1.311939 0.077666558 65
-0.83337539 1.313532 0.13003637 99
-0.82166642 1.3144662 0.025759751 100
-0.81999534 1.313803 0.077247873 82
-0.83887702 1.3212979 0.13073361 99
-0.81975752 1.3192509 0.025759751 100
-0.81623489 1.3178384 0.0771432 95
-0.84249192 1.3283671 0.13125655 100
-0.82153887 1.3255304 0.025829561 100
-0.82171899 1.3256034 0.077561885 100
-0.82391447 1.3264927 0.12968774 100
-0.80478495 1.3242571 0.025550323 100
-0.81237704 1.3273631 0.0771432 97
-0.81089932 1.3267586 0.12864187 100
-0.79924291 1.3272201 0.025480513 100
-0.81236726 1.3326403 0.077247873 100
-0.8127287 1.3327894 0.1289905 100
-0.8059029 1.3299706 0.18012288 24
-0.79728967 1.3319263 0.025480513 100
-0.79933494 1.3327794 0.076619841 100
-0.81811124 1.3406107 0.12968774 100
-0.75264055 1.3133042 0.17329821 16
-0.79531997 1.3366259 0.025480513 100
-0.79552156 1.3367108 0.076515168 100
-0.81243879 1.3438361 0.12933913 100
-0.79098386 1.3347996 0.17866045 24
-0.80437499 1.3460143 0.025689943 93
-0.79537314 1.3421857 0.076619841 74
-0.81042749 1.3485885 0.12933913 100
-0.76890999 1.3309311 0.17597933 16
-0.80980772 1.3536572 0.025829561 60
-0.82283372 1.3592483 0.07829459 42
-0.8085013 1.3530965 0.12933913 30
-0.78163594 1.3415654 0.17792924 7
-0.8022576 1.356015 0.025724847 90
-0.80977303 1.3592718 0.077666558 89
-0.83022302 1.368134 0.13160518 48
-0.76141852 1.3383169 0.17549185 11
-0.79826885 1.3601654 0.025689943 100
-0.80760401 1.3642516 0.077666558 100
-0.81889552 1.3691941 0.13073361 100
-0.78114885 1.3526716 0.17841671 31
-0.79813355 1.3654411 0.025724847 100
-0.80562598 1.3687503 0.077666558 100
-0.82236868 1.3761452 0.13125655 100
-0.77012998 1.3530726 0.17719802 30
-0.80700523 1.3750292 0.025934275 100
-0.80717605 1.3751054 0.077875905 100
-0.79840785 1.371196 0.12916481 100
-0.79528242 1.3698025 0.18085411 38
-0.79769665 1.3762444 0.025794657 100
-0.80880493 1.3812413 0.078085244 100
-0.79640681 1.3756642 0.12916481 100
-0.76794094 1.3628592 0.17744176 22
-0.78807682 1.3781053 0.025655037 100
-0.8173576 1.3914123 0.078713275 100
-0.80132669 1.3841269 0.12986206 100
-0.75300425 1.3621662 0.17573559 16
-0.79332405 1.3858727 0.025794657 100
-0.80258065 1.3901167 0.077980578 100
-0.80652732 1.3919261 0.1305593 100
-0.7564469 1.3689656 0.17646681 16
-0.79287237 1.3916321 0.025829561 100
-0.80029875 1.3950698 0.077980578 100
-0.81508702 1.4019156 0.13160518 100
-0.76505142 1.3787534 0.17792924 11
-0.81073445 1.4053885 0.026213514 100
-0.80907661 1.4046144 0.07860861 100
-0.80576295 1.4030671 0.13090792 100
-0.77741486 1.3898301 0.17987914 8
-0.79573506 1.4044027 0.025969181 100
-0.81216127 1.4121463 0.078922622 100
-0.80163139 1.4071823 0.13073361 100
-0.76436073 1.3896123 0.17841671 3
-0.7809822 1.4028511 0.025724847 100
-0.80822057 1.4158022 0.078817949 100
-0.80131024 1.4125166 0.13090792 100
-0.78766769 1.4120517 0.025899371 100
-0.80404383 1.4199119 0.078713275 100
-0.80613106 1.4209137 0.13160518 100
-0.79633063 1.4217116 0.0261088 100
-0.80008358 1.4235282 0.07860861 100
-0.81113845 1.4288795 0.13230242 100
-0.80471319 1.4319088 0.02631823 100
-0.80306274 1.4311025 0.078922622 100
-0.80155379 1.4303653 0.13160518 100
-0.79174811 1.4310948 0.0261088 100
-0.80086297 1.4355857 0.078922622 100
-0.79578215 1.4330823 0.13125655 100
-0.78943223 1.4357743 0.0261088 100
-0.80389696 1.4429641 0.079236634 100
-0.8077324 1.4448705 0.13265105 100
-0.79079252 1.4420044 0.02617861 100
-0.80522889 1.4492399 0.07944598 100
-0.81261176 1.4529402 0.13334829 100
-0.79557699 1.4502895 0.02631823 100
-0.79572004 1.4503617 0.079027295 100
-0.81377572 1.4594903 0.13369691 100
-0.80400318 1.4601967 0.026527658 100
-0.804133 1.4602629 0.079655327 100
-0.8079316 1.4621992 0.13334829 100
-0.79091531 1.4594327 0.02631823 100
-0.80349153 1.4658988 0.07976 100
-0.80019146 1.464202 0.13282534 100
-0.78507096 1.4620351 0.02624842 100
-0.81004232 1.4749789 0.080283359 100
-0.81026405 1.4750938 0.13404553 100
-0.78949112 1.4708645 0.026388038 100
-0.79670745 1.4746404 0.079655327 100
-0.81284267 1.4830828 0.13456847 100
-0.79069716 1.4771684 0.026457848 96
-0.78906363 1.4763069 0.079341307 100
-0.81575733 1.4903867 0.13509139 99
-0.80221862 1.4895929 0.026737086 22
-0.78999227 1.4830866 0.079550654 21
-0.80079585 1.4888358 0.13387123 49
0.12571576 1.2954458 0.13127659 5
0.17599899 1.2364957 0.010436539 13
0.13772586 1.2842343 0.03454173 27
0.14870122 1.2705445 0.056128297 24
0.13730031 1.284765 0.10449822 11
0.15334144 1.2647568 0.12326261 18
0.18674806 1.2230883 0.13407083 7
0.13914323 1.2824664 0.17599694 6
0.15770346 1.2628311 0.010995016 64
0.16937622 1.2481669 0.032029606 60
0.1541734 1.2672658 0.055605363 49
0.15438682 1.2669977 0.077996381 14
0.1538626 1.2676563 0.10074379 11
0.15384817 1.2676744 0.12364423 79
0.1944001 1.2167301 0.13182132 15
0.14574713 1.2778516 0.1739264 14
0.161906 1.2610598 0.010925206 100
0.17352447 1.2463588 0.03182026 100
0.14726388 1.2795866 0.056825545 95
0.15612409 1.2683756 0.077996381 43
0.18009889 1.23804 0.094486415 39
0.16289175 1.2598125 0.12135452 100
0.19716999 1.2164398 0.13137141 39
0.15470943 1.2701657 0.17082056 43
0.16353655 1.262344 0.010925206 100
0.16894019 1.2554599 0.032343622 100
0.16125792 1.2652469 0.055082429 100
0.15777892 1.2696791 0.077996381 14
0.18165302 1.2392641 0.094486415 26
0.16451815 1.2610935 0.12135452 100
0.18902642 1.2298706 0.13497064 38
0.15756303 1.2699541 0.17030293 43
0.16525748 1.26369 0.010925206 100
0.17309251 1.2536364 0.032134276 90
0.16053957 1.2697439 0.055431053 99
0.17294806 1.2538217 0.075315252 30
0.17357922 1.2530118 0.096989371 25
0.17830282 1.2469506 0.11753834 100
0.18105075 1.2434245 0.13856985 36
0.15218553 1.2804635 0.17340876 42
0.17065424 1.2602853 0.010820492 78
0.1723386 1.2581084 0.032343622 60
0.15740949 1.2774035 0.056128297 72
0.18071303 1.2472849 0.07409656 30
0.17164108 1.2590098 0.097927973 24
0.18357414 1.243587 0.11639348 26
0.17555046 1.2539572 0.14126927 21
0.14805892 1.2894886 0.17599694 34
0.17114979 1.2631923 0.010855397 78
0.18742824 1.2420008 0.03119223 31
0.16525164 1.2708707 0.055256739 49
0.18842766 1.2406998 0.072877869 47
0.18177384 1.2493618 0.095737889 51
0.18762144 1.2417493 0.11563025 13
0.19386187 1.2336254 0.13497064 22
0.15693575 1.2816963 0.17289113 64
0.16811058 1.2709386 0.010995016 38
0.17705196 1.25921 0.032238949 30
0.16829792 1.2706929 0.055082429 50
0.18895179 1.2436005 0.073121607 78
0.19431168 1.2365696 0.092922069 53
0.19292367 1.2383904 0.1144854 13
0.20501515 1.2225295 0.13137141 47
0.16701236 1.2723792 0.16926765 66
0.17468867 1.2658906 0.010855397 52
0.15224487 1.2955451 0.03454173 27
0.17605987 1.2640789 0.054210871 51
0.17503348 1.265435 0.076290213 89
0.19832671 1.2346582 0.092296332 53
0.19100645 1.2443303 0.11563025 20
0.20424482 1.2268388 0.13227122 47
0.17926094 1.2598494 0.16460891 69
0.17633516 1.2671325 0.010855397 39
0.17319033 1.2713165 0.032866981 29
0.17889747 1.2637236 0.054036561 51
0.18979838 1.2492207 0.073609084 77
0.20699081 1.2263474 0.090419121 55
0.19376096 1.2439488 0.11524864 13
0.20224902 1.2326561 0.13362093 38
0.18320885 1.2579876 0.16357364 69
0.19003183 1.252407 0.010506349 68
0.17972034 1.2662258 0.032448292 29
0.17824006 1.2682096 0.054385185 51
0.19384772 1.2472932 0.073121607 78
0.19795358 1.2417908 0.093234941 53
0.2012881 1.2373221 0.11334054 13
0.20386609 1.2338672 0.13362093 38
0.18260381 1.2623615 0.16460891 69
0.19180235 1.2537231 0.010506349 81
0.18986163 1.256344 0.031715591 61
0.17888293 1.2711699 0.054559495 76
0.20032483 1.2422141 0.072146654 79
0.20086068 1.2414904 0.092922069 66
0.21351832 1.2243971 0.10990598 14
0.21716559 1.2194717 0.1291219 32
0.18785983 1.2590473 0.163056 78
0.19230863 1.2565817 0.010541254 81
0.2175867 1.2221949 0.029412808 67
0.18063459 1.2724624 0.054559495 76
0.19962376 1.2466307 0.072634131 78
0.20484865 1.2395231 0.092296332 93
0.20347825 1.2413872 0.11372216 13
0.22797039 1.2080696 0.12552269 24
0.18613645 1.2649779 0.16460891 69
0.18693665 1.2675192 0.010750682 92
0.2026844 1.2459395 0.030878214 63
0.1894376 1.2640921 0.053513627 100
0.1919283 1.260679 0.074584037 61
0.21231189 1.2327466 0.090731993 95
0.20859769 1.2378364 0.1125773 13
0.22490656 1.2154877 0.1273223 16
0.18900526 1.2646846 0.16409127 69
0.19571432 1.2590669 0.010541254 95
0.20903468 1.2406791 0.030459527 65
0.19583988 1.2588936 0.05281638 100
0.18898502 1.2683563 0.07555899 60
0.20813492 1.2419212 0.092296332 100
0.21253633 1.2358453 0.11181407 14
0.23789597 1.2008381 0.12282328 8
0.2009342 1.2518613 0.15943253 81
0.20192465 1.2536852 0.010401634 97
0.20351535 1.2514747 0.031087559 63
0.19272244 1.2664726 0.053513627 100
0.19866899 1.2582092 0.073852822 100
0.20731151 1.2461996 0.092922069 100
0.21744177 1.2321227 0.11066922 14
0.23925102 1.2018166 0.12282328 17
0.19567928 1.2623638 0.16253836 70
0.1989657 1.2614059 0.010541254 81
0.2144857 1.2396798 0.030250182 98
0.18982515 1.2742016 0.054210871 100
0.21768346 1.2352033 0.07019674 82
0.21012408 1.2457855 0.092609204 93
0.21449217 1.2396708 0.11219569 21
0.23622924 1.2092414 0.12462288 16
0.19290838 1.2698854 0.16460891 69
0.1983698 1.2658907 0.010611063 81
0.21959305 1.2359604 0.029936166 99
0.19389224 1.2722052 0.053862248 100
0.21012348 1.2493149 0.072146654 79
0.21178696 1.246969 0.092609204 100
0.20704886 1.2536509 0.11524864 27
0.23438278 1.2151029 0.12597258 16
0.19577292 1.2695529 0.16409127 69
0.20010293 1.2671151 0.010611063 94
0.21547371 1.2452772 0.030459527 97
0.19564745 1.2734452 0.053862248 100
0.20494324 1.2602382 0.073609084 93
0.22482374 1.2319931 0.089480512 97
0.19291916 1.2773213 0.12059128 70
0.23481676 1.2177956 0.12642249 33
0.2041904 1.2613078 0.16098544 72
0.20871189 1.258498 0.010401634 83
0.22399795 1.2366184 0.029831495 66
0.20197126 1.268146 0.053165004 100
0.2077935 1.2598124 0.073365346 46
0.22417572 1.236364 0.090106249 100
0.20706055 1.2608615 0.11639348 100
0.21964058 1.2428553 0.13317102 69
0.20812032 1.2593447 0.15995017 72
0.21725634 1.2498268 0.010192205 85
0.21879989 1.2476009 0.030459527 97
0.20371222 1.2693578 0.053165004 100
0.21968624 1.2463228 0.071171694 81
0.21567452 1.2521079 0.092922069 100
0.22220126 1.242696 0.11181407 98
0.22018269 1.2456069 0.13362093 93
0.21203226 1.2573601 0.15891489 73
0.21213055 1.2608685 0.010401634 83
0.22046903 1.2487541 0.030459527 65
0.20093882 1.2771283 0.053862248 100
0.228104 1.2376618 0.069709264 83
0.22183946 1.2467632 0.091670595 100
0.22385326 1.2438374 0.11181407 84
0.22736937 1.2387291 0.13137141 94
0.21044955 1.2633108 0.1604678 72
0.20707783 1.2719519 0.010611063 94
0.23340881 1.2334101 0.029412808 67
0.20608291 1.2734083 0.053339314 78
0.22301963 1.2486172 0.071171694 81
0.23019156 1.2381194 0.089793384 100
0.21997187 1.2530783 0.11372216 100
0.23560324 1.2301979 0.128672 97
0.20672479 1.2724688 0.163056 78
0.21668792 1.2615603 0.010366729 69
0.22830296 1.2444308 0.03004084 66
0.21678752 1.2614135 0.051944822 100
0.22023603 1.2563276 0.072146654 63
0.23182753 1.2392328 0.089793384 100
0.22716922 1.2461028 0.11181407 91
0.23611787 1.2329055 0.1291219 96
0.21932271 1.2576746 0.15787962 73
0.22063878 1.2594028 0.010296919 42
0.23442146 1.2389228 0.029622151 33
0.21071813 1.2741441 0.053165004 52
0.2241523 1.254182 0.071659178 80
0.23236451 1.2419794 0.090106249 96
0.23102534 1.2439692 0.11105084 98
0.23555955 1.2372317 0.13002171 96
0.22102702 1.2588259 0.15787962 73
0.22012776 1.2638752 0.010366729 27
0.22718561 1.2533084 0.030459527 32
0.2135866 1.2736685 0.05299069 52
0.23687011 1.2388091 0.069221787 83
0.22962525 1.2496558 0.09135773 94
0.24031484 1.2336518 0.10837951 87
0.23286292 1.2448086 0.13182132 94
0.21844336 1.2663971 0.15995017 72
0.22627318 1.2583568 0.01022711 28
0.22446054 1.2610912 0.030878214 31
0.22305259 1.2632152 0.051770512 54
0.23631486 1.2432084 0.069709264 66
0.23566726 1.2441853 0.090106249 96
0.2397657 1.2380027 0.10914274 92
0.24313596 1.2329185 0.12822211 97
0.22017813 1.2675514 0.15995017 72
0.22248462 1.2678368 0.010401634 27
0.21519971 1.2789102 0.031924933 30
0.21820605 1.2743404 0.05281638 53
0.23360449 1.2509341 0.070684217 81
0.24275279 1.2370284 0.08854191 84
0.23384809 1.2505639 0.11181407 84
0.24582475 1.2323588 0.1277722 97
0.22085515 1.2703136 0.1604678 72
0.22422439 1.2689769 0.010401634 27
0.21261066 1.2867652 0.032343622 30
0.22759303 1.2638173 0.051596198 54
0.24071133 1.2437246 0.069465525 99
0.24654472 1.2347898 0.087916173 100
0.23338094 1.2549522 0.1125773 82
0.24530983 1.2366812 0.128672 97
0.2247158 1.2682242 0.15943253 73
0.2291438 1.2650204 0.010296919 42
0.22736207 1.2677693 0.031087559 31
0.23465076 1.2565242 0.05072464 56
0.24120423 1.2464135 0.069709264 66
0.24593884 1.2391088 0.08854191 84
0.24353346 1.2428199 0.10952436 85
0.24367929 1.242595 0.13002171 96
0.23372501 1.2579525 0.15580906 75
0.24818224 1.2392282 0.0097384425 45
0.24422809 1.2453756 0.029622151 33
0.22772831 1.2710274 0.052119136 54
0.24609077 1.2424798 0.068978049 67
0.24650955 1.2418287 0.088854775 98
0.2441237 1.245538 0.10990598 100
0.24849346 1.2387444 0.128672 97
0.23229495 1.2639278 0.15736198 74
0.24336654 1.2503924 0.0099478718 73
0.2480385 1.2430731 0.029412808 67
0.23483905 1.2637522 0.051247578 55
0.24667382 1.2452111 0.069221787 67
0.24709558 1.2445503 0.089167647 70
0.24895442 1.2416382 0.10876112 79
0.253277 1.2348661 0.1273223 89
0.23298162 1.2666622 0.15787962 73
0.24076521 1.2582172 0.010087491 71
0.24969169 1.2441242 0.029412808 67
0.22910175 1.2766314 0.052467756 80
0.24514785 1.251298 0.069953002 49
0.25509593 1.235592 0.087290429 71
0.24324894 1.2542959 0.11143246 91
0.25802976 1.2309601 0.12597258 99
0.22644752 1.2808219 0.16202073 63
0.24247131 1.2592937 0.010087491 71
0.25028571 1.2468606 0.029517479 100
0.23723352 1.2676272 0.051421888 82
0.24894246 1.2489978 0.069465525 49
0.25672296 1.2366186 0.087290429 57
0.24807549 1.2503772 0.1102876 71
0.25341859 1.241876 0.128672 97
0.24056873 1.2623208 0.15580906 67
0.2505303 1.2501836 0.0098780617 73
0.25195208 1.2479038 0.029517479 100
0.24108115 1.2653348 0.051073264 83
0.24851537 1.2534145 0.069953002 49
0.25835353 1.2376394 0.087290429 85
0.2455985 1.2580914 0.11181407 98
0.2591925 1.2362943 0.12687239 90
0.2463783 1.2568412 0.15373851 68
0.25326055 1.2495255 0.0098431576 88
0.25362208 1.2489414 0.029517479 100
0.24176365 1.2681044 0.051247578 82
0.24289253 1.2662802 0.071659178 32
0.25998768 1.2386546 0.087290429 57
0.25970122 1.2391176 0.10723466 81
0.26082194 1.2373066 0.12687239 90
0.23791388 1.2743256 0.15891489 65
0.25912154 1.243742 0.0097035384 90
0.25425068 1.251675 0.029622151 100
0.24558923 1.2657815 0.050898954 83
0.2622844 1.2385908 0.067515619 51
0.25955817 1.2430309 0.087916173 56
0.25517696 1.2501664 0.10952436 85
0.26653355 1.2316704 0.12507279 83
0.24574116 1.2655342 0.15580906 67
0.25236875 1.2583646 0.0099827768 87
0.25273138 1.2577696 0.029936166 99
0.2430875 1.2735937 0.051596198 82
0.26177374 1.2429326 0.068003096 51
0.26524043 1.2372442 0.086664692 57
0.25472748 1.2544943 0.1102876 78
0.27110851 1.2276157 0.12372308 92
0.2413539 1.2764382 0.15891489 65
0.24786708 1.2696676 0.010192205 85
0.25753614 1.2536769 0.029622151 100
0.24794 1.269547 0.051073264 100
0.26137206 1.2473332 0.068490572 50
0.26891738 1.2348547 0.086038955 72
0.25540462 1.2572021 0.11066922 85
0.27270758 1.2285864 0.12372308 92
0.25407529 1.2594006 -0.0099827768 86
0.24912116 1.2675936 0.15580906 67
0.25578541 1.2604306 0.0099827768 100
0.26230869 1.2495568 0.029308135 100
0.25788531 1.2569301 0.049678773 86
0.26304001 1.2483377 0.068490572 50
0.27257419 1.2324451 0.085413218 58
0.26417691 1.2464427 0.10799789 87
0.27230504 1.2328937 0.12462288 92
0.25881049 1.255388 0.15166797 69
0.26363552 1.2511443 0.0097733475 89
0.25989845 1.2574232 0.029726824 100
0.26060578 1.2562348 0.049504463 100
0.26471147 1.2493365 0.068490572 50
0.2721695 1.2368057 0.086038955 58
0.27186629 1.2373151 0.10570818 81
0.27292585 1.2355349 0.12507279 83
0.25853053 1.2597216 0.15270324 68
0.26430005 1.2538629 0.0098082526 74
0.26769459 1.2481139 0.029098792 100
0.24812266 1.281261 0.051944822 81
0.27748871 1.2315265 0.065809444 35
0.26978323 1.2445766 0.087290429 85
0.26751003 1.2484264 0.10799789 79
0.28049746 1.2264309 0.12237337 68
0.25631282 1.26739 0.15477379 67
0.26396936 1.2583082 0.0098780617 73
0.27744105 1.2353095 0.028261416 100
0.25393721 1.275435 0.051247578 82
0.26605815 1.2547423 0.068978049 50
0.27443677 1.2404383 0.086351827 58
0.26521263 1.2561858 0.10952436 78
0.28406227 1.2240058 0.12147357 77
0.25512159 1.2734129 0.1563267 57
0.26266158 1.2644906 0.0099827768 87
0.26903239 1.2535268 0.029308135 100
0.25970733 1.2695746 0.05055033 84
0.26775193 1.2557304 0.068978049 50
0.27905795 1.2362735 0.085413218 58
0.26691145 1.2571769 0.10952436 78
0.28662774 1.2232463 0.12102367 86
0.26768497 1.2558457 -0.0098082526 88
0.26367477 1.2627469 0.15270324 76
0.27038124 1.2550957 0.0097733475 89
0.26872706 1.2579654 0.029517479 100
0.27140287 1.2533233 0.048807215 88
0.26944917 1.2567127 0.068978049 50
0.28561968 1.2286594 0.083848871 59
0.26959419 1.2564611 0.10914274 92
0.28529188 1.229228 0.12237337 76
0.26538807 1.2637581 -0.0099478718 86
0.26539654 1.2637434 0.15270324 68
0.27803177 1.245653 0.0095639192 91
0.27142349 1.2572104 0.029412808 100
0.26715791 1.2646706 0.049853086 85
0.27509117 1.2507958 0.068003096 51
0.28526127 1.2330091 0.084474608 59
0.28201342 1.2386894 0.10494494 82
0.28302735 1.2369161 0.12417299 83
0.26903957 1.2613797 0.15166797 69
0.28068027 1.2448601 0.0095290141 92
0.27706712 1.2512307 0.028994121 100
0.26495469 1.2725871 0.05055033 84
0.28460565 1.2379389 0.066053182 52
0.28298101 1.2408035 0.08572609 58
0.27783984 1.2498683 0.10723466 88
0.29331124 1.2225894 0.12012386 77
0.27075651 1.2623575 0.15166797 69
0.27637199 1.2562065 0.0097384425 75
0.27670535 1.2556143 0.029203463 100
0.26173708 1.2822111 0.051421888 82
0.27642301 1.2561159 0.068490572 50
0.28357491 1.2434077 0.086038955 58
0.276544 1.2559009 0.10837951 94
0.29576924 1.2217398 0.11967396 87
0.26481098 1.2767491 0.15580906 67
0.27514684 1.2623971 0.0098431576 88
0.28034908 1.2530773 0.028994121 100
0.27420884 1.2640774 0.049504463 86
0.27328384 1.2657346 0.069709264 83
0.29389426 1.2288113 0.083223134 60
0.28494006 1.2448525 0.10570818 73
0.28974909 1.2362373 0.12327318 93
0.28002015 1.2536666 -0.0096686333 89
0.27411431 1.2642468 0.15166797 69
0.28074154 1.2563555 0.0097035384 90
0.28203696 1.2540157 0.028994121 100
0.28076026 1.2563217 0.048632905 88
0.28559229 1.2475938 0.067028143 51
0.29262704 1.234887 0.084161744 74
0.28659922 1.245775 0.10570818 81
0.29420978 1.2320281 0.12192347 85
0.27589875 1.2651029 -0.0098780617 87
0.2833268 1.2516859 0.14752686 79
0.28725308 1.2485282 0.0095290141 76
0.27988306 1.261951 0.029412808 100
0.27862379 1.2642443 0.049330149 87
0.28343934 1.255474 0.068003096 51
0.29139915 1.2409772 0.085100345 58
0.29015139 1.2432497 0.10494494 82
0.29394826 1.2363346 0.12282328 85
0.28036088 1.2610806 0.15011504 78
0.28900874 1.249488 0.0095290141 76
0.28741702 1.2524123 0.028784776 100
0.27662703 1.2722354 0.050027397 85
0.2890166 1.2494736 0.067028143 51
0.29123834 1.2453918 0.08572609 58
0.28907192 1.249372 0.1060898 88
0.27939186 1.2671559 0.15166797 77
0.28308505 1.2644737 0.0098082526 74
0.28720513 1.2568409 0.028994121 100
0.27648902 1.2766931 0.05037602 84
0.29069188 1.2503816 0.067028143 69
0.29383767 1.2445539 0.085413218 58
0.286084 1.2589179 0.10799789 79
0.28112891 1.2680975 0.15166797 69
0.28841719 1.2582591 0.0096686333 75
0.29062226 1.2541431 0.028784776 100
0.28466842 1.2652564 0.049155839 87
0.29220232 1.2511939 0.067028143 51
0.28483987 1.2649363 0.10914274 78
0.28558415 1.2635471 -0.0097733475 99
0.28908119 1.2570196 0.1480445 79
0.28927061 1.2609806 0.0097035384 90
0.28865156 1.2621465 0.029203463 100
0.28928876 1.2609465 0.048632905 88
0.2827954 1.2731742 0.069953002 49
0.29707375 1.2462865 0.085413218 58
0.29770511 1.2450976 0.10456333 82
0.286457 1.266279 -0.0098082526 88
0.29902247 1.2426169 0.14338575 74
0.29666027 1.2513157 0.0094941091 92
0.29603869 1.2524967 0.028575432 100
0.29572988 1.2530833 0.047761347 90
0.29203817 1.2600971 0.068003096 51
0.29944813 1.2460191 0.10456333 75
0.293558 1.2572098 0.14752686 79
0.29565138 1.2575599 0.0095988233 76
0.29411373 1.2605073 0.028994121 100
0.29473761 1.2593114 0.048284281 88
0.29355839 1.2615719 0.14856213 71
0.2917833 1.2690028 0.049155839 87
0.29729056 1.2583601 0.067515619 51
0.28991744 1.2726086 -0.0098780617 97
0.29163855 1.2692826 0.15063268 70
0.29449883 1.2682204 0.0097733475 89
0.2993671 1.2587276 0.028784776 100
0.28993633 1.2771173 -0.0099478718 100
0.29523334 1.2667882 0.14959741 70
0.29800618 1.2654204 0.068246834 68
0.29252601 1.2761945 -0.0099129668 100
0.29870775 1.2685547 0.14959741 78
0.29964268 1.2708249 0.0097733475 100
0.29949859 1.2711133 0.15011504 78
0.29881728 1.277115 -0.0098780617 100
