# .PCD v0.7 - Point Cloud Data file format
VERSION 0.7
FIELDS x y z intensity
SIZE 4 4 4 4
TYPE F F F F
COUNT 1 1 1 1
WIDTH 722
HEIGHT 1
VIEWPOINT 0 0 0 1 0 0 0
POINTS 722
DATA ascii
0.057739317 0.0084980726 0.047521047 58
0.05290392 0.0068739653 0.047730394 43
0.042990446 0.0086202621 0.047939736 82
0.036863983 0.0055086613 0.048253752 70
0.03545028 0.0088691115 0.048149079 26
0.034781396 0.014151096 0.047939736 18
0.028886557 0.010924041 0.048253752 17
0.02182883 0.0060849786 0.048672438 8
0.017015874 0.0045625567 0.048881784 7
0.016375899 0.0098839998 0.048672438 8
-1.037817 1.1284125 0.085307606 3
-1.0443389 1.1357381 0.028552137 6
-1.0093026 1.1277008 0.083842203 7
-1.0229783 1.130838 0.1411923 6
-1.0158513 1.1346731 0.028063469 10
-1.0042174 1.1319637 0.083632857 37
-1.0198326 1.1356003 0.14101799 40
-0.99121696 1.1346123 0.027644612 30
-0.98933917 1.134168 0.082900152 91
-1.0204856 1.1415365 0.1411923 91
-0.98987025 1.1402587 0.027644612 41
-0.98799413 1.1398076 0.082900152 100
-1.0113647 1.145427 0.14049506 86
-0.990511 1.1461058 0.027679516 38
-0.98087305 1.1437528 0.082586139 100
-1.0023026 1.1489847 0.13979781 84
-0.97747689 1.1488612 0.027470088 22
-0.98337001 1.1503228 0.082795486 95
-0.99510163 1.1532327 0.13927488 89
-0.97032756 1.1527262 0.027365373 26
-0.98590666 1.1566482 0.083004825 45
-0.99182242 1.1581373 0.13910057 82
-0.96911758 1.1575006 0.027365373 44
-0.97694331 1.1594968 0.082586139 36
-0.99445659 1.1639642 0.13944919 80
-0.96581978 1.1622999 0.027330469 59
-0.97557431 1.1648245 0.082586139 70
-0.98921436 1.1683545 0.13910057 91
-0.97411197 1.1701276 0.027504992 62
-0.96839148 1.1686258 0.08227212 98
-0.9762519 1.1706893 0.1380547 92
-0.95338231 1.1703 0.027155945 81
-0.95734066 1.1713541 0.081748761 94
-0.96329206 1.1729387 0.13700883 100
-0.94811469 1.1745028 0.027086135 93
-0.96364337 1.1786957 0.082167454 94
-0.96572334 1.1792574 0.13735744 100
-0.95055109 1.1807858 0.027155945 93
-0.94679648 1.179758 0.081330076 100
-0.96812886 1.1855979 0.13770607 99
-0.94910806 1.1860212 0.027155945 93
-0.93573445 1.1823099 0.080806717 100
-0.97050864 1.1919601 0.1380547 91
-0.95149666 1.1923344 0.027225753 92
-0.93813139 1.1885751 0.081016064 88
-0.95368272 1.1929493 0.1366602 99
-0.942321 1.1953804 0.027086135 67
-0.938582 1.1943146 0.081120729 76
-0.94261688 1.1954647 0.13578865 100
-0.96003872 1.2061357 0.027435184 46
-0.94476718 1.201725 0.081539422 36
-0.94877928 1.2028837 0.13648589 94
-0.92588037 1.2018572 0.026841801 50
-0.92024845 1.2002093 0.080283359 24
-0.95682007 1.2109106 0.13735744 84
-0.9281984 1.208143 0.026911611 71
-0.91873783 1.2053387 0.080283359 26
-0.94954115 1.214469 0.13683452 85
-0.93056804 1.2141917 0.026981421 75
-0.92493814 1.2125026 0.080702044 32
-0.93470043 1.2154315 0.13561434 99
-0.91561514 1.2152879 0.026737086 78
-0.92529553 1.2182291 0.080806717 88
-0.92169851 1.2171361 0.13456847 99
-0.9064067 1.2180492 0.026597468 88
-0.91990405 1.2222015 0.080597371 98
-0.92203301 1.2228565 0.13474278 98
-0.90483385 1.2231302 0.026597468 85
-0.9049682 1.2231722 0.079864666 87
-0.92805237 1.2303621 0.13544002 71
-0.90705758 1.2294085 0.026667276 88
-0.90718716 1.2294493 0.080074012 66
-0.92643636 1.2355186 0.13544002 47
-0.91306514 1.2369237 0.026806897 79
-0.8979637 1.2321041 0.079655327 82
-0.90771979 1.2352177 0.13387123 43
-0.89810604 1.2377255 0.026562562 83
-0.89824241 1.2377695 0.07976 95
-0.90419108 1.2396909 0.13369691 45
-0.88315946 1.2384287 0.02631823 93
-0.90229601 1.2446835 0.080074012 100
-0.91769308 1.249716 0.13509139 63
-0.87771839 1.2421727 0.02624842 100
-0.88925272 1.2459873 0.07944598 100
-0.91790122 1.2554619 0.13526571 80
-0.88364702 1.2496915 0.026388038 99
-0.88000625 1.2484734 0.079027295 100
-0.90863997 1.258054 0.13456847 84
-0.88575202 1.2559752 0.026457848 93
-0.8858946 1.2560235 0.07944598 100
-0.8974914 1.2599487 0.13369691 77
-0.87269562 1.2570976 0.02624842 96
-0.88607889 1.2616796 0.079550654 100
-0.8920024 1.2637078 0.13334829 100
-0.87098664 1.2620608 0.02624842 89
-0.88624126 1.267343 0.079655327 100
-0.89027017 1.2687383 0.13334829 90
-0.86548585 1.265696 0.02617861 77
-0.86376125 1.2650921 0.078503937 89
-0.90920514 1.2810063 0.13526571 56
-0.87128681 1.273304 0.02631823 81
-0.85449368 1.2673572 0.078085244 53
-0.89990002 1.2834365 0.13456847 38
-0.86575598 1.2769141 0.02624842 92
-0.85462934 1.2729301 0.078189917 19
-0.8793413 1.2817782 0.13282534 45
-0.85654563 1.2788848 0.0261088 96
-0.86234444 1.2809827 0.078713275 51
-0.86452144 1.2817705 0.13160518 22
-0.84349257 1.2796701 0.025899371 99
-0.85867637 1.2852236 0.07860861 89
-0.87208229 1.2901268 0.13247673 15
-0.84170502 1.2845311 0.025899371 100
-0.8512494 1.2880599 0.07829459 100
-0.87025803 1.2950876 0.13247673 5
-0.84739321 1.2921859 0.026038991 100
-0.82698172 1.2845584 0.077038527 81
-0.87214917 1.3014369 0.13282534 1
-0.84191221 1.2954047 0.025969181 100
-0.83087355 1.2912378 0.077352546 48
-0.866651 1.3047428 0.13247673 1
-0.83446461 1.2981219 0.025864467 75
-0.84024221 1.3003259 0.077980578 53
-0.84057564 1.3004531 0.13021068 15
-0.8287881 1.3017535 0.025794657 72
-0.84015256 1.3061365 0.078085244 63
-0.84791678 1.3091309 0.13108224 52
-0.82878679 1.3072894 0.025829561 81
-0.81966311 1.3037339 0.077038527 72
-0.8571648 1.3183477 0.1321281 100
-0.82690293 1.3120989 0.025829561 93
-0.81965011 1.3092434 0.0771432 65
-0.84782666 1.3203368 0.13143086 99
-0.82871848 1.31838 0.025899371 100
-0.82518286 1.3169737 0.077561885 89
-0.83664054 1.3215309 0.1305593 100
-0.81566268 1.318716 0.025689943 100
-0.82511848 1.3225152 0.077666558 91
-0.82361442 1.321911 0.12951343 100
-0.81003326 1.3219757 0.025620133 100
-0.82688266 1.3288141 0.077875905 95
-0.83275634 1.331198 0.1305593 100
-0.80819529 1.3264828 0.025620133 100
-0.81393319 1.3288336 0.077247873 100
-0.82166952 1.3320034 0.12968774 100
-0.80994004 1.3327496 0.025689943 100
-0.79721016 1.3274819 0.076410495 100
-0.81969935 1.3367879 0.12968774 100
-0.77066082 1.3164957 0.17549185 16
-0.80806643 1.3372562 0.025689943 100
-0.79166824 1.3304067 0.076201156 100
-0.81045848 1.3382553 0.1289905 100
-0.79082209 1.3300533 0.17841671 19
-0.79870802 1.3388846 0.025550323 100
-0.79522461 1.3374152 0.076515168 96
-0.80112356 1.3399034 0.12829325 100
-0.78520089 1.3331872 0.17792924 20
-0.78925544 1.3406883 0.025410704 89
-0.81518465 1.3517375 0.077771232 63
-0.80635732 1.347976 0.1289905 90
-0.76303941 1.3295171 0.17524812 16
-0.81297165 1.3564243 0.025899371 59
-0.80213779 1.351763 0.0771432 48
-0.82812387 1.3629436 0.13125655 26
-0.78296012 1.3435118 0.17817298 5
-0.81091636 1.3611784 0.025899371 94
-0.80193073 1.3572751 0.077247873 100
-0.8370102 1.3725135 0.13230242 61
-0.77912933 1.3473703 0.17792924 13
-0.80701309 1.3651222 0.025864467 100
-0.80901796 1.3660014 0.077771232 100
-0.82212621 1.3717501 0.13108224 100
-0.78619558 1.3559926 0.17914793 29
-0.7884708 1.3625698 0.025550323 100
-0.80875558 1.3715502 0.077875905 100
-0.79997712 1.3676639 0.12916481 100
-0.78414196 1.3606532 0.17914793 28
-0.79369694 1.3705019 0.025689943 100
-0.81211776 1.3787342 0.078189917 100
-0.80515867 1.3756242 0.12986206 100
-0.76938564 1.359637 0.17744176 22
-0.79352123 1.3757763 0.025724847 100
-0.80827099 1.3824269 0.078085244 100
-0.81040817 1.3833904 0.1305593 100
-0.77466172 1.3672729 0.17841671 21
-0.79321855 1.3812907 0.025759751 100
-0.79885346 1.3838551 0.077666558 100
-0.81007212 1.3889607 0.13073361 100
-0.77076191 1.3710709 0.17817298 19
-0.80379683 1.3918183 0.026004085 100
-0.80759221 1.3935616 0.07829459 100
-0.80971378 1.3945361 0.13090792 100
-0.77587134 1.3789918 0.17914793 12
-0.79436094 1.3931762 0.025864467 100
-0.81084353 1.4008167 0.07860861 100
-0.80210263 1.3967648 0.130385 100
-0.78274256 1.3877904 0.18036664 12
-0.7921775 1.3978651 0.025864467 100
-0.81586963 1.4089482 0.079027295 100
-0.80171126 1.4023249 0.1305593 100
-0.78237599 1.39328 0.18061037 7
-0.79540271 1.4051073 0.025969181 100
-0.80279416 1.4085965 0.078399263 100
-0.81030613 1.4121425 0.13160518 100
-0.76762635 1.3919952 0.17890419 3
-0.79509467 1.4104249 0.026004085 100
-0.79706246 1.4113618 0.078189917 100
-0.8153649 1.4200759 0.13230242 100
-0.78168732 1.4040414 0.18109785 3
-0.79465348 1.4159822 0.026038991 100
-0.79481548 1.41606 0.078189917 100
-0.80231196 1.4196614 0.13125655 100
-0.79239041 1.4206719 0.026038991 100
-0.80153841 1.4251062 0.078713275 100
-0.80003601 1.4243779 0.13125655 100
-0.79011089 1.4253538 0.026038991 100
-0.81359714 1.4368393 0.079550654 100
-0.8102724 1.4352133 0.13247673 100
-0.7914018 1.4317973 0.0261088 100
-0.79872316 1.4354093 0.078817949 100
-0.8097288 1.4408391 0.13265105 100
-0.79624432 1.4400396 0.02624842 100
-0.79639226 1.4401132 0.078817949 100
-0.8216483 1.4526834 0.13404553 100
-0.7975896 1.4462941 0.02631823 100
-0.79416269 1.4445744 0.078817949 100
-0.80513114 1.4500788 0.13265105 100
-0.79165238 1.4491875 0.02624842 100
-0.80427331 1.4555767 0.079550654 100
-0.7991938 1.4530053 0.13230242 100
-0.78927344 1.4538667 0.02624842 100
-0.80542952 1.4621165 0.07976 100
-0.80567366 1.4622411 0.13317397 100
-0.7904337 1.4603686 0.02631823 100
-0.80122977 1.465929 0.079655327 100
-0.8156479 1.4733548 0.13439415 100
-0.79511386 1.4687307 0.026457848 100
-0.7952475 1.4688001 0.07944598 100
-0.81848866 1.4808729 0.1349171 100
-0.78912395 1.4715657 0.026388038 99
-0.79810745 1.4762722 0.07976 100
-0.80540973 1.4800978 0.13387123 100
-0.79020303 1.4781042 0.026457848 89
-0.79386801 1.4800407 0.079655327 100
-0.79939955 1.4829633 0.1335226 100
-0.79338592 1.4857954 0.13317397 41
0.12968868 1.2910836 0.13013174 5
0.14999282 1.2694693 0.01116954 25
0.15048018 1.2688607 0.033495013 28
0.13401788 1.2894163 0.058220036 22
0.1375699 1.284981 0.10449822 11
0.15237331 1.2664968 0.12364423 24
0.19551253 1.212631 0.13092151 8
0.13337356 1.2902209 0.17858514 6
0.15173873 1.2708625 0.01116954 75
0.1758419 1.2405498 0.031506244 62
0.1531938 1.2690325 0.055779677 49
0.13982138 1.28585 0.080921248 27
0.1774824 1.2384866 0.094799288 25
0.16144013 1.2586617 0.12135452 87
0.18735695 1.2260681 0.13452072 23
0.1544295 1.2674785 0.17030293 21
0.16216317 1.2612629 0.010925206 100
0.17129877 1.249691 0.032029606 100
0.15617275 1.2688508 0.055605363 98
0.15761513 1.2670238 0.077752642 28
0.17789596 1.2413346 0.095112152 25
0.15949872 1.2646378 0.12249938 100
0.18412104 1.2334493 0.13632034 38
0.15018314 1.2764376 0.17289113 42
0.16511396 1.2610399 0.010890301 100
0.1655829 1.2604415 0.032657638 100
0.15177095 1.2780629 0.056476921 100
0.17649686 1.2465174 0.074340299 30
0.1795435 1.2426305 0.095112152 25
0.17333898 1.2505463 0.1186832 100
0.18574101 1.2347237 0.13632034 38
0.15314513 1.2763097 0.17237349 42
0.16305926 1.2670472 0.010995016 100
0.17825335 1.2475296 0.031715591 92
0.15835351 1.273092 0.055779677 98
0.17320144 1.254019 0.075315252 30
0.16897839 1.2594438 0.098240845 24
0.17614061 1.2502435 0.11830158 100
0.18728411 1.2359291 0.13632034 30
0.14651933 1.2882937 0.17599694 34
0.16968814 1.2620661 0.010855397 65
0.175037 1.2551454 0.032134276 60
0.16498563 1.2681503 0.055082429 50
0.1785351 1.2506194 0.074584037 30
0.17189717 1.2592078 0.097927973 24
0.18891272 1.2371924 0.13632034 22
0.14833099 1.289699 0.17599694 34
0.16897339 1.2665635 0.010925206 52
0.17308518 1.261205 0.032448292 29
0.17400417 1.2600073 0.054036561 51
0.16813055 1.2676619 0.077021427 87
0.19405019 1.2338828 0.092609204 53
0.18069756 1.2512844 0.11791996 13
0.19291836 1.2353579 0.13542053 30
0.15367562 1.2865 0.17444403 56
0.18040338 1.2551649 0.010645968 53
0.18085369 1.2545738 0.031924933 30
0.16968009 1.2692412 0.054908119 50
0.17588475 1.2610965 0.075802729 45
0.19686869 1.2335511 0.092296332 53
0.1942769 1.2369533 0.11410378 13
0.19926858 1.2304008 0.13362093 46
0.17655319 1.260219 0.16512655 68
0.1869241 1.2500724 0.010506349 54
0.15363312 1.294091 0.03443706 27
0.17743421 1.2626203 0.054036561 51
0.18358842 1.254483 0.074584037 45
0.18538174 1.2521118 0.095737889 51
0.19827756 1.2350605 0.11334054 13
0.19852683 1.2347308 0.13452072 38
0.17943195 1.2599788 0.16460891 69
0.17899683 1.2641299 0.010785587 39
0.18424562 1.2571391 0.031924933 30
0.17556721 1.2686976 0.054559495 50
0.19720069 1.2398846 0.072146654 63
0.18943894 1.2502222 0.095112152 51
0.19636673 1.2409953 0.1144854 13
0.21419194 1.2172544 0.1291219 32
0.17650488 1.2674488 0.16667947 67
0.1855042 1.2590086 0.010645968 53
0.20265886 1.2359939 0.030459527 32
0.17492887 1.2731965 0.054908119 50
0.19884306 1.2411132 0.072146654 95
0.19938117 1.2403913 0.092922069 66
0.20035955 1.2390786 0.11372216 13
0.21342596 1.2215487 0.13002171 32
0.18286166 1.2625539 0.16460891 69
0.18364498 1.2651004 0.010750682 79
0.19478348 1.2500476 0.031296901 31
0.18142813 1.2680963 0.054210871 76
0.19576657 1.248719 0.073121607 78
0.21277529 1.225733 0.089793384 83
0.20316684 1.238718 0.11334054 13
0.21384504 1.2242873 0.13047162 32
0.18458322 1.2638324 0.16460891 69
0.19247851 1.2567065 0.010541254 81
0.20473814 1.2400171 0.030564198 64
0.18670762 1.2645626 0.053687938 78
0.19743976 1.2499526 0.073121607 93
0.20969033 1.2332754 0.091044858 81
0.20712963 1.2367615 0.1125773 13
0.22350863 1.2144642 0.1273223 24
0.19431502 1.2542064 0.16098544 72
0.19889247 1.2514886 0.010401634 97
0.200497 1.2492882 0.031087559 63
0.18726227 1.2674376 0.053862248 100
0.20613492 1.2415568 0.071659178 96
0.20549014 1.2424409 0.092609204 93
0.20876104 1.2379555 0.1125773 13
0.23539579 1.2014301 0.12327318 17
0.19373089 1.2585669 0.16202073 70
0.19823018 1.2559509 0.010471444 82
0.22325265 1.2213838 0.029203463 68
0.18315944 1.2767704 0.054733805 75
0.21011105 1.2395382 0.071171694 97
0.20366645 1.248441 0.093547814 100
0.20924538 1.2407341 0.11295892 13
0.23804638 1.200947 0.12282328 17
0.19770405 1.2566777 0.16098544 72
0.19284046 1.2668571 0.010680873 93
0.22008821 1.2289517 0.029622151 100
0.1906566 1.2698951 0.053862248 100
0.19660735 1.2616168 0.074340299 100
0.21447885 1.2367551 0.091044858 100
0.21080825 1.2418615 0.11295892 13
0.23947716 1.2019792 0.12282328 8
0.18578881 1.2766669 0.16719711 67
0.19457698 1.2681007 0.010680873 93
0.20893121 1.2479844 0.030773543 96
0.19471827 1.2679027 0.053513627 100
0.20293766 1.2563839 0.073365346 100
0.22069973 1.2314916 0.089793384 100
0.20561534 1.2526313 0.11524864 20
0.24325076 1.1998879 0.12192347 17
0.20102492 1.2590644 0.16098544 72
0.20316735 1.2594869 0.010471444 96
0.21860102 1.2377052 0.03004084 66
0.20097888 1.2625755 0.05281638 100
0.20340481 1.2591518 0.073609084 77
0.21880576 1.2374164 0.090731993 95
0.21289292 1.2457612 0.11334054 34
0.23003158 1.2215734 0.1277722 24
0.20711616 1.2539139 0.15891489 81
0.20956424 1.2542114 0.010331824 98
0.21457389 1.247086 0.030564198 97
0.20278659 1.2638514 0.05281638 100
0.2166172 1.2441797 0.071171694 81
0.21711275 1.243475 0.091670595 100
0.20447648 1.2614479 0.1167751 79
0.23505127 1.2179605 0.12642249 41
0.19778109 1.2709709 0.16409127 69
0.2020143 1.2684549 0.010611063 94
0.21844438 1.2449205 0.030354854 97
0.19758314 1.2748022 0.053862248 100
0.21705514 1.2469103 0.071415432 48
0.2141616 1.2510551 0.092922069 92
0.20723191 1.2609812 0.11639348 100
0.22649878 1.2333833 0.13047162 80
0.20497358 1.2642161 0.16150309 70
0.20384356 1.269727 0.010611063 94
0.22246185 1.2428489 0.030145511 98
0.20170471 1.2728148 0.053513627 100
0.21654463 1.2513912 0.071902916 64
0.22830009 1.2344205 0.089480512 97
0.21462336 1.2541648 0.1144854 100
0.2270897 1.2361679 0.13092151 88
0.20458722 1.2686534 0.16253836 70
0.21003547 1.2642817 0.010471444 82
0.23195451 1.2324132 0.029412808 67
0.20337403 1.273967 0.053513627 100
0.21701789 1.2541299 0.072146654 79
0.22872248 1.2371123 0.089793384 100
0.2173433 1.2536567 0.11410378 96
0.22863734 1.237236 0.13092151 100
0.21171653 1.2618376 0.15995017 72
0.2186124 1.2556139 0.010262015 98
0.22464514 1.2467736 0.030250182 65
0.20746958 1.2719426 0.053165004 100
0.21655667 1.2586265 0.072634131 78
0.23043671 1.2382867 0.089793384 97
0.22243813 1.2500077 0.11295892 100
0.23364735 1.2335818 0.12957181 96
0.21352148 1.2630742 0.15995017 72
0.22807637 1.2451218 0.010017681 43
0.22398731 1.2511568 0.030459527 32
0.2158415 1.2631791 0.052119136 81
0.22597331 1.2482258 0.070927955 97
0.22977528 1.2426145 0.090419121 100
0.23504412 1.2348382 0.10914274 85
0.23190707 1.2394682 0.13092151 96
0.21515843 1.2641872 0.15995017 72
0.21866384 1.2628944 0.010366729 41
0.22352454 1.2556636 0.03066887 32
0.206536 1.2809358 0.053862248 51
0.22662079 1.2510576 0.071171694 81
0.2304076 1.2454244 0.090731993 100
0.23236883 1.2425069 0.11066922 100
0.23580426 1.2373964 0.13002171 96
0.21373868 1.270221 0.16150309 70
0.21807995 1.2673169 0.010436539 41
0.24065933 1.2334862 0.029203463 34
0.21597451 1.2704716 0.05264207 53
0.22931981 1.2504762 0.070927955 97
0.24185532 1.2316942 0.087916173 100
0.2328476 1.2451905 0.11105084 84
0.24601042 1.2254686 0.12642249 99
0.22290641 1.2600855 0.15787962 73
0.2219401 1.265081 0.010366729 27
0.21792686 1.2711375 0.031506244 31
0.22093761 1.2665939 0.052119136 54
0.23091489 1.251537 0.070927955 97
0.24447918 1.2310669 0.087603301 100
0.23117179 1.2511493 0.11219569 91
0.24106389 1.236221 0.1291219 96
0.22453338 1.2611675 0.15787962 73
0.21039513 1.2862133 0.010785587 39
0.21519971 1.2789102 0.031924933 30
0.23244146 1.252702 0.05055033 56
0.23142245 1.2542509 0.071171694 81
0.24058142 1.2403289 0.089167647 98
0.23816419 1.2440032 0.1102876 85
0.24261165 1.2372429 0.1291219 96
0.23147273 1.2541745 0.15529142 83
0.23961228 1.2455893 0.0099129668 29
0.22361669 1.2700984 0.031296901 31
0.22767925 1.2638736 0.051596198 54
0.23970908 1.245441 0.069709264 66
0.23906848 1.2464225 0.090106249 96
0.24312258 1.2402107 0.10914274 85
0.24006596 1.2448941 0.13092151 96
0.22269109 1.2715166 0.1604678 72
0.2292302 1.2650764 0.010296919 42
0.23396513 1.2577685 0.030459527 32
0.23690245 1.2532351 0.05037602 56
0.24344623 1.2431355 0.069221787 83
0.2460207 1.239162 0.08854191 84
0.23934582 1.2494639 0.11105084 84
0.25011966 1.2328355 0.1273223 89
0.224356 1.2725992 0.1604678 72
0.23761892 1.2562101 0.010087491 43
0.24879539 1.2388144 0.029203463 68
0.22799069 1.2711961 0.052119136 54
0.24419218 1.2459791 0.069465525 49
0.24995992 1.2370018 0.087916173 70
0.24331152 1.2473497 0.1102876 92
0.25505912 1.2290651 0.12597258 99
0.22419977 1.2770965 0.16150309 70
0.24138361 1.2538714 0.010017681 58
0.25035167 1.2398106 0.029203463 68
0.22965449 1.2722611 0.052119136 81
0.25004214 1.2402959 0.068490572 50
0.25363469 1.2346632 0.087290429 71
0.24700761 1.2450536 0.10952436 78
0.25448722 1.2333267 0.12687239 90
0.23523268 1.2635152 0.15684435 74
0.24529743 1.2516196 0.0099478718 87
0.24246517 1.2560962 0.030145511 98
0.23788887 1.2633296 0.051073264 83
0.24752256 1.2481024 0.069465525 66
0.2532275 1.2390851 0.087916173 84
0.2466515 1.2494792 0.1102876 78
0.2541036 1.2377002 0.1277722 97
0.23910934 1.2614006 0.15580906 67
0.24476916 1.2560141 0.010017681 72
0.24832773 1.2503479 0.029726824 100
0.23740724 1.2677364 0.051421888 82
0.2533327 1.2423786 0.068490572 50
0.25688586 1.2367209 0.087290429 57
0.25033146 1.2471573 0.10952436 85
0.25565618 1.2386789 0.1277722 89
0.23457596 1.2722447 0.15891489 65
0.2518391 1.248643 0.0098431576 88
0.25431439 1.2446694 0.029308135 100
0.23712677 1.272261 0.051770512 81
0.24771893 1.2552571 0.07019674 49
0.25442064 1.2444988 0.08854191 56
0.25415844 1.2449198 0.10876112 79
0.26458851 1.2281761 0.12462288 100
0.23233312 1.2799563 0.16098544 64
0.24711791 1.2598341 0.010052586 100
0.26009166 1.2388524 0.028889447 100
0.24298537 1.2665174 0.051073264 83
0.25037375 1.2545686 0.069953002 49
0.26430684 1.2320354 0.086038955 72
0.24437734 1.2642663 0.11295892 89
0.26713431 1.2274626 0.12417299 92
0.23605794 1.2777207 0.15995017 64
0.25188202 1.2557229 0.0099478718 73
0.2595585 1.2432156 0.029098792 100
0.24984458 1.2590424 0.050201707 100
0.24679035 1.2640187 0.071171694 65
0.26584056 1.2329803 0.086038955 58
0.25936863 1.2435249 0.10799789 72
0.27171099 1.2234156 0.12282328 85
0.24380657 1.2688801 0.15684435 66
0.25869623 1.24817 0.0097733475 89
0.25385562 1.2561158 0.029831495 100
0.25354111 1.2566321 0.049853086 85
0.25256133 1.2582403 0.07019674 99
0.26121113 1.2440419 0.087916173 70
0.25583345 1.2528692 0.10990598 85
0.27017453 1.2293286 0.12417299 83
0.2494829 1.2632935 0.15477379 67
0.25838256 1.2526577 0.0098431576 88
0.25667214 1.2554885 0.029726824 100
0.25017506 1.2662419 0.05072464 84
0.26051214 1.2491329 0.068734311 33
0.26499355 1.2417157 0.087290429 71
0.25963575 1.2505834 0.10914274 78
0.26379791 1.2436947 0.1277722 89
0.24729684 1.2710056 0.15684435 66
0.26212537 1.2502422 0.0097733475 89
0.26555672 1.244518 0.028994121 100
0.24064106 1.2860832 0.05264207 79
0.25912455 1.2552483 0.069465525 49
0.26968876 1.2376248 0.086351827 58
0.26333383 1.2482263 0.10837951 79
0.27647433 1.2263049 0.12282328 85
0.24904752 1.2720592 0.15684435 66
0.25571284 1.2650454 0.010052586 86
0.27138016 1.2386901 0.028575432 100
0.25067943 1.2735126 0.051247578 82
0.26699123 1.2460731 0.068003096 51
0.26938576 1.242045 0.086977564 57
0.26107571 1.2560241 0.10990598 85
0.28213179 1.2206039 0.12102367 86
0.24891534 1.27648 0.15787962 65
0.25947431 1.2626247 0.0099827768 100
0.26794496 1.2482617 0.029098792 100
0.26154786 1.2591088 0.049678773 86
0.26260433 1.2573174 0.069465525 49
0.27605256 1.2345141 0.085413218 73
0.25579283 1.2688673 0.1125773 82
0.28172642 1.2248933 0.12192347 85
0.25657329 1.2675438 0.15477379 67
0.26717016 1.2532306 0.0097733475 89
0.26650587 1.2543654 0.029412808 100
0.26417783 1.2583431 0.049504463 86
0.26622736 1.2548413 0.068978049 50
0.2795901 1.2320104 0.084787481 59
0.27232423 1.2444245 0.10685304 66
0.27634582 1.2375534 0.12507279 100
0.25627315 1.2718487 0.15580906 67
0.2668505 1.2576735 0.0098431576 88
0.26920119 1.2536249 0.029308135 100
0.26188257 1.2662299 0.050201707 85
0.26592803 1.2592623 0.069465525 49
0.277237 1.2397847 0.086038955 58
0.27496776 1.243693 0.10647142 81
0.27993652 1.2351352 0.12417299 83
0.26772684 1.2561642 0.15063268 70
0.27562395 1.246577 0.0095988233 76
0.27595821 1.2459964 0.028784776 100
0.25773877 1.2776426 0.051247578 82
0.27762762 1.2430967 0.067028143 51
0.27896068 1.2407812 0.086038955 58
0.26984894 1.2566079 0.10914274 92
0.28358775 1.2327442 0.12327318 76
0.26179957 1.2705892 0.15477379 67
0.26638073 1.266633 0.0099827768 87
0.27762142 1.24695 0.028784776 100
0.26148865 1.2751994 0.050898954 83
0.27140522 1.2578349 0.068978049 50
0.28746298 1.2297169 0.083848871 59
0.27641723 1.2490586 0.10723466 73
0.28907028 1.2269025 0.12147357 86
0.2635487 1.2715921 0.15477379 67
0.27295876 1.258872 0.0098082526 74
0.27920455 1.2478507 0.028784776 100
0.26414785 1.27442 0.05072464 84
0.27106705 1.2622102 0.069465525 49
0.29093674 1.2271478 0.083223134 60
0.27026379 1.2636276 0.1102876 99
0.28866529 1.2311561 0.12237337 85
0.27295876 1.258872 -0.0098082526 88
0.27283332 1.2590934 0.15063268 70
0.27760643 1.2546066 0.0097035384 90
0.28087422 1.248793 0.028784776 100
0.27567288 1.2580465 0.048981529 87
0.27375954 1.2614504 0.069221787 50
0.28769448 1.2366593 0.084787481 73
0.28257033 1.2457755 0.1060898 73
0.28932175 1.2337642 0.12282328 85
0.27454227 1.2600579 0.15063268 70
0.28611588 1.2433283 0.009459204 93
0.27865693 1.2567074 0.029203463 100
0.26864648 1.2746631 0.05055033 84
0.28224313 1.2502748 0.067515619 51
0.28836313 1.2392974 0.085100345 58
0.28423274 1.246706 0.1060898 88
0.29284003 1.2312672 0.12192347 93
0.27625456 1.2610165 0.15063268 70
0.28196386 1.2547464 0.0096686333 75
0.28422335 1.2506602 0.028784776 100
0.27523032 1.2669241 0.049678773 86
0.28584239 1.2477322 0.067028143 51
0.29191461 1.2367504 0.084474608 59
0.28209832 1.2545033 0.10761628 79
0.29822364 1.2253404 0.12012386 86
0.27049172 1.275494 0.15477379 67
0.28173453 1.2591858 0.0097384425 75
0.28686315 1.2498337 0.028680105 100
0.26738647 1.2853497 0.051421888 82
0.2856026 1.2521324 0.067515619 51
0.29354545 1.2376485 0.084474608 59
0.2875672 1.2485498 0.1060898 81
0.2988776 1.2279252 0.12057377 77
0.27040011 1.2798543 0.15580906 67
0.28153294 1.2636327 0.0098082526 89
0.29712778 1.2349583 0.027738057 100
0.27775428 1.2705805 0.049853086 85
0.28444189 1.258284 0.068246834 100
0.29612318 1.2368054 0.084161744 59
0.28548732 1.2563617 0.10761628 79
0.29954654 1.230511 0.12102367 86
0.28153294 1.2636327 -0.0098082526 88
0.28141138 1.2638562 0.15063268 78
0.29085177 1.2504866 0.0095290141 92
0.2892713 1.253417 0.028784776 100
0.2880154 1.2557455 0.048284281 88
0.28709027 1.2574608 0.068003096 51
0.2986919 1.2359502 0.083848871 59
0.29184645 1.2486423 0.10570818 81
0.28497103 1.2613901 0.14959741 70
0.29253057 1.2513883 0.0095290141 76
0.28907639 1.2578465 0.028994121 100
0.29347125 1.2496295 0.047587037 90
0.28879341 1.2583755 0.068003096 51
0.29444471 1.2478094 0.10532656 75
0.28498566 1.2654948 -0.0098082526 88
0.29033235 1.2554982 0.14752686 71
0.29046467 1.2593505 0.0096686333 60
0.29920316 1.2428741 0.028052073 100
0.28674528 1.2663634 0.049155839 58
0.29422021 1.2522695 0.067028143 51
0.29732317 1.246419 0.085413218 58
0.29611415 1.2486985 0.10532656 75
0.28659767 1.2666417 0.15063268 78
0.28845131 1.2673329 0.0098082526 89
0.29248855 1.2596562 0.028994121 100
0.29218903 1.2602258 0.048458595 88
0.29775316 1.2496455 0.066540658 52
0.2941314 1.2565323 0.10685304 73
0.28379741 1.2761823 -0.0099827768 96
0.28113928 1.2812366 0.15477379 67
0.29018891 1.2682428 0.0098082526 89
0.2978932 1.2534683 0.028575432 100
0.29205936 1.2646558 0.048807215 58
0.29759327 1.2540435 0.067028143 51
0.29764676 1.2539408 0.1060898 73
0.28741512 1.2735622 -0.0099129668 97
0.2945374 1.2599037 0.1480445 79
0.29284808 1.2673705 0.0097733475 89
0.29746106 1.2584482 0.067515619 51
0.28825608 1.276252 -0.0099478718 96
0.29713628 1.2590764 0.14752686 79
0.2973367 1.2628986 0.048458595 59
0.29826206 1.2610934 0.067759357 68
0.29708254 1.2633944 0.14856213 71
0.29705587 1.2677187 0.14959741 78
0.29803669 1.269886 0.068734311 100
0.29348299 1.2789204 -0.0099478718 100
0.2969687 1.2720048 0.15063268 78
0.29973012 1.2708687 0.0097733475 100
0.29615483 1.278024 -0.0099129668 100
0.29882634 1.2815788 -0.0099478718 100
