# .PCD v0.7 - Point Cloud Data file format
VERSION 0.7
FIELDS x y z intensity
SIZE 4 4 4 4
TYPE F F F F
COUNT 1 1 1 1
WIDTH 807
HEIGHT 1
VIEWPOINT 0 0 0 1 0 0 0
POINTS 807
DATA ascii
0.056639194 0.0044538379 0.047730394 66
0.058810413 0.013634324 0.015742071 100
0.050706595 0.0011554956 0.04804441 45
0.047413528 0.0019673109 0.016021309 29
0.046450675 0.0063273907 0.047939736 100
0.045998573 0.011416852 0.047730394 100
0.037798345 0.0048823357 0.048253752 70
0.03316468 0.0031828284 0.048463095 34
0.028246999 0.0016869903 0.048672438 24
0.031075001 0.011845291 0.048149079 17
0.029565573 0.015305519 0.04804441 9
0.029213488 0.020407259 0.047835063 9
-0.028623998 0.55320078 0.010785587 13
-0.014377236 0.56078243 0.010506349 13
0.003670156 0.56963903 0.0101573 14
-0.0045100451 0.56872267 0.010296919 28
0.0042010546 0.57403815 0.010122396 28
-0.0039829612 0.5731712 0.010262015 28
-0.012247562 0.57255268 0.010401634 27
-0.011010349 0.57507455 0.010366729 27
0.0034095049 0.58232719 0.010087491 28
-0.0047836304 0.5815683 0.01022711 28
-0.0054705739 0.58360296 0.01022711 28
0.010995507 0.59111488 0.0099129668 29
0.012243688 0.59371454 0.0098780617 29
0.0059552789 0.59364897 0.0099827768 29
0.0015342236 0.59432918 0.010052586 28
0.0028610826 0.59675252 0.010017681 43
-0.078347921 0.57103831 0.03454173 27
-0.0092218518 0.59517914 0.01022711 42
0.0060470104 0.5999524 -0.0099478718 10
-0.0078878999 0.5976249 0.010192205 28
-0.07972163 0.5754298 0.03454173 27
0.0087273717 0.60482621 0.0098780617 29
-0.042191088 0.589288 0.032448292 29
0.00052446127 0.60431278 0.010017681 29
-0.081031442 0.57972068 0.03454173 27
-0.023108721 0.5995844 0.010436539 13
-0.019833446 0.60261303 0.010366729 13
-0.043431222 0.59781688 0.010785587 13
-0.051688254 0.59758228 0.010925206 13
-0.063922703 0.59674019 0.011134636 12
-0.079904377 0.59448302 0.011413874 12
-0.084399939 0.59573352 0.011483683 12
-0.10427451 0.59260535 0.011832732 11
-0.089405239 0.59891105 0.011553493 11
-0.12477106 0.59184378 0.012181779 10
-0.11770856 0.59644818 0.01204216 11
-0.1027841 0.6026364 0.011762922 11
-0.10721284 0.60382164 0.011832732 11
-0.11164087 0.60503435 0.011902541 11
-0.12780654 0.60376561 0.012181779 10
-0.1361289 0.60413468 0.012321399 10
-0.12114102 0.61023545 0.01204216 11
-0.13724202 0.60880882 0.012321399 10
-0.14565027 0.60965222 0.012461018 10
-0.16957915 0.60664767 0.012879875 9
-0.16236627 0.61102831 0.012740256 19
-0.22148317 0.60051954 0.013787401 16
-0.19861478 0.60828048 0.013368543 26
-0.66780955 0.67116159 0.02132684 3
-0.67211801 0.67489022 0.02139665 32
-0.66448146 0.67996156 0.021257032 87
-0.65081042 0.68497801 0.021012697 24
-0.63116199 0.69071901 0.020663649 11
-0.62742704 0.69489092 0.020593839 9
-0.62769443 0.69920695 0.020593839 11
-0.6059615 0.70435971 0.020209886 9
-0.58422858 0.70976353 0.019825934 10
-0.58841652 0.71332628 0.019895744 12
-0.59061414 0.71740705 0.019930648 15
-0.57479936 0.72187358 0.019651409 15
-0.56098109 0.72654361 0.019407077 14
-0.54513174 0.73080027 0.019127838 12
-0.52727395 0.73520422 0.018813694 7
-0.53537887 0.73854506 0.018953314 8
-0.5374859 0.74247283 0.018988218 12
-0.52557594 0.74634302 0.01877879 15
-0.50966054 0.75057852 0.018499551 12
-0.51372081 0.75421822 0.01856936 14
-0.49777299 0.75811285 0.018290121 12
-0.50180727 0.76173896 0.018359931 14
-0.47583228 0.76516581 0.017906168 14
-0.46984392 0.76875401 0.017801454 19
-0.47784072 0.77233207 0.017941074 19
-0.47982603 0.77593142 0.017975979 15
-0.48579794 0.77958167 0.018080693 14
-0.47975951 0.78312075 0.017975979 15
-0.47570854 0.7866503 0.017906168 15
-0.4856407 0.79042774 0.018080693 17
-0.50555474 0.79450685 0.018429741 36
-0.50546271 0.79819125 0.018429741 54
-0.49137193 0.80127102 0.018185407 50
-0.49725205 0.80510688 0.018290121 15
-0.4791382 0.80809647 0.017975979 3
-1.0388091 1.1330104 0.028447423 3
-1.0290849 1.1307887 0.08488892 5
-1.0252349 1.129909 0.14136662 6
-1.0238969 1.1353886 0.028203089 8
-0.9850145 1.1263618 0.082586139 18
-1.0200875 1.1345043 0.14101799 26
-1.0011387 1.136102 0.027819136 25
-0.99536127 1.1347383 0.083214171 84
-1.0245583 1.1416295 0.14154093 81
-0.99213737 1.1393805 0.027679516 37
-0.99997014 1.1412567 0.083528183 100
-1.0136292 1.1445284 0.14066938 95
-0.98500949 1.1433436 0.027574802 43
-0.97731727 1.1414727 0.082376793 100
-1.0006967 1.147159 0.13962349 87
-0.97405559 1.1460366 0.027400278 27
-0.98965079 1.1498845 0.083109498 100
-0.9975031 1.151822 0.13944919 92
-0.97841936 1.1533452 0.027504992 23
-0.9765572 1.1528783 0.082481466 60
-1.0018232 1.1592152 0.13997212 79
-0.97132581 1.1569328 0.027400278 38
-0.97334355 1.157446 0.082376793 38
-1.002455 1.1648502 0.14014643 73
-0.96989733 1.1625062 0.027400278 59
-0.98351616 1.1660231 0.083004825 56
-0.98363537 1.166054 0.13857763 91
-0.96858746 1.1675441 0.027400278 66
-0.97833019 1.1700947 0.082795486 100
-0.97267634 1.1686146 0.13770607 91
-0.94779378 1.1679723 0.027051231 75
-0.96527177 1.1726162 0.082167454 92
-0.96927959 1.1736813 0.13753176 98
-0.94646579 1.1729369 0.027051231 83
-0.95042831 1.174004 0.081434749 98
-0.97178036 1.1797531 0.13788038 100
-0.95469564 1.1807914 0.027225753 93
-0.94322866 1.1776609 0.081120729 100
-0.96841866 1.1845379 0.13770607 100
-0.95332521 1.185779 0.027225753 93
-0.93994361 1.182078 0.081016064 100
-0.95551389 1.1863842 0.1366602 92
-0.94408971 1.1891257 0.027086135 89
-0.93842334 1.1875361 0.081016064 88
-0.95205933 1.1913613 0.13648589 98
-0.94269162 1.194078 0.027086135 77
-0.94279426 1.1941071 0.081330076 78
-0.95448691 1.1974289 0.13683452 100
-0.95273215 1.202605 0.027295563 56
-0.93938535 1.1987628 0.081225403 46
-0.95107108 1.2021269 0.1366602 100
-0.94744962 1.2064668 0.027225753 44
-0.91878074 1.1981106 0.080178685 22
-0.95536822 1.2087748 0.13718314 85
-0.93433338 1.2085526 0.027016325 68
-0.91528636 1.2029251 0.080074012 26
-0.94610697 1.2120311 0.13648589 84
-0.92137581 1.2100346 0.026806897 78
-0.92532378 1.2112154 0.080702044 30
-0.92936212 1.2124231 0.13509139 98
-0.90834779 1.2116902 0.026597468 78
-0.92186314 1.2157836 0.080597371 78
-0.92971557 1.2181618 0.13526571 100
-0.91069895 1.2176957 0.026667276 83
-0.91082889 1.2177355 0.080074012 100
-0.9358409 1.2254016 0.13596296 99
-0.92042702 1.2268611 0.026876707 88
-0.90146965 1.2209711 0.079655327 93
-0.93408138 1.2311035 0.13596296 78
-0.91890389 1.2317348 0.026876707 83
-0.9018715 1.2263807 0.07976 76
-0.91543788 1.2306452 0.13439415 52
-0.90195805 1.2322623 0.026597468 81
-0.90589851 1.2335168 0.080074012 70
-0.90045017 1.2317822 0.13317397 45
-0.89280337 1.2346227 0.026457848 83
-0.9119578 1.240791 0.080492698 84
-0.90270382 1.237811 0.1335226 46
-0.89117283 1.2396562 0.026457848 93
-0.89321488 1.2403218 0.079550654 100
-0.90863937 1.2453483 0.13421984 57
-0.88952464 1.244684 0.026457848 100
-0.88966757 1.2447312 0.07944598 100
-0.91264778 1.2523088 0.13474278 77
-0.89165264 1.2509717 0.026527658 100
-0.88989621 1.2503858 0.079550654 100
-0.90906531 1.256781 0.13456847 85
-0.88238627 1.2534432 0.026388038 96
-0.89199537 1.2566863 0.07976 100
-0.88659173 1.2548625 0.13265105 84
-0.86555034 1.2532716 0.0261088 93
-0.8902877 1.2617168 0.07976 100
-0.89808923 1.2643803 0.13387123 89
-0.87141556 1.2608205 0.02624842 93
-0.87157172 1.2608744 0.078817949 100
-0.88693839 1.2661806 0.13299966 100
-0.87724513 1.2684163 0.026388038 81
-0.86419278 1.2638582 0.078503937 99
-0.9096505 1.2797327 0.13526571 57
-0.8717255 1.2720635 0.02631823 79
-0.86057693 1.2681266 0.078399263 57
-0.89283282 1.2795173 0.13387123 40
-0.86243135 1.2743335 0.02617861 89
-0.85882956 1.2730474 0.078399263 23
-0.8872928 1.2832108 0.1335226 41
-0.85313874 1.2765446 0.026038991 96
-0.866458 1.281353 0.078922622 38
-0.8705005 1.2828124 0.1321281 28
-0.85520858 1.2825654 0.0261088 92
-0.85537285 1.2826252 0.078399263 82
-0.87253565 1.2888856 0.13247673 16
-0.84590596 1.2847002 0.025969181 100
-0.85170096 1.2868369 0.07829459 100
-0.8781932 1.2966051 0.13317397 11
-0.84784836 1.2909663 0.026038991 100
-0.84053081 1.288239 0.077771232 95
-0.90995127 1.3141115 0.13631158 1
-0.83479327 1.2916132 0.025829561 100
-0.83123702 1.2902737 0.077352546 44
-0.87075299 1.3051583 0.13282534 1
-0.83296412 1.2964439 0.025829561 88
-0.84434527 1.3007762 0.078189917 53
-0.84280771 1.3001909 0.130385 11
-0.82925159 1.3005502 0.025794657 74
-0.83689171 1.303489 0.077875905 59
-0.8595441 1.3122027 0.1321281 48
-0.831119 1.3068104 0.025864467 75
-0.82943636 1.3061563 0.077561885 72
-0.85949987 1.3178413 0.13230242 99
-0.83295935 1.3130898 0.025934275 88
-0.82755643 1.3109682 0.077561885 59
-0.8353247 1.3140187 0.13021068 100
-0.81804389 1.312752 0.025689943 100
-0.83122915 1.317983 0.077875905 89
-0.8223055 1.3144428 0.12916481 100
-0.80871636 1.3145484 0.025550323 100
-0.8311618 1.323544 0.077980578 95
-0.83889061 1.3266417 0.13090792 100
-0.81422156 1.3222895 0.025689943 100
-0.81996459 1.3246145 0.077457212 97
-0.83693916 1.3314865 0.13090792 100
-0.81228536 1.3270481 0.025689943 100
-0.80507964 1.3241017 0.076724514 100
-0.82206148 1.3310456 0.12968774 100
-0.80049962 1.3222289 0.17914793 21
-0.8178243 1.3346145 0.025829561 100
-0.79954237 1.3270681 0.076515168 100
-0.82019347 1.3355925 0.12968774 100
-0.78765148 1.3221598 0.1776855 16
-0.80107921 1.3332301 0.025550323 100
-0.80127662 1.3333125 0.076724514 100
-0.80717689 1.3357722 0.12864187 100
-0.80953532 1.3367553 0.18085411 24
-0.79173273 1.3348393 0.025410704 100
-0.79930204 1.3380258 0.076724514 100
-0.80519372 1.3405061 0.12864187 100
-0.77461618 1.3276336 0.17646681 18
-0.79711419 1.3426487 0.025550323 96
-0.78444451 1.3372629 0.075991809 78
-0.80502766 1.3460126 0.12881619 100
-0.7543928 1.3244882 0.17402942 18
-0.81715804 1.3568122 0.025969181 60
-0.80264491 1.3505828 0.0771432 40
-0.82680994 1.360955 0.13108224 35
-0.76521844 1.3345187 0.17573559 5
-0.81693608 1.362376 0.026004085 90
-0.80794042 1.3584776 0.077561885 85
-0.82656687 1.3665496 0.13125655 43
-0.79602534 1.3533142 0.18012288 14
-0.8021391 1.3612971 0.025759751 100
-0.81513113 1.3669786 0.078085244 100
-0.81362826 1.3663214 0.13021068 100
-0.7813521 1.3522069 0.17841671 24
-0.78726131 1.3603601 0.025515418 100
-0.813039 1.3717402 0.078085244 100
-0.80789298 1.3694685 0.12986206 100
-0.79202372 1.3624626 0.18012288 36
-0.7944296 1.3688598 0.025689943 100
-0.80921167 1.3754442 0.077980578 100
-0.80953759 1.3755895 0.13021068 100
-0.75741166 1.3523706 0.17573559 26
-0.80145007 1.3776493 0.025864467 100
-0.80162519 1.377728 0.077666558 100
-0.81468409 1.3835996 0.13090792 100
-0.75718135 1.3577449 0.17597933 20
-0.80103463 1.3834252 0.025899371 100
-0.80484444 1.385155 0.077980578 100
-0.80154103 1.3836551 0.12986206 100
-0.78393847 1.3756628 0.17987914 19
-0.80433887 1.3906367 0.026004085 100
-0.81358296 1.3948729 0.07860861 100
-0.80301327 1.3900292 0.13021068 100
-0.77640229 1.3778346 0.17914793 15
-0.79127425 1.390324 0.025794657 100
-0.81501895 1.4013057 0.078817949 100
-0.80084068 1.3947483 0.13021068 100
-0.77247077 1.3816276 0.17890419 12
-0.79453689 1.3975394 0.025899371 100
-0.80375785 1.4018431 0.07829459 100
-0.8094843 1.4045157 0.13125655 100
-0.74694318 1.3753258 0.17573559 5
-0.80138367 1.4064891 0.026073895 100
-0.79973716 1.4057137 0.078189917 100
-0.81447095 1.4126532 0.13195379 100
-0.76457685 1.3891535 0.17841671 3
-0.80276579 1.4129192 0.026143705 100
-0.80652934 1.4147079 0.078713275 100
-0.80682093 1.4148464 0.13143086 100
-0.77675086 1.4005553 0.18036664 3
-0.7898069 1.4122155 0.025934275 100
-0.80798608 1.4209293 0.078922622 100
-0.79209846 1.4133139 0.13021068 100
-0.78395659 1.4151471 0.025864467 100
-0.81289774 1.4291439 0.079341307 100
-0.80060655 1.4231995 0.13125655 100
-0.79427665 1.4259379 0.0261088 100
-0.80699855 1.4321456 0.079131968 100
-0.81622416 1.4366472 0.13299966 100
-0.79915518 1.4341592 0.02624842 100
-0.80109519 1.4351141 0.078922622 100
-0.81031376 1.4396522 0.13265105 100
-0.80041057 1.4406434 0.02631823 100
-0.8005541 1.4407147 0.079027295 100
-0.80083019 1.4408517 0.13195379 100
-0.79448563 1.4435618 0.02624842 100
-0.80356175 1.4481087 0.079341307 100
-0.79669887 1.4446706 0.13177948 100
-0.78867477 1.4462132 0.02617861 100
-0.81021923 1.4570961 0.079864666 100
-0.8033461 1.4536242 0.13265105 100
-0.79343313 1.4545133 0.02631823 100
-0.8042534 1.4600265 0.079655327 100
-0.80982763 1.4628668 0.1335226 100
-0.79447204 1.4612615 0.026388038 100
-0.7928341 1.4604192 0.079131968 100
-0.81436664 1.4714903 0.13421984 100
-0.79915172 1.4696326 0.026527658 99
-0.79928106 1.4696996 0.079655327 100
-0.80837232 1.4744141 0.13387123 100
-0.7861914 1.468544 0.02631823 100
-0.79695338 1.4741702 0.079655327 100
-0.8060289 1.4789147 0.13387123 100
-0.78374499 1.4732039 0.02631823 96
-0.79625386 1.4797992 0.07976 100
-0.80530852 1.4845731 0.13404553 100
-0.79717284 1.4863045 0.026632372 33
-0.7884776 1.4816811 0.07944598 27
-0.80456501 1.4902351 0.13421984 59
0.12809137 1.2923173 0.13051336 5
0.1684109 1.2457902 0.010645968 13
0.13763613 1.2841623 0.03454173 27
0.16107929 1.2549318 0.054385185 25
0.16192842 1.2538731 0.098240845 12
0.14097196 1.280003 0.12707879 17
0.20008054 1.2063025 0.1291219 8
0.1354278 1.2869158 0.17754987 6
0.1626001 1.2565054 0.010855397 52
0.17053694 1.2465382 0.031924933 61
0.15780994 1.2625209 0.055082429 50
0.14688072 1.2762461 0.07945881 14
0.15746728 1.2629513 0.099805191 24
0.1549843 1.2660694 0.12326261 79
0.18825257 1.2242904 0.13407083 15
0.15167546 1.2702247 0.1713382 14
0.16421553 1.2577873 0.010855397 100
0.16344661 1.2587595 0.032657638 100
0.15573755 1.2685069 0.055605363 98
0.16703278 1.2542253 0.075802729 30
0.16768175 1.2534046 0.097615108 24
0.16028506 1.2627571 0.12211776 100
0.17404592 1.2453578 0.13991955 36
0.15213808 1.2730582 0.17185585 36
0.16592059 1.259131 0.010855397 100
0.16885549 1.2553934 0.032343622 100
0.15624961 1.2714472 0.055779677 100
0.1650475 1.2602429 0.076533951 29
0.16693157 1.2578435 0.098240845 24
0.1717073 1.2517616 0.11906482 100
0.19014966 1.2282748 0.13452072 38
0.14673802 1.2835603 0.17496167 35
0.16754472 1.260402 0.010855397 100
0.18274981 1.2409053 0.031296901 94
0.15301356 1.2790345 0.056476921 96
0.1727792 1.25369 0.075315252 30
0.18798828 1.2341883 0.093234941 26
0.17209959 1.2545614 0.11944643 100
0.19167134 1.2294657 0.13452072 31
0.14725524 1.2864181 0.17547931 49
0.16322482 1.2697072 0.011029921 76
0.18447822 1.2422482 0.031296901 62
0.16219893 1.2710326 0.055431053 49
0.16847938 1.2629184 0.076533951 29
0.18243754 1.2448847 0.095112152 25
0.17507982 1.2543907 0.11906482 32
0.18858662 1.2369401 0.13632034 22
0.15269804 1.2833076 0.1739264 28
0.17585254 1.2567184 0.010715778 66
0.16535324 1.2703767 0.033076324 29
0.17600524 1.2565198 0.053687938 52
0.15922767 1.2783453 0.078727596 84
0.18281043 1.2476671 0.095425025 51
0.18267074 1.2478487 0.11715672 13
0.19251239 1.2350461 0.13542053 22
0.15793455 1.2800274 0.17237349 57
0.18014941 1.2549713 0.010645968 66
0.1696997 1.2686737 0.032866981 29
0.17183512 1.2658736 0.054559495 50
0.17683145 1.259322 0.07555899 90
0.18344936 1.2506442 0.095737889 51
0.19403246 1.2367671 0.11410378 13
0.20139101 1.227118 0.13272113 31
0.16692469 1.2723124 0.16926765 66
0.18175966 1.2561951 0.010645968 40
0.18100244 1.2571949 0.032029606 30
0.17348158 1.2671249 0.054559495 50
0.19163996 1.24315 0.072877869 63
0.19100857 1.2439836 0.094173551 52
0.19439694 1.2395098 0.1144854 13
0.21232143 1.2158438 0.1291219 48
0.17675722 1.2628 0.16564418 68
0.17633516 1.2671325 0.010855397 39
0.16839021 1.2777027 0.03328567 28
0.17410904 1.2700942 0.054733805 50
0.19337654 1.2444602 0.072877869 47
0.1939351 1.2437172 0.093860678 52
0.19729975 1.2392406 0.11410378 13
0.21395779 1.2170784 0.1291219 40
0.17508373 1.2687974 0.16719711 67
0.1839667 1.2603565 0.010680873 80
0.17246535 1.2757642 0.033076324 29
0.1829204 1.2617582 0.053687938 52
0.18901461 1.253594 0.07409656 61
0.2025978 1.2353973 0.091983467 53
0.19181141 1.2498474 0.11639348 13
0.21544221 1.2181903 0.1291219 32
0.18251789 1.2622974 0.16460891 69
0.1856806 1.2616313 0.010680873 80
0.20752892 1.2321479 0.030145511 32
0.18701166 1.259835 0.053339314 52
0.18715921 1.2596359 0.074827775 100
0.20775276 1.2318459 0.091044858 68
0.20985305 1.2290117 0.11105084 14
0.21236774 1.2256182 0.13092151 32
0.18423855 1.2635772 0.16460891 69
0.19442442 1.2531732 0.010471444 82
0.2055119 1.238107 0.030459527 65
0.18273339 1.2690595 0.054210871 76
0.20172745 1.2432494 0.072146654 63
0.1975778 1.2488883 0.094173551 78
0.21603167 1.2238122 0.10952436 14
0.21388048 1.2267354 0.13092151 24
0.18702236 1.2632315 0.16409127 69
0.19265971 1.2593179 0.010576159 100
0.2048741 1.2425923 0.03066887 64
0.18338999 1.2720113 0.054385185 76
0.21283016 1.2316978 0.07019674 99
0.2016654 1.2469862 0.093547814 100
0.2107501 1.2345462 0.11181407 14
0.22704965 1.2122266 0.12642249 16
0.18883258 1.2645586 0.16409127 69
0.18841442 1.2685943 0.010750682 92
0.21230593 1.2356501 0.030145511 65
0.18388703 1.2748371 0.054559495 100
0.20737064 1.2424554 0.071659178 64
0.20788786 1.2417421 0.092296332 100
0.21229246 1.2356685 0.11181407 14
0.23881447 1.199097 0.12237337 17
0.18820629 1.2688813 0.16512655 68
0.19483033 1.2633618 0.010611063 94
0.21159962 1.2400677 0.030354854 65
0.1926358 1.2664102 0.053513627 100
0.20786211 1.2452595 0.071902916 96
0.21530721 1.2349176 0.090731993 95
0.20130268 1.2543712 0.11601187 13
0.23462144 1.2080884 0.12462288 8
0.19672203 1.2607341 0.16202073 70
0.1918166 1.271044 0.010750682 92
0.21664482 1.2363131 0.03004084 99
0.19891864 1.2611092 0.05281638 100
0.20366779 1.2544659 0.073121607 78
0.21340439 1.2408459 0.091670595 100
0.21090302 1.2443449 0.11334054 20
0.23040944 1.2170584 0.12687239 16
0.19947478 1.2603313 0.16150309 70
0.2098529 1.2495191 0.010262015 84
0.20911175 1.250564 0.030878214 95
0.20072103 1.2623928 0.05281638 100
0.21233687 1.2460173 0.071659178 80
0.21513239 1.2420764 0.091670595 100
0.20810032 1.2519898 0.11486702 27
0.23205012 1.2182268 0.12687239 16
0.20239198 1.2600371 0.16098544 72
0.21374801 1.2473748 0.010192205 99
0.21875826 1.2402618 0.030145511 98
0.19547173 1.2733215 0.053862248 100
0.21048784 1.2520032 0.072390392 95
0.21783724 1.2415693 0.09135773 100
0.20404774 1.2611462 0.1167751 66
0.23690486 1.2144991 0.12552269 33
0.20179397 1.2643459 0.16202073 70
0.20404443 1.2649946 0.010541254 81
0.22048408 1.2414727 0.030145511 65
0.19503614 1.2778836 0.054210871 100
0.21566829 1.2483631 0.071659178 80
0.22409433 1.2363071 0.090106249 100
0.20360085 1.2656293 0.11753834 100
0.22513986 1.2348112 0.13092151 80
0.19918144 1.2719526 0.16409127 69
0.20796803 1.2628534 0.010471444 82
0.21635574 1.250767 0.03066887 96
0.20353794 1.2692369 0.053165004 100
0.22065178 1.2445766 0.070927955 65
0.22676867 1.2357624 0.089793384 97
0.22203627 1.2425816 0.11181407 84
0.22779405 1.2342849 0.13047162 88
0.20965931 1.2604163 0.15995017 72
0.21431303 1.2575157 0.010331824 98
0.22491628 1.2421166 0.03004084 99
0.21101972 1.2622985 0.052293446 80
0.22014183 1.2490505 0.071415432 96
0.22623739 1.2401979 0.090419121 100
0.22154376 1.2470145 0.1125773 82
0.22839272 1.2370677 0.13092151 96
0.21145907 1.2616603 0.15995017 72
0.22044596 1.2520231 0.010192205 85
0.218593 1.2547333 0.030773543 64
0.2070317 1.2716435 0.053165004 100
0.22061184 1.2517804 0.071659178 80
0.2277984 1.241269 0.090419121 100
0.23309979 1.2335149 0.10914274 85
0.23104322 1.2365229 0.13047162 96
0.21527198 1.2595909 0.15891489 73
0.2210077 1.2548251 0.01022711 70
0.23710915 1.231097 0.029203463 68
0.20095366 1.2843782 0.054385185 76
0.22898343 1.2430716 0.07019674 66
0.22833622 1.2440255 0.090731993 95
0.22700304 1.24599 0.11181407 98
0.23814476 1.2295709 0.12822211 97
0.21155927 1.268749 0.16150309 70
0.21591318 1.2658639 0.010436539 41
0.22190014 1.2569778 0.030773543 32
0.2037746 1.2838805 0.054210871 51
0.23055395 1.2441335 0.07019674 99
0.23101366 1.2434512 0.090419121 100
0.22748625 1.2486868 0.11219569 100
0.24184823 1.2273703 0.1273223 100
0.21105617 1.273073 0.16253836 70
0.21337572 1.2737938 0.010576159 40
0.22599164 1.2549127 0.030564198 32
0.22235399 1.2603569 0.051596198 54
0.23017114 1.2486577 0.070684217 81
0.24380854 1.2282479 0.087290429 99
0.2271452 1.2531863 0.11295892 89
0.2371107 1.238272 0.13002171 96
0.21835673 1.2663393 0.15995017 72
0.22389182 1.2615764 0.010296919 42
0.22318503 1.2626419 0.030982886 31
0.2272861 1.25646 0.051073264 55
0.23066279 1.2513698 0.070927955 48
0.23986977 1.2374913 0.088854775 98
0.23200521 1.2493463 0.11181407 98
0.2429744 1.2328113 0.12822211 97
0.22427624 1.2609971 0.15787962 73
0.23102334 1.2543051 0.010122396 28
0.20284891 1.2970827 0.033076324 29
0.22670925 1.2608552 0.051421888 55
0.23662838 1.2457949 0.069953002 66
0.24250829 1.2368674 0.08854191 98
0.24223554 1.2372816 0.10876112 87
0.24129513 1.2387093 0.12957181 96
0.22590625 1.2620745 0.15787962 73
0.2282536 1.2620548 0.010262015 28
0.23301777 1.2547688 0.030354854 32
0.2305195 1.2585895 0.051073264 55
0.24146706 1.2418472 0.069221787 100
0.24081498 1.2428443 0.089480512 97
0.24163792 1.2415859 0.10952436 85
0.24391761 1.2380995 0.1291219 96
0.21591008 1.2809321 0.16357364 69
0.22470564 1.2716758 0.010436539 41
0.23270828 1.259334 0.030564198 32
0.22589412 1.2698429 0.052119136 54
0.2389611 1.2496908 0.07019674 82
0.24585697 1.2390558 0.08854191 100
0.23917848 1.2493554 0.11105084 84
0.25207856 1.2294607 0.12642249 90
0.22418058 1.2724855 0.1604678 72
0.23719475 1.2559373 0.010087491 43
0.25271058 1.2318337 0.028784776 69
0.2318671 1.2642138 0.051421888 55
0.2384046 1.2540579 0.070684217 65
0.25382933 1.2300959 0.086664692 86
0.24395773 1.2454312 0.10990598 85
0.25465861 1.2288076 0.12597258 90
0.22793996 1.2703145 0.15943253 73
0.2475875 1.2435974 0.0098082526 44
0.24688107 1.2447038 0.029517479 67
0.23689744 1.2603387 0.050898954 55
0.24338588 1.2501774 0.069953002 49
0.25339144 1.234508 0.087290429 57
0.25098526 1.2382762 0.10799789 79
0.25004953 1.2397417 0.128672 97
0.23393461 1.2649786 0.15736198 74
0.23952422 1.2597983 0.010122396 85
0.24204108 1.2558277 0.030145511 98
0.23745847 1.2630571 0.051073264 83
0.24497989 1.2511915 0.069953002 49
0.2507031 1.2421627 0.08854191 70
0.24728429 1.2475561 0.10990598 92
0.25056559 1.2423797 0.1291219 88
0.23454347 1.2676557 0.15787962 65
0.24541014 1.2540551 0.0099827768 87
0.24684495 1.2517749 0.029831495 99
0.23697302 1.2674634 0.051421888 82
0.24552003 1.2538805 0.07019674 33
0.25016639 1.2464964 0.089167647 70
0.25618875 1.2369257 0.10723466 81
0.257323 1.2351232 0.12687239 90
0.2361955 1.268699 0.15787962 65
0.25125453 1.2482784 0.0098431576 88
0.25479278 1.2426138 0.029203463 100
0.23651335 1.2718784 0.051770512 81
0.24817795 1.2532039 0.069953002 49
0.26221314 1.2307342 0.086038955 72
0.24317768 1.2612091 0.1125773 100
0.26402897 1.2278271 0.12462288 92
0.23375723 1.2762909 0.15995017 64
0.24475637 1.2630758 0.010122396 85
0.2482821 1.2573806 0.03004084 99
0.23433566 1.2799089 0.052467756 80
0.24803033 1.2577872 0.070440479 49
0.26198542 1.2352449 0.086664692 57
0.24928552 1.2557597 0.11105084 77
0.26381761 1.2322853 0.12552269 90
0.23782584 1.274271 0.15891489 65
0.25267467 1.253863 0.0099129668 87
0.24885431 1.2600801 0.030145511 100
0.24854547 1.2605827 0.05037602 84
0.25380665 1.2520207 0.069465525 49
0.25939307 1.2429295 0.087916173 56
0.24884233 1.2600996 0.11181407 98
0.26433194 1.2348921 0.12597258 90
0.24556822 1.2654278 0.15580906 67
0.25445011 1.2549495 0.0099129668 87
0.25169197 1.2594751 0.03004084 99
0.23894003 1.2803988 0.052293446 80
0.25350919 1.2564933 0.069953002 49
0.25907236 1.247365 0.08854191 56
0.26903132 1.231024 0.10494494 82
0.26400945 1.239264 0.12687239 90
0.2413539 1.2764382 0.15891489 65
0.25709489 1.2542158 0.0098780617 73
0.25951922 1.250208 0.029412808 100
0.23650941 1.2882466 0.05299069 100
0.26334363 1.2438858 0.068003096 51
0.26065695 1.2483273 0.08854191 70
0.2604003 1.2487515 0.10876112 79
0.26960167 1.2335403 0.12507279 92
0.24903435 1.2675412 0.15580906 67
0.25664356 1.2586133 0.0099478718 73
0.2652255 1.2443193 0.028994121 100
0.24438307 1.2790344 0.051944822 81
0.26287305 1.2482375 0.068490572 50
0.27241278 1.2323482 0.085413218 58
0.25693667 1.2581252 0.11066922 85
0.27715892 1.2244431 0.12237337 85
0.2467083 1.2751615 0.15787962 65
0.25314733 1.2681726 0.010122396 85
0.26475522 1.2486925 0.029203463 100
0.25117221 1.2714872 0.051073264 100
0.25734743 1.2611241 0.07019674 82
0.27192512 1.2366601 0.086038955 72
0.256547 1.2624674 0.11143246 77
0.27068704 1.2387378 0.12597258 90
0.25234073 1.2695262 0.15580906 67
0.26514849 1.2520416 0.0097733475 89
0.26041511 1.2600517 0.029831495 100
0.25605309 1.2674333 0.05055033 84
0.26217917 1.2570664 0.069465525 49
0.27665225 1.2325742 0.085100345 58
0.26534548 1.2517083 0.10876112 79
0.27438974 1.236403 0.12507279 83
0.25613922 1.2672875 0.15477379 75
0.26877177 1.2495337 0.0097035384 100
0.27012479 1.2472266 0.028994121 100
0.25568843 1.2718426 0.050898954 83
0.26881704 1.2494564 0.068246834 51
0.27818772 1.2334781 0.085100345 58
0.27191034 1.244182 0.10685304 88
0.27298039 1.2423574 0.12642249 82
0.25778991 1.2682593 0.15477379 67
0.27061513 1.2506099 0.0097035384 90
0.2759743 1.2413908 0.028575432 100
0.25861883 1.2712464 0.05072464 100
0.27365303 1.245384 0.067515619 51
0.27302003 1.246473 0.087290429 57
0.27175978 1.2486409 0.10761628 79
0.28263113 1.2299395 0.12282328 85
0.2538799 1.2793986 0.15787962 65
0.27320966 1.2498016 0.0096686333 75
0.2735469 1.249217 0.028994121 100
0.25630027 1.2791132 0.051421888 82
0.27126318 1.2531757 0.068490572 50
0.27657577 1.2439667 0.086664692 57
0.26746231 1.2597643 0.10990598 85
0.29097429 1.2190076 0.11967396 87
0.25943214 1.2736843 0.15580906 67
0.25601554 1.2837415 0.010331824 98
0.27720532 1.2467122 0.028784776 100
0.26500612 1.2680304 0.050201707 85
0.27492335 1.2506999 0.068003096 51
0.28313744 1.2363456 0.085100345 58
0.26819855 1.2624516 0.1102876 78
0.28673589 1.2300574 0.12237337 85
0.26311108 1.271342 0.15477379 67
0.27154481 1.2603691 0.0098431576 88
0.28076011 1.2441406 0.028575432 100
0.26862687 1.2655077 0.049853086 85
0.26867718 1.265419 0.069953002 99
0.28370994 1.2389458 0.085413218 58
0.27661917 1.2514329 0.10761628 87
0.28922522 1.2292333 0.12192347 85
0.27055737 1.262108 -0.0098780617 87
0.27240661 1.2588514 0.15063268 70
0.27342975 1.2614346 0.0098431576 88
0.27474624 1.2590953 0.029412808 100
0.26955441 1.2683207 0.050027397 85
0.27642301 1.2561159 0.068490572 50
0.28454372 1.2416863 0.08572609 58
0.28424701 1.2422135 0.10532656 82
0.28812322 1.2353259 0.12327318 76
0.26670593 1.2733821 0.15477379 67
0.27408597 1.2640949 0.0098780617 73
0.27831721 1.2565179 0.029203463 100
0.27023703 1.2709875 0.050201707 85
0.28190792 1.2500877 0.067515619 51
0.28322002 1.2477381 0.086664692 57
0.28198561 1.2499486 0.10685304 81
0.29346821 1.2293861 0.12147357 94
0.26743487 1.2760055 0.15529142 75
0.2768673 1.2633535 0.0098431576 88
0.2878412 1.2435315 0.028366089 100
0.27304015 1.2702664 0.050027397 85
0.28366932 1.2510672 0.067515619 51
0.29071349 1.2383435 0.084787481 59
0.27804106 1.2612333 0.10914274 85
0.29420978 1.2320281 0.12192347 85
0.27396163 1.2686019 -0.0099478718 96
0.26461291 1.2854884 0.15787962 65
0.28340331 1.2555397 0.0096686333 90
0.28757322 1.2479452 0.028575432 100
0.2824595 1.2572585 0.048632905 88
0.28917184 1.2450337 0.066540658 52
0.29615283 1.2323195 0.083536007 60
0.27975744 1.2621796 0.10914274 78
0.28147843 1.2590454 -0.0097384425 88
0.27664173 1.2678542 0.1521856 77
0.28414348 1.2582234 0.0097035384 90
0.28924313 1.2488583 0.028575432 100
0.28606761 1.2546899 0.048284281 88
0.28038892 1.2651184 0.069221787 50
0.2968235 1.2349377 0.083848871 59
0.28711048 1.2527748 0.10685304 81
0.28115284 1.2637155 0.15063268 70
0.28965005 1.2521104 0.0095639192 91
0.28901821 1.2532804 0.028784776 100
0.28965452 1.252102 0.047935657 89
0.28872156 1.2538297 0.067515619 51
0.29750934 1.2375567 0.084161744 59
0.29626021 1.2398698 0.1038001 83
0.29535818 1.2415402 0.12372308 75
0.27919802 1.2714652 -0.0099478718 86
0.28104198 1.2680506 0.15166797 69
0.29133451 1.2530162 0.0095639192 91
0.28381428 1.2670591 0.049330149 87
0.28853774 1.2582387 0.068003096 51
0.29821041 1.2401766 0.084474608 59
0.29604825 1.2442141 0.10456333 75
0.28643015 1.2621742 0.14959741 70
0.29302213 1.2539161 0.0095639192 91
0.29614541 1.2480347 0.028366089 100
0.27994427 1.2785432 0.05037602 84
0.2902436 1.2591484 0.068003096 51
0.29310119 1.2537673 0.10647142 73
0.28270549 1.2733436 -0.0099478718 86
0.28090134 1.2767409 0.15373851 76
0.28912264 1.2654265 0.0097733475 89
0.29409334 1.2559868 0.028784776 100
0.29193237 1.2600906 0.048458595 59
0.29010284 1.2635651 0.068490572 50
0.2947914 1.2546611 0.10647142 81
0.28819093 1.2671959 -0.0098082526 88
0.28807241 1.267421 0.15063268 70
0.29825777 1.2521532 0.0094941091 92
0.29948887 1.2497953 0.028366089 100
0.29548895 1.2574562 0.048109971 59
0.29733986 1.2539113 0.067028143 51
0.29875153 1.2512075 0.1454563 81
0.29364681 1.2647668 0.029203463 100
0.2970216 1.2582533 0.048109971 59
0.29703489 1.2582277 0.067515619 51
0.29226589 1.267432 0.15011504 78
0.29963356 1.2573696 0.0095639192 91
0.29720068 1.2621055 0.028994121 100
0.29326501 1.2697668 0.049155839 58
0.29488656 1.2666103 0.14959741 70
0.29670843 1.2675419 0.14959741 70
0.29772151 1.26986 0.0097733475 100
0.29678363 1.2761025 -0.0098780617 100
0.29767627 1.2832417 -0.0099827768 100
0.29946935 1.2841194 -0.0099827768 100
