# .PCD v0.7 - Point Cloud Data file format
VERSION 0.7
FIELDS x y z intensity
SIZE 4 4 4 4
TYPE F F F F
COUNT 1 1 1 1
WIDTH 749
HEIGHT 1
VIEWPOINT 0 0 0 1 0 0 0
POINTS 749
DATA ascii
0.05595243 0.0001462698 0.047939736 76
0.053268135 0.0018755198 0.047939736 57
0.046821535 0.0036925077 0.04804441 27
0.049924016 0.013607383 0.047521047 100
0.05171597 0.022006392 0.047102362 92
0.035750866 0.0038503408 0.048358422 51
0.033079684 0.0056500435 0.048358422 25
0.037031233 0.017451763 0.047730394 19
0.037799537 0.024186075 0.047416378 9
0.03292644 0.022693694 0.047625721 9
0.014330864 0.0015648007 0.049091127 7
0.014080763 0.0066146851 0.048881784 7
0.017185688 0.016643226 0.048358422 8
-0.62741119 0.57275766 0.020838173 1
-0.63598603 0.57557476 0.020977793 14
-0.62869352 0.58057082 0.020838173 37
-0.63132304 0.58437598 0.020873077 35
-0.63202697 0.58891332 0.020873077 35
-0.63064343 0.59313029 0.020838173 40
-0.6193518 0.59878463 0.020628745 48
-0.62387234 0.60209703 0.020698555 50
-0.62846953 0.60605454 0.020768363 60
-0.63693279 0.60888749 0.020907983 47
-0.64148039 0.61271548 0.020977793 32
-0.66976231 0.61309564 0.02146646 21
-0.68022376 0.61611331 0.021640984 16
-0.73432356 0.61366993 0.022583414 13
-0.77463347 0.61392254 0.023281511 13
-0.81487817 0.6137678 0.023979606 16
-0.84324032 0.61544639 0.024468273 4
-1.1163433 0.70161617 0.029110614 8
-1.1245651 0.70713311 0.029250233 16
-1.1287713 0.71284276 0.029320043 8
-1.1469495 0.71815348 0.029634187 20
-1.1671097 0.72353637 0.029983234 36
-1.1632633 0.72962469 0.029913425 72
-1.1754899 0.74078518 0.030122854 14
-1.1795843 0.74705654 0.030192664 12
-1.1856527 0.75303543 0.030297378 13
-1.1957273 0.76512498 0.030471902 9
-1.0356185 1.1290798 0.08520294 3
-1.0453548 1.1312846 0.14310972 4
-1.036288 1.1350572 0.028412517 7
-1.0051596 1.1278934 0.083632857 5
-1.0324342 1.1341703 0.14206386 11
-1.0174794 1.1364946 0.028098375 11
-1.0019562 1.1328652 0.083528183 52
-1.0272732 1.1387845 0.14171524 48
-0.99868041 1.1378053 0.02778423 35
-0.99679369 1.1373572 0.083318844 100
-1.0201609 1.1429069 0.1411923 91
-0.9798916 1.1389893 0.027470088 37
-0.99938506 1.1436908 0.083528183 100
-0.99948114 1.1437141 0.13944919 92
-0.97859424 1.1443274 0.027470088 37
-0.98449165 1.1457715 0.082795486 97
-0.99623197 1.1486466 0.13927488 94
-0.98122591 1.1503584 0.027539898 22
-0.97160703 1.1479691 0.082167454 84
-1.0007687 1.1552129 0.13979781 84
-0.97601086 1.1547234 0.027470088 25
-0.97996169 1.1557195 0.082690813 39
-1.0052104 1.1620849 0.14032075 71
-0.96884674 1.158561 0.027365373 45
-0.97667092 1.1605628 0.082586139 34
-0.98453003 1.1625732 0.13857763 82
-0.96360999 1.1628556 0.027295563 61
-0.98303121 1.1678964 0.083004825 75
-0.98122185 1.1674268 0.13840333 91
-0.96215993 1.1684008 0.027295563 70
-0.97576851 1.1719861 0.082690813 91
-0.973975 1.1715136 0.13788038 94
-0.95689625 1.1726443 0.027225753 81
-0.95313078 1.1716381 0.081539422 90
-0.97641391 1.1778594 0.13822901 100
-0.95548159 1.1779019 0.027225753 89
-0.94593638 1.1753156 0.081225403 100
-0.97113484 1.182143 0.13788038 100
-0.95019203 1.1820952 0.027155945 96
-0.95029014 1.1821221 0.081539422 100
-0.96584445 1.1863948 0.13753176 98
-0.94103879 1.1851836 0.027016325 93
-0.94499439 1.186285 0.081330076 94
-0.95862359 1.1900802 0.13700883 92
-0.93958038 1.1903858 0.027016325 93
-0.94353217 1.191501 0.081330076 86
-0.95331305 1.1942613 0.1366602 99
-0.94971448 1.1986202 0.027225753 64
-0.93060392 1.1931584 0.080702044 68
-0.95381361 1.1997917 0.13683452 100
-0.95973378 1.2071899 0.027435184 38
-0.93103629 1.1988796 0.080806717 28
-0.95613176 1.2061467 0.13718314 94
-0.94476682 1.2085167 0.027190849 50
-0.9295302 1.2040467 0.080806717 24
-0.94695288 1.2091581 0.13648589 84
-0.92789215 1.2091749 0.026911611 71
-0.92800611 1.2092087 0.080806717 24
-0.93013197 1.2098404 0.13509139 87
-0.9150148 1.2103617 0.026702182 75
-0.93426985 1.2161496 0.081225403 40
-0.93255895 1.2156353 0.13544002 94
-0.91538185 1.2160553 0.026737086 81
-0.91168576 1.2149302 0.080074012 94
-0.92908841 1.2202275 0.13526571 99
-0.91763777 1.2223456 0.026806897 85
-0.90630645 1.2188532 0.079864666 100
-0.92941171 1.2259746 0.13544002 94
-0.9160499 1.2274659 0.026806897 89
-0.908544 1.2251238 0.080074012 84
-0.91449744 1.2269815 0.13421984 64
-0.90300316 1.2289667 0.026597468 77
-0.91265994 1.232017 0.080388032 70
-0.9014942 1.2284901 0.13317397 48
-0.88996392 1.230382 0.026388038 81
-0.90723342 1.2359034 0.080178685 78
-0.9055782 1.2353742 0.13369691 45
-0.89595836 1.2378681 0.026527658 85
-0.896097 1.2379129 0.079655327 100
-0.90773612 1.241679 0.13404553 49
-0.89051563 1.241668 0.026457848 99
-0.89255673 1.2423364 0.079550654 100
-0.92312211 1.2523444 0.13561434 64
-0.89265686 1.2479513 0.026527658 100
-0.88900334 1.2467408 0.07944598 100
-0.90819031 1.2530975 0.13439415 82
-0.87960356 1.2491711 0.02631823 99
-0.88733035 1.251761 0.07944598 100
-0.89327139 1.2537522 0.13317397 88
-0.87034708 1.25159 0.02617861 93
-0.89131445 1.2586993 0.07976 100
-0.89346093 1.2594271 0.13334829 84
-0.86865729 1.2565449 0.02617861 93
-0.8801536 1.2604878 0.079236634 100
-0.89928216 1.2670481 0.13404553 100
-0.87064284 1.2630527 0.02624842 89
-0.86891204 1.2624519 0.078713275 100
-0.90121514 1.2736633 0.13439415 85
-0.88023418 1.2719821 0.026457848 83
-0.8709535 1.2687248 0.078922622 78
-0.90508813 1.2807052 0.1349171 50
-0.86725384 1.2727112 0.02624842 81
-0.8561154 1.2687602 0.078189917 46
-0.89024228 1.2808653 0.13369691 35
-0.85043198 1.2722547 0.025969181 96
-0.85624582 1.2743397 0.07829459 17
-0.8865748 1.285217 0.1335226 39
-0.85994989 1.2812299 0.02617861 99
-0.85635442 1.2799262 0.078399263 59
-0.87914842 1.2881911 0.13299966 20
-0.85449153 1.2845268 0.0261088 99
-0.8471542 1.2818389 0.077980578 97
-0.87929291 1.2936127 0.13317397 15
-0.85643739 1.2908151 0.02617861 100
-0.85285097 1.2894871 0.078399263 100
-0.87371975 1.297215 0.13282534 3
-0.84346491 1.2912724 0.025969181 100
-0.83802599 1.2892377 0.077666558 65
-0.87196356 1.3019333 0.13282534 1
-0.82640034 1.2911968 0.025689943 99
-0.84153384 1.2969273 0.077980578 51
-0.83814114 1.2956426 0.12986206 3
-0.83587092 1.3000443 0.025899371 77
-0.83604795 1.300112 0.077771232 55
-0.84755594 1.3045133 0.13090792 20
-0.83970171 1.3067987 0.026004085 74
-0.82869309 1.3025464 0.077457212 72
-0.84763426 1.3098627 0.13108224 58
-0.83977693 1.3121309 0.026038991 81
-0.82505888 1.3063896 0.077352546 61
-0.85697335 1.3188388 0.1321281 100
-0.82289833 1.3113527 0.025759751 93
-0.81936759 1.3099605 0.0771432 65
-0.83085686 1.3144908 0.12986206 95
-0.81366414 1.3129436 0.025620133 100
-0.83798093 1.3226254 0.07829459 91
-0.83089465 1.319804 0.13003637 97
-0.81547111 1.3191926 0.025689943 100
-0.81751353 1.3200142 0.077247873 95
-0.83636099 1.3275946 0.13073361 100
-0.81364244 1.3237178 0.025689943 100
-0.81568211 1.324546 0.077247873 100
-0.83635038 1.3329384 0.13090792 100
-0.78713101 1.3129525 0.17719802 16
-0.81530374 1.3302302 0.025759751 100
-0.80070609 1.3242403 0.076515168 100
-0.82137507 1.3327215 0.12968774 100
-0.78880495 1.3193569 0.1776855 15
-0.80604857 1.3316936 0.025620133 100
-0.80439645 1.3310094 0.07682918 100
-0.80477566 1.3311665 0.12829325 100
-0.78697592 1.3237935 0.1776855 20
-0.79291278 1.3320279 0.025410704 100
-0.80601591 1.3375118 0.077038527 100
-0.81373733 1.3407433 0.12933913 100
-0.76662523 1.3210263 0.17524812 16
-0.79472584 1.3380344 0.025480513 100
-0.78940779 1.335788 0.076201156 100
-0.80816644 1.3437119 0.1289905 100
-0.77576262 1.330024 0.17671055 20
-0.80367023 1.3476685 0.025689943 81
-0.79099911 1.3422612 0.076410495 45
-0.82071453 1.3549421 0.130385 90
-0.75909477 1.3286463 0.17476064 15
-0.82011324 1.360064 0.026038991 59
-0.81660968 1.3585551 0.077980578 55
-0.79369897 1.3486881 0.17963541 5
-0.79960436 1.3571048 0.025689943 99
-0.80162305 1.3579829 0.077247873 100
-0.80198151 1.3581388 0.1289905 60
-0.79338926 1.3544011 0.17987914 19
-0.79215688 1.3591657 0.025585229 100
-0.80698103 1.3656731 0.077666558 100
-0.81279427 1.3682249 0.13021068 100
-0.78235561 1.3548632 0.17866045 38
-0.79364461 1.3657019 0.025655037 100
-0.80113691 1.3690236 0.077457212 100
-0.82152098 1.3780608 0.13125655 100
-0.76749986 1.3541107 0.17695428 33
-0.80261415 1.3750536 0.025864467 100
-0.80278939 1.3751318 0.077666558 100
-0.80858463 1.3777243 0.13021068 100
-0.7601195 1.3560448 0.17622307 24
-0.80231649 1.3805943 0.025899371 100
-0.80248922 1.3806722 0.077771232 100
-0.80645508 1.382463 0.13021068 100
-0.78158563 1.3712339 0.17939167 17
-0.79118532 1.3809307 0.025724847 100
-0.80409187 1.3868098 0.077980578 100
-0.79716402 1.3836541 0.12951343 100
-0.76151949 1.3674175 0.17695428 16
-0.78882962 1.386076 0.025724847 100
-0.81259972 1.397014 0.07860861 100
-0.80203766 1.3921537 0.13021068 100
-0.76101929 1.3732787 0.17719802 15
-0.79040688 1.3921962 0.025794657 100
-0.80688983 1.3998473 0.078399263 100
-0.81442457 1.4033449 0.13160518 100
-0.75000876 1.373444 0.17597933 11
-0.7954703 1.4002643 0.025934275 100
-0.79563969 1.4003437 0.077875905 100
-0.81220549 1.4081037 0.13160518 100
-0.76946598 1.388083 0.17890419 8
-0.80602914 1.4107025 0.02617861 100
-0.80257112 1.4090686 0.078399263 100
-0.8100819 1.4126174 0.13160518 100
-0.77997297 1.3983914 0.18061037 3
-0.79464728 1.4113638 0.026004085 100
-0.80923325 1.418321 0.078922622 100
-0.80412096 1.4158826 0.13125655 100
-0.78350288 1.411485 0.025829561 100
-0.81427521 1.4262881 0.079341307 100
-0.80556256 1.4220967 0.13160518 100
-0.79193574 1.4216089 0.026038991 100
-0.79928404 1.4251771 0.07860861 100
-0.81033248 1.430542 0.13230242 100
-0.79695135 1.4295732 0.02617861 100
-0.79531032 1.4287696 0.078503937 100
-0.81887072 1.4403067 0.13334829 100
-0.79452485 1.4345055 0.02617861 100
-0.80004877 1.4372356 0.078922622 100
-0.80568784 1.4400227 0.13230242 100
-0.79231387 1.4389606 0.02617861 100
-0.80497903 1.4452723 0.079341307 100
-0.80345851 1.4445146 0.13230242 100
-0.78627998 1.4420788 0.0261088 100
-0.80606347 1.4520289 0.079550654 100
-0.80453712 1.4512612 0.13265105 100
-0.79117793 1.450124 0.02624842 100
-0.80557567 1.4574254 0.079655327 100
-0.81293231 1.4611559 0.13369691 100
-0.80291742 1.4623227 0.026527658 100
-0.79593509 1.4587498 0.079236634 100
-0.81393725 1.467962 0.13404553 100
-0.79705983 1.4649718 0.026457848 100
-0.79719359 1.4650407 0.07944598 100
-0.80276209 1.4679136 0.13317397 100
-0.79119974 1.4675894 0.026388038 100
-0.80196899 1.4731908 0.079864666 100
-0.80044025 1.4723957 0.13317397 100
-0.78887898 1.4720331 0.026388038 99
-0.8031674 1.4795252 0.080074012 100
-0.80869085 1.4824214 0.13421984 100
-0.78099424 1.4741304 0.026283324 68
-0.78643435 1.4770083 0.079236634 91
-0.8078317 1.4883281 0.13439415 91
-0.79841 1.4890769 0.13369691 19
0.13251561 1.2883189 0.1293685 11
0.19794512 1.2070863 0.12957181 8
0.15417483 1.2651323 0.011064826 25
0.15964565 1.2582889 0.032762308 29
0.14691231 1.2742169 0.056476921 24
0.12855595 1.2971785 0.082871154 13
0.14048642 1.2822549 0.10387249 11
0.15280673 1.2668436 0.12364423 42
0.16036621 1.2573875 0.16719711 7
0.16079283 1.2601779 0.010925206 100
0.1674768 1.2517599 0.032238949 90
0.15602016 1.2661887 0.055431053 99
0.16363508 1.2565982 0.076290213 29
0.17166781 1.2464817 0.096363634 25
0.17032707 1.2481701 0.1186832 100
0.17676935 1.2400566 0.13856985 29
0.15117303 1.2722933 0.17185585 29
0.16506746 1.2584599 0.010855397 100
0.17542619 1.2453152 0.031715591 100
0.15784141 1.2676294 0.055431053 100
0.17033586 1.2517745 0.075315252 30
0.16608068 1.2571741 0.098240845 36
0.16236085 1.2618945 0.12173614 100
0.19055656 1.2261156 0.13407083 38
0.15182096 1.275269 0.17237349 42
0.16422436 1.2628832 0.010925206 100
0.17454243 1.2497003 0.031924933 100
0.15212575 1.2783408 0.056476921 100
0.16826504 1.2577206 0.076046467 29
0.1774385 1.2460002 0.095737889 25
0.16399416 1.2631772 0.12173614 100
0.19447327 1.2242358 0.13317102 31
0.14873591 1.2826718 0.17444403 42
0.15858516 1.2737007 0.011134636 100
0.16764063 1.2620475 0.032657638 88
0.16246027 1.268714 0.055256739 99
0.16266158 1.2684549 0.077508904 29
0.17910233 1.2472978 0.095737889 25
0.1753552 1.2521198 0.1186832 100
0.18888658 1.2347066 0.13587044 30
0.1457864 1.2901711 0.1765146 41
0.17003176 1.2623315 0.010855397 78
0.18635824 1.241177 0.03119223 63
0.1628989 1.2715735 0.055431053 49
0.17038083 1.2618791 0.076290213 44
0.1734457 1.2579079 0.097615108 37
0.1832858 1.245158 0.13856985 22
0.15459546 1.2823325 0.17340876 49
0.18165037 1.2510849 0.010576159 67
0.16995719 1.2663568 0.032762308 29
0.1708838 1.2651466 0.054559495 50
0.18313348 1.2491479 0.07409656 61
0.18612993 1.2452343 0.094799288 51
0.18955642 1.2407591 0.11524864 20
0.19577527 1.2326369 0.13452072 31
0.16008887 1.2792454 0.17185585 50
0.17598531 1.2618543 0.010785587 52
0.16676953 1.2739737 0.033180997 28
0.16770393 1.2727449 0.055256739 49
0.18232128 1.253522 0.074584037 61
0.18770787 1.2464383 0.094799288 51
0.19587287 1.2357008 0.11372216 13
0.20320916 1.2260531 0.13227122 47
0.16762641 1.2728467 0.16926765 66
0.18019968 1.2600294 0.010715778 39
0.16140071 1.2849402 0.033809029 28
0.17554995 1.2661909 0.054385185 51
0.19366208 1.2421901 0.072634131 63
0.19897583 1.2351488 0.092296332 53
0.19639954 1.2385627 0.11410378 13
0.20957848 1.221099 0.13047162 48
0.1752905 1.2665347 0.16667947 67
0.17463112 1.2708541 0.010925206 39
0.17029727 1.2766368 0.033180997 28
0.18078208 1.2626469 0.053862248 51
0.18808687 1.2529001 0.07409656 61
0.20644364 1.2284067 0.090731993 54
0.19324565 1.2460167 0.11563025 13
0.21224496 1.2206661 0.13002171 32
0.18041483 1.2631369 0.16512655 68
0.18354374 1.2625352 0.010715778 66
0.17445248 1.2747543 0.032971654 29
0.182504 1.2639327 0.053862248 51
0.1921446 1.2509753 0.073609084 77
0.20215011 1.2375274 0.092296332 53
0.20311284 1.2362334 0.11295892 13
0.21498337 1.2202787 0.12957181 32
0.18790433 1.2566744 0.16253836 70
0.19120553 1.2557689 0.010541254 81
0.20113558 1.2423246 0.030773543 64
0.17949548 1.271623 0.054559495 76
0.19736385 1.2474312 0.072877869 63
0.20613143 1.2355609 0.091670595 81
0.21174088 1.2279663 0.11066922 14
0.21076825 1.2292831 0.13182132 31
0.18271881 1.267259 0.16564418 68
0.18580875 1.2666942 0.010750682 79
0.21459642 1.2274327 0.029726824 67
0.18596122 1.2664863 0.053862248 77
0.20490158 1.2406549 0.071659178 96
0.20308641 1.2431304 0.092922069 92
0.20985886 1.233894 0.11181407 14
0.22504893 1.2131773 0.12687239 16
0.18674144 1.2654221 0.16460891 69
0.18989834 1.2647289 0.010680873 80
0.20326614 1.2463634 0.030878214 63
0.186524 1.2693648 0.054036561 77
0.20421013 1.2450665 0.072146654 79
0.20474005 1.2443385 0.092922069 100
0.20339274 1.2461896 0.1144854 13
0.22659788 1.214309 0.12687239 16
0.19074675 1.2635633 0.16357364 77
0.1937978 1.2626169 0.010611063 81
0.21646729 1.2312657 0.029831495 66
0.1915969 1.2656606 0.053513627 100
0.18825689 1.2702798 0.075802729 100
0.21201926 1.2374171 0.09135773 94
0.21294299 1.2361397 0.11181407 14
0.19456303 1.2615585 0.16253836 70
0.20018375 1.2573591 0.010471444 96
0.21575019 1.2356722 0.03004084 99
0.19565284 1.2636715 0.053165004 100
0.20505342 1.2505748 0.072634131 94
0.20789355 1.2466179 0.092922069 100
0.21228257 1.2405032 0.1125773 13
0.24546051 1.1942801 0.12057377 17
0.19628108 1.2627963 0.16253836 70
0.20884934 1.2488058 0.010262015 84
0.21505979 1.2400893 0.030250182 65
0.1927537 1.2713959 0.053862248 100
0.20788494 1.2501593 0.072390392 47
0.20955935 1.2478092 0.092922069 100
0.21164852 1.244877 0.11334054 20
0.22998127 1.219147 0.1273223 16
0.1968824 1.2656013 0.163056 70
0.20821339 1.2532589 0.010331824 98
0.22592896 1.2282104 0.029412808 67
0.19450608 1.27264 0.053862248 100
0.21529436 1.243247 0.071171694 81
0.21236992 1.2473819 0.092609204 100
0.20650637 1.2556725 0.11563025 40
0.22704998 1.2266254 0.1291219 24
0.20307654 1.2605219 0.16098544 72
0.20530644 1.2609956 0.010471444 82
0.21490702 1.2473202 0.030564198 97
0.19168365 1.2804005 0.054559495 100
0.21124539 1.2525359 0.072390392 47
0.22084838 1.238857 0.090731993 95
0.19579533 1.2745436 0.11982805 89
0.23648378 1.2165854 0.12597258 49
0.19813094 1.2712166 0.16409127 69
0.20244941 1.2687584 0.010611063 94
0.22114268 1.2419323 0.030145511 98
0.20713645 1.2620323 0.052467756 100
0.20952708 1.2586014 0.073121607 78
0.22700444 1.2335203 0.089480512 97
0.21551746 1.2500049 0.11372216 89
0.22801742 1.2320666 0.13002171 88
0.20982289 1.258177 0.15943253 73
0.21101767 1.2601007 0.010401634 97
0.22506434 1.2397921 0.029936166 99
0.21112278 1.2599487 0.052119136 100
0.20671782 1.2663175 0.07409656 61
0.21851116 1.2492666 0.092296332 100
0.22389582 1.2414815 0.11143246 91
0.22852376 1.2347904 0.13047162 88
0.21372688 1.2561837 0.15839726 73
0.21725762 1.2546866 0.010262015 98
0.21992379 1.250803 0.030564198 97
0.20832452 1.267699 0.05281638 100
0.22193453 1.247874 0.071171694 81
0.22801223 1.2390211 0.090106249 96
0.22443241 1.2442355 0.11181407 98
0.2202217 1.2503691 0.13452072 93
0.21105251 1.2637253 0.1604678 72
0.21444744 1.2624553 0.010401634 83
0.23060128 1.2387481 0.029726824 67
0.2055763 1.2754745 0.053513627 100
0.23031136 1.2391735 0.069709264 66
0.22853905 1.2417746 0.090419121 100
0.22719529 1.2437466 0.11143246 91
0.22958177 1.2402443 0.13137141 94
0.2051633 1.2760807 0.16409127 69
0.21952921 1.2586542 0.010296919 42
0.22664508 1.2481322 0.030250182 32
0.20511052 1.2799746 0.053862248 77
0.23195106 1.2402866 0.069709264 83
0.23240104 1.2396212 0.089793384 100
0.22775111 1.2464969 0.11181407 84
0.23995873 1.2284459 0.1277722 97
0.20909643 1.2740808 0.163056 70
0.22115144 1.2597475 0.010296919 42
0.22600564 1.2525182 0.030459527 32
0.21124622 1.2744992 0.053165004 52
0.22687271 1.2512269 0.071171694 81
0.24056724 1.230832 0.087916173 100
0.22276646 1.2573423 0.11410378 96
0.23713535 1.235943 0.12957181 96
0.21615449 1.2671893 0.1604678 72
0.22286299 1.2608924 0.010296919 28
0.21218568 1.2769144 0.031924933 30
0.216324 1.2707046 0.05264207 53
0.23075616 1.2490481 0.070684217 81
0.24217772 1.2319093 0.087916173 100
0.23862308 1.2372432 0.10914274 85
0.23552167 1.2418971 0.13092151 100
0.22646257 1.255491 0.1563267 74
0.23119727 1.2520239 0.010087491 43
0.20955008 1.284754 0.032343622 30
0.21147925 1.2818372 0.053687938 52
0.23243031 1.2501595 0.070684217 81
0.236164 1.2445142 0.090106249 96
0.23917294 1.2399648 0.10952436 85
0.23394576 1.2478682 0.13227122 94
0.22389641 1.2630626 0.15839726 73
0.21971425 1.2731948 0.010506349 27
0.18833387 1.3210032 0.03454173 27
0.22638738 1.2630281 0.051596198 54
0.2395547 1.2429675 0.069465525 99
0.24107412 1.2406527 0.089167647 98
0.23866072 1.2443295 0.1102876 99
0.23989311 1.2424519 0.13047162 100
0.22349939 1.2674279 0.15943253 73
0.22583854 1.2676423 0.010366729 27
0.22732359 1.2653625 0.030982886 31
0.21723568 1.2808491 0.053339314 52
0.23362321 1.2556915 0.071171694 81
0.24595344 1.2367625 0.088229038 98
0.23924676 1.2470584 0.11066922 92
0.25005329 1.2304686 0.12687239 90
0.22312889 1.2718021 0.1604678 72
0.22757763 1.2687708 0.010366729 41
0.242066 1.246358 0.029726824 33
0.22767398 1.2686217 0.051944822 54
0.23747584 1.2534587 0.070684217 65
0.25294656 1.2295263 0.086664692 86
0.23878229 1.2514378 0.11143246 84
0.24425691 1.2429688 0.13002171 96
0.22802877 1.2680728 0.15891489 73
0.23579898 1.2597944 0.0101573 71
0.24912274 1.2390245 0.029203463 68
0.24017429 1.2529739 0.050201707 56
0.23487794 1.2612301 0.071659178 64
0.25241923 1.2338858 0.087290429 71
0.23940465 1.2541736 0.11181407 100
0.24906638 1.2391124 0.128672 89
0.23602793 1.2594374 0.15580906 75
0.24824905 1.2440192 0.0098082526 74
0.24968925 1.2417568 0.029308135 68
0.23544252 1.2641369 0.051247578 82
0.24618864 1.2472558 0.069465525 49
0.24979714 1.2415873 0.08854191 84
0.2516394 1.2386932 0.10799789 79
0.2454733 1.2483796 0.13092151 88
0.23773828 1.2605305 0.15580906 75
0.24563372 1.2518321 0.0099478718 73
0.24600455 1.251245 0.029831495 99
0.23610526 1.2669163 0.051421888 82
0.24997672 1.2449569 0.068978049 50
0.25355506 1.2392921 0.087916173 56
0.24279237 1.2563303 0.11181407 100
0.25651166 1.2346116 0.12687239 99
0.230167 1.276317 0.1604678 72
0.23775911 1.2681408 0.010262015 84
0.25405076 1.2421496 0.029203463 100
0.23149276 1.2781379 0.052467756 80
0.25374505 1.2426373 0.068490572 50
0.25309673 1.2436715 0.08854191 70
0.24970528 1.2490822 0.10990598 85
0.26020521 1.2323309 0.12597258 99
0.23193631 1.2774303 0.1604678 64
0.24478045 1.2607374 0.010087491 71
0.25148132 1.2499636 0.029622151 100
0.23537296 1.2758629 0.052119136 81
0.25329983 1.2470398 0.068978049 50
0.26518476 1.227931 0.085413218 58
0.24204755 1.2651315 0.11334054 100
0.2607916 1.2349944 0.12642249 99
0.23370951 1.2785375 0.1604678 64
0.24325803 1.2668515 0.010192205 85
0.25097618 1.2543499 0.029831495 99
0.24019212 1.2718176 0.051596198 82
0.25071213 1.2547777 0.069953002 49
0.26462945 1.2322347 0.086038955 72
0.26019263 1.2394214 0.10723466 81
0.26028773 1.2392673 0.1273223 97
0.2455461 1.2631454 0.15529142 67
0.25543964 1.2508672 0.0098431576 88
0.25475523 1.2519845 0.029622151 100
0.25235292 1.2559062 0.049853086 85
0.25033233 1.2592049 0.070440479 49
0.26521286 1.2349125 0.086351827 58
0.25567997 1.2504749 0.10952436 85
0.25989169 1.2435992 0.12822211 97
0.24525115 1.2674998 0.1563267 66
0.25495809 1.2552587 0.0099129668 87
0.25427994 1.256374 0.029831495 99
0.24568522 1.27051 0.051247578 82
0.26020658 1.2466265 0.068490572 50
0.25957242 1.2476695 0.08854191 56
0.26645443 1.2363505 0.1060898 73
0.27158788 1.2279074 0.12372308 92
0.24288806 1.2751105 0.15839726 65
0.25260821 1.2631866 0.010052586 86
0.26534677 1.2420614 0.028889447 100
0.24649286 1.2733281 0.051421888 82
0.25785515 1.2544851 0.069465525 49
0.26540533 1.2419642 0.087290429 71
0.26005524 1.2508366 0.10914274 85
0.27427438 1.2272561 0.12327318 85
0.24075112 1.28285 0.1604678 64
0.25321838 1.2658859 0.010087491 71
0.26793942 1.2412889 0.028784776 100
0.25634903 1.260655 0.050027397 85
0.25232738 1.2673748 0.071171694 65
0.26900086 1.2395153 0.086664692 71
0.2586267 1.2568493 0.1102876 85
0.27479145 1.22984 0.12372308 92
0.25732607 1.2590225 -0.0099478718 86
0.24443766 1.2805574 0.15943253 65
0.2621823 1.254933 0.0098431576 88
0.26151356 1.2560598 0.029622151 100
0.25509864 1.266868 0.05055033 84
0.25921825 1.259927 0.069953002 49
0.27576467 1.2320486 0.085100345 58
0.26442119 1.2511609 0.10876112 79
0.27448943 1.2341971 0.12462288 75
0.25715706 1.2633998 0.15373851 76
0.26988152 1.2455468 0.0096337283 90
0.26109961 1.2604555 0.029831495 100
0.26079279 1.2609764 0.049853086 100
0.2608445 1.2608886 0.069953002 99
0.27328807 1.2397636 0.086351827 58
0.27000406 1.2453388 0.10723466 81
0.27504122 1.2367873 0.12507279 83
0.25585335 1.2693619 0.15529142 67
0.26557475 1.2569306 0.0098431576 88
0.2689434 1.2511635 0.029203463 100
0.26259425 1.2620331 0.049853086 85
0.27165675 1.2465183 0.067759357 34
0.27401537 1.2424804 0.086664692 57
0.26877749 1.2514476 0.10837951 79
0.28461713 1.2243304 0.12147357 86
0.25378805 1.2771091 0.15736198 66
0.2651853 1.2613311 0.0099129668 87
0.27254382 1.248637 0.028994121 100
0.25823224 1.2733258 0.050898954 83
0.26626965 1.2594606 0.069465525 49
0.27855572 1.238266 0.08572609 58
0.26643717 1.2591715 0.10990598 78
0.28612521 1.2252079 0.12147357 86
0.25740901 1.2747459 0.1563267 66
0.2699776 1.2571707 0.0098082526 89
0.2762906 1.2461876 0.028784776 100
0.26702914 1.2623003 0.049678773 86
0.274001 1.2501709 0.068003096 51
0.28322703 1.2341199 0.084787481 59
0.26725364 1.2619097 0.1102876 85
0.28585315 1.2295511 0.12237337 76
0.26696268 1.2624159 0.1521856 69
0.27456695 1.2528856 0.0097035384 90
0.27589208 1.2505623 0.028994121 100
0.26767609 1.2649665 0.049853086 85
0.27362776 1.2545321 0.068490572 50
0.28183141 1.2401496 0.08572609 58
0.28250438 1.2389698 0.10494494 75
0.28448197 1.2355027 0.12372308 75
0.27051145 1.2599956 0.15115032 69
0.28126064 1.2451887 0.0095290141 76
0.27568889 1.2550408 0.029203463 100
0.27439612 1.2573266 0.048981529 87
0.2754055 1.2555418 0.068490572 50
0.28161156 1.2445682 0.086351827 58
0.28035921 1.2467825 0.10647142 81
0.28714919 1.2347765 0.12327318 85
0.26850525 1.267743 0.15322088 68
0.27892342 1.2530527 0.0096686333 75
0.28120854 1.2489808 0.028784776 100
0.2721135 1.265188 0.049678773 86
0.28284594 1.246063 0.067028143 51
0.27835318 1.254069 0.087916173 56
0.27905941 1.2528105 0.10761628 87
0.29059926 1.2322466 0.12237337 85
0.27393904 1.2619349 0.15115032 69
0.2797235 1.2557905 0.0097035384 90
0.28490797 1.2464721 0.028575432 100
0.26714966 1.2783905 0.050898954 83
0.28266236 1.2505083 0.067515619 51
0.28973314 1.2377994 0.084787481 59
0.28083083 1.2538003 0.10761628 87
0.29703245 1.2246797 0.12012386 77
0.27291799 1.2680227 -0.0099478718 86
0.26823005 1.2764487 0.15529142 67
0.27650383 1.2654374 0.0098780617 88
0.28841993 1.2438514 0.028366089 100
0.27846596 1.261883 0.049155839 87
0.28041983 1.2583437 0.068490572 50
0.29510453 1.2317424 0.083536007 60
0.28243664 1.2546902 0.10761628 79
0.29759982 1.2272222 0.12057377 86
0.27843669 1.2619361 -0.0098082526 88
0.27364558 1.2706151 0.15322088 68
0.28216153 1.2594197 0.0097384425 90
0.28248784 1.2588234 0.029203463 100
0.28314009 1.2576317 0.048632905 88
0.28888237 1.2471387 0.066784397 34
0.29300532 1.2396049 0.084787481 59
0.28798494 1.2487787 0.1060898 81
0.29366413 1.2384012 0.12327318 76
0.28024155 1.2629281 -0.0098082526 88
0.28290167 1.2580673 0.14907977 70
0.28664848 1.2550331 0.0096337283 90
0.2822043 1.2632184 0.029412808 100
0.28665999 1.255012 0.048284281 88
0.28951886 1.2497466 0.067028143 51
0.2917363 1.2456626 0.08572609 58
0.29051083 1.2479196 0.10570818 100
0.29893824 1.2323983 0.12147357 86
0.28267804 1.2623458 0.15011504 70
0.28842801 1.2559952 0.0096337283 90
0.29347953 1.2466094 0.028366089 100
0.27710825 1.2770269 0.05037602 84
0.28845656 1.2559421 0.067759357 68
0.29722622 1.2396482 0.084474608 59
0.29226425 1.2488675 0.10570818 81
0.27899092 1.2735291 0.15322088 68
0.28533164 1.2656798 0.0098082526 74
0.29317996 1.2509812 0.028575432 100
0.28254488 1.2708989 0.049678773 86
0.29100445 1.2550555 0.067515619 51
0.29878503 1.2404839 0.084474608 59
0.2975525 1.2427921 0.10418171 75
0.28721541 1.2621518 -0.0097384425 88
0.27702248 1.2812414 0.15529142 75
0.28340855 1.2737162 0.0099478718 73
0.29494458 1.2519193 0.028575432 100
0.29649845 1.2489833 0.047412723 60
0.29278401 1.2560016 0.067515619 51
0.29102182 1.2593312 0.10761628 72
0.28902102 1.2631116 -0.0097384425 88
0.28793484 1.2651639 0.15011504 70
0.29251674 1.2604333 0.0096686333 75
0.29283044 1.2598358 0.028994121 100
0.29623592 1.2533493 0.047761347 90
0.29255155 1.260367 0.068003096 51
0.29812154 1.2497578 0.10532656 75
0.2850804 1.2745974 -0.0099478718 86
0.29227233 1.2608988 0.14856213 71
0.29985428 1.2507303 0.009459204 77
0.29923713 1.2519164 0.02847076 100
0.29249114 1.2648808 0.048807215 58
0.29251796 1.2648293 0.068490572 67
0.29407328 1.2618402 0.14856213 71
0.29038945 1.2729862 0.15166797 69
0.29502073 1.2684877 0.0097733475 100
0.29504499 1.2684402 0.048981529 58
0.2904675 1.2773893 -0.0099478718 100
0.29223472 1.2739344 0.15166797 69
0.29215151 1.2782471 -0.0099478718 100
0.29827744 1.2661723 0.14907977 78
0.29392719 1.279144 -0.0099478718 100
0.29918355 1.281754 -0.0099478718 100
