# .PCD v0.7 - Point Cloud Data file format
VERSION 0.7
FIELDS x y z intensity
SIZE 4 4 4 4
TYPE F F F F
COUNT 1 1 1 1
WIDTH 743
HEIGHT 1
VIEWPOINT 0 0 0 1 0 0 0
POINTS 743
DATA ascii
0.12158793 0.027968526 0.044904251 13
0.08942607 0.0028697848 0.046893016 21
0.055356383 0.0015799999 0.015951499 119
0.061382979 0.016732574 0.015672261 100
0.051109225 0.00089418888 0.04804441 52
0.049043655 0.0032907128 0.015986403 35
0.052931339 0.0092408061 0.047625721 32
0.046850622 0.0060638189 0.047939736 100
0.044320107 0.0077365041 0.047939736 100
0.036646485 0.0080617666 0.048149079 35
0.033989906 0.0098583698 0.048149079 17
0.035980999 0.018168688 0.047730394 19
0.021896124 0.0036116242 0.048777111 8
0.026189923 0.015212178 0.048149079 8
0.028136134 0.023592651 0.047730394 9
0.018633008 0.015621722 0.048358422 8
0.011379659 0.010965824 0.048777111 8
-0.73116535 0.57578444 0.022618318 3
-0.72985739 0.58055055 0.022583414 24
-0.73842746 0.58387566 0.022723034 39
-0.74692601 0.58680552 0.022862652 40
-0.74359554 0.59187931 0.022792842 43
-0.72045583 0.59980786 0.022373985 61
-0.71905929 0.6045022 0.02233908 73
-0.7295199 0.60745144 0.022513604 72
-0.73206407 0.61167371 0.02254851 63
-0.76834732 0.61186302 0.023176795 36
-0.80067176 0.61276627 0.023735274 31
-0.86678594 0.61008036 0.024887132 13
-0.92498308 0.60872358 0.025899371 2
-1.042835 1.1333452 0.028517231 3
-1.0175273 1.1275723 0.084260888 5
-1.0409005 1.1329039 0.14276111 6
-1.043505 1.1393546 0.028552137 8
-0.99097592 1.127179 0.082900152 15
-1.0240965 1.134856 0.14136662 26
-0.99159795 1.1329981 0.027644612 22
-1.0091605 1.1371336 0.083946876 82
-1.0169952 1.1389784 0.14084367 78
-0.9805972 1.1360514 0.027470088 37
-1.0117545 1.143503 0.084156215 100
-1.0156977 1.1444459 0.14084367 87
-0.98902613 1.1437516 0.027644612 41
-0.97744685 1.1409395 0.082376793 100
-1.0047004 1.1475581 0.13997212 87
-0.98958737 1.1498688 0.027679516 26
-0.97219878 1.1455785 0.082167454 100
-1.0013719 1.1527765 0.13979781 86
-0.97855312 1.1528118 0.027504992 23
-0.99025279 1.1557418 0.083214171 60
-0.99229544 1.1562533 0.13910057 84
-0.96758443 1.1554173 0.027330469 38
-0.98509353 1.1598641 0.083004825 33
-0.98521286 1.1598943 0.13857763 77
-0.95848411 1.1587163 0.027190849 59
-0.99339372 1.1677121 0.083528183 46
-0.97805446 1.1637594 0.1380547 89
-0.96091837 1.1652548 0.027260659 66
-0.97260326 1.1683116 0.082481466 100
-0.98431104 1.1713743 0.13875194 91
-0.96339518 1.1715522 0.027330469 75
-0.95382947 1.1690141 0.081539422 92
-0.98482639 1.1772386 0.13892625 98
-0.96012408 1.1760492 0.027295563 81
-0.95249802 1.1739987 0.081539422 92
-0.96999925 1.1787045 0.13770607 100
-0.94712192 1.1781622 0.027086135 89
-0.94915169 1.1787157 0.081434749 100
-0.96471888 1.1829598 0.13735744 99
-0.93797821 1.1812549 0.026946515 96
-0.95156604 1.1850103 0.081644088 100
-0.95558649 1.1861215 0.1366602 91
-0.94038481 1.1875253 0.027016325 96
-0.94241542 1.1880941 0.081225403 92
-0.95988041 1.1929868 0.13718314 98
-0.95053464 1.1957401 0.027225753 81
-0.92949218 1.1897699 0.080597371 86
-0.95655268 1.1974477 0.13700883 100
-0.97210151 1.2076058 0.027644612 50
-0.93377644 1.1965873 0.08091139 52
-0.94930702 1.2010523 0.13648589 100
-0.94368595 1.2050869 0.027155945 44
-0.93611354 1.2028811 0.081120729 22
-0.94779319 1.2062833 0.13648589 85
-0.9229787 1.2046388 0.026806897 66
-0.92693096 1.2058051 0.080702044 26
-0.94052833 1.2098173 0.13596296 84
-0.92336851 1.2103505 0.026841801 75
-0.91583258 1.2080982 0.080178685 28
-0.94661981 1.2172997 0.1366602 92
-0.92182249 1.2154908 0.026841801 75
-0.9181177 1.2143694 0.080388032 70
-0.93932849 1.2207896 0.13613728 98
-0.92217034 1.2212117 0.026876707 81
-0.91273838 1.2183208 0.080178685 100
-0.93012613 1.2236501 0.13544002 100
-0.9091273 1.2227919 0.026667276 85
-0.90544206 1.2216482 0.079864666 93
-0.91140777 1.2234995 0.13387123 84
-0.89227563 1.2230878 0.026388038 83
-0.91719478 1.230916 0.080597371 72
-0.91741902 1.2309866 0.13456847 57
-0.89830798 1.2305434 0.026527658 79
-0.89844674 1.2305876 0.079655327 74
-0.91200358 1.2348984 0.13421984 43
-0.90066153 1.236315 0.026597468 85
-0.88938695 1.2326908 0.079236634 89
-0.91243261 1.240099 0.13439415 45
-0.8990249 1.2413759 0.026597468 92
-0.89156169 1.2389481 0.07944598 100
-0.90509874 1.2433518 0.13387123 57
-0.885809 1.243181 0.026388038 100
-0.89544111 1.2463553 0.07976 100
-0.90137821 1.2483119 0.13369691 77
-0.87656039 1.2456598 0.02624842 100
-0.90134829 1.253925 0.080178685 100
-0.90915018 1.2565264 0.13456847 85
-0.878681 1.2519149 0.02631823 99
-0.88261789 1.2532429 0.079236634 100
-0.89800364 1.2584327 0.13369691 77
-0.88077515 1.2581905 0.026388038 93
-0.88092226 1.2582407 0.079236634 100
-0.90006119 1.264771 0.13404553 87
-0.87923449 1.2626829 0.026388038 93
-0.87749308 1.2620827 0.079131968 100
-0.88719791 1.2654282 0.13299966 100
-0.86240011 1.2624025 0.0261088 83
-0.8738808 1.2664051 0.079027295 97
-0.89486653 1.2737213 0.13387123 66
-0.85861331 1.2671566 0.026073895 75
-0.87573105 1.2731981 0.079236634 63
-0.89855808 1.2812548 0.13439415 38
-0.86440271 1.2747591 0.026213514 83
-0.85891742 1.2728015 0.078399263 25
-0.89488822 1.2856385 0.13421984 36
-0.86092871 1.278522 0.02617861 99
-0.85733086 1.2772253 0.078399263 31
-0.8801406 1.2854463 0.13299966 31
-0.86290282 1.2848132 0.02624842 96
-0.85555166 1.2821347 0.078399263 74
-0.87271672 1.288389 0.13247673 16
-0.84974843 1.2858393 0.026038991 100
-0.86116141 1.2900454 0.078817949 100
-0.85959023 1.2894664 0.13143086 13
-0.83669585 1.2865342 0.025829561 100
-0.84810776 1.2907851 0.078189917 95
-0.88017315 1.3027291 0.1335226 1
-0.83871847 1.2925382 0.025899371 100
-0.83515722 1.2911983 0.077561885 46
-0.88585776 1.3102756 0.13421984 1
-0.84062427 1.298804 0.025969181 88
-0.82586211 1.2931906 0.0771432 53
-0.85789102 1.3053701 0.13177948 9
-0.84427625 1.3060503 0.026073895 74
-0.83698481 1.303247 0.077875905 59
-0.85963863 1.3119566 0.1321281 45
-0.83866864 1.3094656 0.026004085 74
-0.83511502 1.3080852 0.077875905 68
-0.8428809 1.3111022 0.13073361 90
-0.82570261 1.3096859 0.025794657 88
-0.83332306 1.3126755 0.077875905 63
-0.84849793 1.3186285 0.13143086 100
-0.82195133 1.313748 0.025759751 100
-0.82027978 1.3130856 0.077247873 82
-0.83916551 1.3205705 0.13073361 99
-0.82747072 1.3215067 0.025899371 100
-0.82208413 1.3193501 0.077457212 97
-0.83723515 1.3254163 0.13073361 99
-0.82553715 1.3263117 0.025899371 100
-0.81830662 1.3233874 0.077352546 95
-0.82974678 1.3280141 0.13021068 100
-0.80517155 1.3233111 0.025550323 100
-0.82201117 1.3301867 0.077666558 97
-0.82419962 1.3310802 0.12986206 100
-0.81181544 1.3260238 0.18061037 22
-0.80323189 1.3280382 0.025550323 100
-0.81820101 1.3342111 0.077561885 100
-0.81670696 1.333595 0.12933913 100
-0.77683312 1.317152 0.17622307 15
-0.8013739 1.3325226 0.025550323 100
-0.79419583 1.3295348 0.076305822 100
-0.81850928 1.3396554 0.12968774 100
-0.77684397 1.3223119 0.17646681 18
-0.79940206 1.3372364 0.025550323 100
-0.79591686 1.3357713 0.076515168 100
-0.81651253 1.344429 0.12968774 100
-0.7858879 1.3315556 0.17792924 22
-0.80467635 1.345305 0.025689943 100
-0.79199582 1.3399198 0.076410495 81
-0.80156082 1.343982 0.12846756 100
-0.77651209 1.3333442 0.17695428 18
-0.81368703 1.3547587 0.025899371 57
-0.81019002 1.3532592 0.077561885 40
-0.80138022 1.3494815 0.12864187 43
-0.77271312 1.3371888 0.17671055 11
-0.80990523 1.3584836 0.025864467 83
-0.81558031 1.3609394 0.077980578 82
-0.81773633 1.3618724 0.130385 41
-0.77446872 1.3431487 0.17719802 7
-0.79868048 1.3592241 0.025689943 100
-0.8061884 1.3625041 0.077561885 100
-0.82844228 1.3722266 0.13160518 100
-0.77973622 1.3509474 0.17817298 26
-0.80382985 1.3673923 0.025829561 100
-0.79852587 1.365052 0.077247873 100
-0.82258016 1.3756661 0.13125655 100
-0.78849488 1.3606256 0.17963541 36
-0.80356294 1.3729281 0.025864467 100
-0.80556267 1.3738189 0.077771232 100
-0.80589765 1.3739681 0.12986206 100
-0.78279835 1.3636788 0.17914793 29
-0.79608423 1.3749542 0.025759751 100
-0.81266159 1.3824043 0.07829459 100
-0.80025274 1.3768276 0.12951343 100
-0.76452655 1.3607717 0.17695428 22
-0.79032212 1.3779972 0.025689943 100
-0.81415337 1.3888074 0.078503937 100
-0.80175513 1.3831832 0.12986206 100
-0.77149528 1.3694568 0.17817298 19
-0.79364628 1.3851693 0.025794657 100
-0.80472106 1.3902397 0.078085244 100
-0.81409889 1.3945332 0.13125655 100
-0.76578492 1.3724134 0.1776855 15
-0.80238241 1.3948884 0.026004085 100
-0.8007347 1.3941271 0.077980578 100
-0.81371921 1.4001267 0.13143086 100
-0.76727813 1.378668 0.17817298 12
-0.80200523 1.4004505 0.026038991 100
-0.80940872 1.4039026 0.07860861 100
-0.80248278 1.4006732 0.1305593 100
-0.77414101 1.3874571 0.17939167 12
-0.79436821 1.4026117 0.025934275 100
-0.81080204 1.4103448 0.078817949 100
-0.80387861 1.4070868 0.13090792 100
-0.78095847 1.3963015 0.18061037 5
-0.78876072 1.4051178 0.025864467 100
-0.81239265 1.4163289 0.079027295 100
-0.80187052 1.4113371 0.13090792 100
-0.7574622 1.3902695 0.1776855 3
-0.78833932 1.4106505 0.025899371 100
-0.8011207 1.4167688 0.078503937 100
-0.81040615 1.4212136 0.13195379 100
-0.7967853 1.4207715 0.0261088 100
-0.80053943 1.4225855 0.07860861 100
-0.80442232 1.4244617 0.13160518 100
-0.80529028 1.4307265 0.02631823 100
-0.80004853 1.4281709 0.078713275 100
-0.80571145 1.4309318 0.13195379 100
-0.78873545 1.4281591 0.026038991 100
-0.80502802 1.436169 0.079131968 100
-0.80351216 1.4354239 0.13195379 100
-0.79001278 1.4346051 0.0261088 100
-0.81343001 1.4462194 0.07976 100
-0.80475098 1.4419149 0.13230242 100
-0.79114431 1.4413023 0.02617861 100
-0.7984404 1.4449543 0.079027295 100
-0.80762416 1.4495512 0.13282534 100
-0.79593307 1.4495848 0.02631823 100
-0.79251033 1.4478567 0.078817949 100
-0.81235796 1.4578781 0.1335226 100
-0.80424398 1.4597241 0.026527658 100
-0.80081433 1.4579773 0.07944598 100
-0.80639774 1.460821 0.13317397 100
-0.79471332 1.4607921 0.026388038 100
-0.80551082 1.4663389 0.079864666 100
-0.79688925 1.4619099 0.13247673 100
-0.78898484 1.4631746 0.02631823 100
-0.80863756 1.4733486 0.080178685 100
-0.79824764 1.4679698 0.13282534 100
-0.7901023 1.4696953 0.026388038 100
-0.79378098 1.471616 0.07944598 100
-0.81346446 1.4818932 0.13456847 100
-0.79119045 1.4762323 0.026457848 100
-0.79309088 1.4772329 0.079550654 100
-0.80391949 1.4829351 0.13387123 100
-0.80284601 1.4884126 0.026737086 37
-0.78885001 1.4809802 0.07944598 38
-0.8067016 1.4904602 0.13439415 66
0.12050396 1.3013308 0.13280307 5
0.15831679 1.2582017 0.010925206 13
0.13879624 1.2825325 0.03443706 27
0.098654032 1.3325665 0.063100755 19
0.14088297 1.2799315 0.12707879 17
0.12808403 1.2958844 0.18065569 6
0.16749892 1.2501813 0.010715778 39
0.16547611 1.2527206 0.032343622 60
0.15027571 1.2718029 0.056128297 48
0.14802918 1.274623 0.079215072 28
0.15368891 1.267518 0.10074379 11
0.14633512 1.2767497 0.12593393 72
0.20031512 1.2089847 0.12957181 16
0.14918086 1.2731773 0.17237349 14
0.15668598 1.2671294 0.011064826 100
0.17203587 1.2477279 0.031924933 100
0.14699712 1.2793756 0.056825545 95
0.15955821 1.263499 0.077265166 29
0.17495129 1.2440429 0.095737889 25
0.1577628 1.2657683 0.122881 100
0.19330889 1.2208399 0.13272113 39
0.14725572 1.2790487 0.1739264 35
0.15595317 1.2716444 0.011134636 100
0.17370579 1.2490443 0.031924933 100
0.15370059 1.2745121 0.056128297 100
0.16618818 1.2586147 0.076290213 29
0.18148923 1.2391355 0.094486415 39
0.16192123 1.2640467 0.12211776 100
0.18766212 1.231277 0.13542053 38
0.15619516 1.2713363 0.17082056 36
0.1662291 1.2619119 0.010890301 100
0.17652494 1.2487148 0.03182026 91
0.1578269 1.2726817 0.055779677 98
0.16903165 1.2583196 0.076046467 29
0.19033742 1.2310102 0.092609204 26
0.17684552 1.2483039 0.11791996 100
0.18200162 1.2416949 0.13811995 30
0.15310663 1.2787321 0.17289113 35
0.17284662 1.2569247 0.010750682 79
0.168414 1.2626475 0.032657638 59
0.15958396 1.2740476 0.055779677 73
0.17316967 1.2565076 0.07555899 30
0.1677562 1.2634968 0.098866582 24
0.18092179 1.2464993 0.11715672 39
0.18842366 1.236814 0.13632034 22
0.15488485 1.2801144 0.17289113 35
0.17332959 1.2598236 0.010785587 65
0.17622355 1.2560602 0.032134276 30
0.16620398 1.2690897 0.055082429 50
0.18818125 1.2405103 0.072877869 47
0.17791036 1.2538667 0.096676499 50
0.18737447 1.2415595 0.11563025 20
0.18767947 1.2411629 0.13722014 22
0.14842439 1.2922103 0.1765146 55
0.16776097 1.270672 0.010995016 51
0.17549852 1.2605369 0.032343622 30
0.16673943 1.27201 0.055256739 49
0.1765753 1.2591265 0.07555899 30
0.19038993 1.2410316 0.093860678 52
0.19378811 1.2365805 0.11410378 20
0.20824695 1.2176418 0.13002171 32
0.16666174 1.2721118 0.16926765 66
0.17192677 1.2688159 0.010925206 52
0.16997454 1.2713916 0.032971654 29
0.17330807 1.2669934 0.054559495 50
0.18188217 1.255681 0.074827775 45
0.1968092 1.2359868 0.092609204 53
0.19541895 1.2378211 0.11410378 13
0.20274884 1.2281504 0.13272113 47
0.17658523 1.2626697 0.16564418 68
0.17847958 1.263741 0.010785587 39
0.16932529 1.2759068 0.033180997 28
0.17504519 1.2683053 0.054559495 50
0.18238622 1.2585492 0.075071514 60
0.19725022 1.2387953 0.092922069 53
0.19587368 1.2406247 0.1144854 13
0.20669359 1.2262454 0.13182132 39
0.18295339 1.2577955 0.16357364 69
0.18969515 1.2521555 0.010506349 54
0.17817843 1.267567 0.032552965 29
0.18027765 1.2647579 0.054036561 51
0.19232631 1.2486346 0.073365346 46
0.19171193 1.2494566 0.094799288 51
0.20213714 1.2355058 0.11295892 13
0.2058754 1.2305033 0.13272113 31
0.18226016 1.262105 0.16460891 85
0.18065754 1.2678645 0.010820492 78
0.20847696 1.2303646 0.03004084 33
0.1748845 1.2756464 0.055082429 50
0.19518197 1.2482859 0.073121607 62
0.19574162 1.2475314 0.094173551 65
0.20844305 1.2304103 0.11143246 14
0.21445134 1.2223113 0.13002171 32
0.17822513 1.2711432 0.16719711 75
0.18722689 1.2627733 0.010680873 80
0.21135065 1.2300048 0.029936166 66
0.17201549 1.2834358 0.055779677 49
0.20399863 1.2399914 0.071659178 64
0.20217869 1.2424636 0.092922069 79
0.20314926 1.2411451 0.11372216 13
0.22073272 1.2172607 0.12822211 24
0.18120974 1.2709467 0.16667947 67
0.19130901 1.2608076 0.010611063 81
0.20706609 1.2392467 0.030459527 97
0.17968798 1.2767091 0.054908119 100
0.19392842 1.2572235 0.07409656 76
0.20849225 1.2372954 0.091670595 100
0.20016235 1.2486933 0.11524864 13
0.2268953 1.2121139 0.12642249 16
0.19321948 1.2581935 0.16202073 70
0.19537297 1.2588196 0.010541254 95
0.19932351 1.2533741 0.031296901 62
0.19549865 1.2586462 0.05281638 100
0.20029405 1.2520363 0.073121607 78
0.20432559 1.2464792 0.093234941 92
0.21682265 1.2292532 0.1102876 14
0.25933769 1.1706502 0.11427514 18
0.1926569 1.2625633 0.163056 70
0.20409304 1.2503183 0.010331824 84
0.21268475 1.2383881 0.030250182 65
0.19254917 1.2663479 0.053513627 100
0.20661908 1.2468107 0.072146654 63
0.20599091 1.2476829 0.093234941 100
0.21613315 1.2335997 0.11105084 14
0.23454499 1.2080333 0.12462288 8
0.19776532 1.2591047 0.16150309 70
0.19646832 1.2645369 0.010611063 94
0.22361392 1.2265643 0.029412808 67
0.1942839 1.2675925 0.053513627 100
0.20713112 1.2496213 0.072390392 63
0.2122556 1.2424529 0.091983467 100
0.21432823 1.2395536 0.11219569 21
0.24627563 1.194864 0.12057377 17
0.19947478 1.2603313 0.16150309 70
0.2051402 1.255983 0.010401634 83
0.21480706 1.2423604 0.030354854 97
0.18679884 1.2818301 0.054908119 100
0.20765862 1.252434 0.072634131 78
0.22076586 1.233963 0.090106249 96
0.20801622 1.2519301 0.11486702 20
0.23873848 1.2086357 0.12417299 16
0.19559854 1.2694293 0.16409127 69
0.20445001 1.2603933 0.010471444 82
0.21062317 1.2516325 0.030878214 95
0.19767913 1.2700022 0.053513627 100
0.21154714 1.2503213 0.072146654 79
0.22344404 1.2334375 0.089793384 100
0.20283118 1.2626907 0.11715672 59
0.2289699 1.2255955 0.128672 32
0.20727146 1.2563891 0.15943253 73
0.2107484 1.2550418 0.010331824 98
0.22375369 1.2364476 0.029831495 66
0.20399433 1.2646984 0.05281638 100
0.21436357 1.249873 0.071902916 48
0.22506374 1.2345746 0.089793384 100
0.2045531 1.2638996 0.11715672 99
0.23279601 1.2235194 0.1277722 65
0.21229309 1.2528334 0.15787962 81
0.22156674 1.2430819 0.010052586 86
0.21968886 1.2457869 0.030354854 97
0.21026817 1.2593566 0.052119136 100
0.21717277 1.2494111 0.071659178 64
0.22105476 1.2438194 0.09135773 94
0.22419304 1.2392989 0.11105084 84
0.2232677 1.2406318 0.13227122 86
0.20957372 1.2603569 0.15995017 72
0.21868148 1.2508119 0.010192205 99
0.22701803 1.2387139 0.029831495 66
0.20293435 1.2736642 0.053513627 100
0.22560644 1.2407624 0.07019674 66
0.2227107 1.2449647 0.09135773 100
0.22249123 1.2452831 0.11219569 100
0.22601825 1.2401648 0.13182132 94
0.20361435 1.2726774 0.16357364 69
0.21793467 1.2551508 0.010262015 84
0.22623593 1.2430226 0.03004084 66
0.19889164 1.2829728 0.054385185 100
0.22596577 1.2434173 0.070440479 49
0.2275517 1.2411003 0.090419121 100
0.22620377 1.2430695 0.11143246 91
0.23630244 1.2283154 0.12822211 97
0.20737758 1.2705748 0.16253836 70
0.21176425 1.2678857 0.010506349 68
0.23237842 1.2375414 0.029622151 67
0.21188042 1.2677147 0.05264207 79
0.22204277 1.2527556 0.071659178 64
0.23585835 1.232419 0.08854191 98
0.22123769 1.2539407 0.11372216 100
0.23571402 1.2326314 0.1291219 96
0.21455494 1.2637777 0.15995017 72
0.21591318 1.2658639 0.010436539 41
0.22301611 1.2553215 0.03066887 32
0.22270009 1.2557905 0.051247578 55
0.20393345 1.2836447 0.076046467 100
0.23211741 1.2418129 0.090106249 96
0.23297119 1.2405457 0.1102876 92
0.23531497 1.2370671 0.13002171 96
0.22292998 1.2554493 0.15684435 74
0.23098472 1.2470795 0.010017681 43
0.22693259 1.2531394 0.030459527 32
0.22439781 1.2569301 0.051247578 55
0.22559035 1.2551467 0.071659178 80
0.23266825 1.2445618 0.090419121 100
0.23461562 1.2416496 0.1102876 99
0.23369756 1.2430224 0.13137141 100
0.221405 1.2614057 0.15839726 73
0.21920919 1.2680688 0.010436539 41
0.21740225 1.2707894 0.031506244 31
0.22703144 1.2562909 0.051073264 55
0.23041081 1.2512026 0.070927955 97
0.23306784 1.2472019 0.090731993 100
0.23284042 1.2475443 0.11143246 100
0.24057585 1.2358972 0.1291219 100
0.21867526 1.2688727 0.1604678 72
0.2209498 1.2692204 0.010436539 41
0.21585488 1.2769501 0.03182026 30
0.21886256 1.272387 0.05264207 53
0.23318493 1.2506578 0.070684217 81
0.24125823 1.2384093 0.088854775 98
0.2388311 1.2420917 0.10990598 85
0.24542138 1.2320932 0.1277722 97
0.222545 1.2668002 0.15943253 73
0.22159973 1.2720394 0.010471444 27
0.22199982 1.2714278 0.031401575 31
0.23043424 1.2585337 0.051073264 55
0.233778 1.253422 0.070927955 48
0.24505788 1.2361779 0.088229038 98
0.23725674 1.2481039 0.11105084 91
0.2449027 1.2364151 0.128672 97
0.22216609 1.2711736 0.1604678 72
0.23968646 1.2480235 0.0099478718 43
0.23897704 1.2491164 0.029936166 33
0.22563243 1.2696731 0.052119136 54
0.23654824 1.2528579 0.070684217 81
0.24453583 1.2405534 0.088854775 98
0.24534139 1.2393124 0.10876112 87
0.24759373 1.2358428 0.12822211 97
0.2344363 1.2561111 0.15529142 75
0.24360594 1.2457952 0.0098780617 44
0.25154865 1.2334611 0.028889447 34
0.22099376 1.2809093 0.053165004 52
0.2415444 1.2489965 0.069953002 49
0.24947104 1.2366873 0.087916173 84
0.24600062 1.2420765 0.10914274 85
0.24508286 1.2435017 0.13002171 96
0.22785264 1.2702582 0.15943253 73
0.23450074 1.263712 0.01022711 56
0.25531921 1.2311341 0.028680105 69
0.22814345 1.2736603 0.052293446 53
0.23787364 1.2584339 0.071171694 65
0.24684715 1.2443917 0.089167647 70
0.25187901 1.2365175 0.10761628 87
0.25513235 1.2314265 0.12642249 99
0.22752032 1.2746354 0.1604678 72
0.24042445 1.2580012 0.010087491 71
0.24829087 1.2456009 0.029517479 100
0.23194999 1.27136 0.051944822 54
0.24481192 1.251085 0.069953002 49
0.25265461 1.2387221 0.087916173 70
0.24291092 1.2540817 0.11143246 91
0.2629275 1.2225285 0.12372308 83
0.22609097 1.2805959 0.16202073 63
0.23360744 1.2726173 0.010366729 69
0.24463287 1.2551025 0.03004084 99
0.23794758 1.2657226 0.051247578 55
0.24860811 1.2487875 0.069465525 66
0.26060662 1.2297268 0.086038955 72
0.25192371 1.2435204 0.10876112 79
0.25931814 1.2317736 0.12597258 90
0.23816678 1.2653744 0.15684435 66
0.24701703 1.2550625 0.0099827768 87
0.25902516 1.2358379 0.028784776 100
0.24073541 1.2651191 0.051073264 83
0.24607465 1.2565712 0.070440479 49
0.25802714 1.2374358 0.087290429 57
0.24525782 1.2578789 0.11181407 100
0.26196417 1.2311327 0.12552269 90
0.24194473 1.263183 0.15580906 67
0.25713968 1.2425195 0.0097035384 90
0.25223562 1.250432 0.029622151 100
0.2477136 1.2577281 0.050201707 85
0.25404954 1.2475053 0.068978049 50
0.25966057 1.2384521 0.087290429 71
0.25937378 1.2389148 0.10723466 73
0.26049575 1.2371045 0.12687239 90
0.24977443 1.254403 0.15270324 68
0.24831572 1.2605727 0.010052586 86
0.25809941 1.2446632 0.029203463 100
0.23898107 1.2757518 0.051944822 81
0.25987759 1.2417717 0.068003096 51
0.26129755 1.2394627 0.087290429 71
0.25792709 1.2449434 0.10837951 87
0.2662113 1.2314724 0.12507279 83
0.24134737 1.271904 0.15787962 65
0.25419623 1.2547946 0.0099129668 87
0.25975809 1.2456793 0.029203463 100
0.24489939 1.2700312 0.051247578 82
0.2532545 1.256338 0.069953002 49
0.26499581 1.2370951 0.086664692 57
0.25242865 1.2576915 0.11105084 84
0.26985392 1.2291331 0.12417299 75
0.24310124 1.2729783 0.15787962 65
0.25278348 1.2609562 0.010017681 87
0.25935161 1.2501066 0.029412808 100
0.25593302 1.2557536 0.049678773 86
0.24981377 1.2658616 0.071171694 81
0.27072003 1.2313278 0.085413218 58
0.25006592 1.2654451 0.1125773 82
0.27448595 1.2251071 0.12282328 76
0.24685976 1.2707412 0.15684435 66
0.25552866 1.2602764 0.0099827768 87
0.25897253 1.2545426 0.029622151 100
0.25455281 1.2619011 0.050201707 85
0.26074541 1.2515908 0.068978049 50
0.27131498 1.2339932 0.08572609 58
0.25988406 1.2530249 0.10952436 78
0.2710593 1.2344189 0.12507279 92
0.25159356 1.2668281 0.15529142 75
0.26338363 1.2509943 0.0097733475 89
0.26271045 1.2521241 0.029412808 100
0.25219211 1.2697756 0.050898954 83
0.26649284 1.2457764 0.068003096 51
0.26788041 1.2434479 0.087290429 71
0.26961169 1.2405424 0.10647142 81
0.2696895 1.2404119 0.12642249 90
0.25431854 1.2662071 0.15477379 67
0.26099384 1.2588774 0.0099129668 87
0.2664279 1.2496853 0.029203463 100
0.24988282 1.2776726 0.051596198 82
0.26815534 1.2467632 0.068003096 68
0.27355579 1.237628 0.086038955 58
0.26526141 1.2516586 0.10876112 87
0.28025851 1.2262896 0.12237337 76
0.25408623 1.2705622 0.15580906 67
0.2616047 1.2615579 0.0099478718 73
0.27408424 1.2402871 0.028575432 100
0.26064193 1.2631989 0.050027397 85
0.26873338 1.2494074 0.068246834 51
0.27610761 1.2368383 0.08572609 58
0.27381453 1.2407467 0.1060898 73
0.2778286 1.233905 0.12417299 92
0.2596581 1.2648758 0.15373851 68
0.26633996 1.2573767 0.0098431576 88
0.27371821 1.2446997 0.028784776 100
0.25835642 1.2710938 0.05072464 84
0.26341873 1.2623959 0.069953002 99
0.27873251 1.2360842 0.085413218 73
0.26558384 1.2586758 0.10990598 85
0.28435087 1.2264309 0.12192347 85
0.26231644 1.2642899 -0.0099827768 86
0.25944379 1.2692256 0.15477379 67
0.27204236 1.2514367 0.0097035384 90
0.27837276 1.2404721 0.02847076 100
0.2690731 1.2565796 0.049155839 87
0.27109453 1.2530785 0.068490572 50
0.28332415 1.2318962 0.084474608 59
0.27318114 1.2494643 0.10761628 79
0.28399697 1.2307308 0.12282328 85
0.2650519 1.2635446 0.15270324 68
0.27869356 1.2437277 0.0095290141 61
0.27207601 1.2552826 0.029308135 100
0.2618618 1.2731177 0.05072464 84
0.2727825 1.2540491 0.068490572 50
0.27806613 1.2448233 0.086664692 57
0.27680784 1.2470204 0.10685304 81
0.28173298 1.2384207 0.12462288 83
0.26293612 1.2712419 0.15477379 67
0.27837336 1.2481494 0.0095988233 91
0.27771777 1.2493033 0.028889447 100
0.26361978 1.2741203 0.05072464 84
0.27741539 1.2498357 0.067759357 51
0.27972522 1.2457696 0.086664692 57
0.27847463 1.2479711 0.10685304 88
0.28914508 1.2291877 0.12192347 85
0.26659596 1.2688813 0.15373851 68
0.27513579 1.2578053 0.0097733475 89
0.27743158 1.253731 0.029098792 100
0.27320579 1.2612306 0.049330149 87
0.28006649 1.2490548 0.067515619 51
0.28526649 1.2398263 0.085413218 58
0.27725339 1.2540473 0.10799789 79
0.29457611 1.2233044 0.12012386 86
0.27022749 1.2665162 -0.0099478718 86
0.26454568 1.2765998 0.15580906 67
0.27586463 1.2605075 0.0098082526 74
0.28107053 1.2511926 0.028889447 100
0.27395019 1.2639329 0.049504463 86
0.27786657 1.2569255 0.068490572 50
0.29172665 1.2321258 0.083848871 59
0.27415574 1.2635652 0.10990598 78
0.29520929 1.2258943 0.12057377 86
0.2739135 1.2639986 -0.0098780617 87
0.27102816 1.2691613 0.15322088 76
0.28242585 1.2527165 0.0096337283 90
0.28275186 1.2521284 0.028889447 100
0.27760789 1.2614083 0.049155839 87
0.2805303 1.2561362 0.068246834 68
0.29621437 1.2278414 0.082910269 75
0.28730193 1.2439198 0.10532656 75
0.2939679 1.2318941 0.12192347 85
0.27563956 1.2649593 -0.0098780617 87
0.27558199 1.2650632 0.15166797 77
0.28892928 1.2448859 0.009459204 62
0.2863608 1.249558 0.028680105 100
0.28412408 1.2536265 0.048284281 88
0.28605416 1.2501156 0.067271881 51
0.28829765 1.2460349 0.086038955 58
0.28990364 1.2431135 0.10494494 82
0.29464296 1.2344928 0.12237337 76
0.27544224 1.2694187 -0.0099478718 86
0.27545041 1.2694039 0.15270324 68
0.28867406 1.2493057 0.0095290141 76
0.29377282 1.2399539 0.028052073 100
0.28009143 1.2650473 0.049330149 87
0.28107998 1.2632343 0.068978049 50
0.29563448 1.2365394 0.084161744 59
0.28779751 1.2509134 0.10647142 81
0.27349627 1.2771437 0.15477379 75
0.28939766 1.251974 0.0095639192 91
0.2992146 1.2338179 0.027633386 100
0.2780306 1.2729969 0.050027397 85
0.28469163 1.2606776 0.068490572 67
0.28947783 1.2518257 0.10647142 81
0.27893549 1.2713233 -0.0099478718 86
0.27343056 1.2815045 0.15580906 67
0.28635684 1.2616924 0.0097384425 75
0.29139709 1.2522924 0.028680105 100
0.29108611 1.2528723 0.047935657 89
0.29015824 1.2546028 0.067515619 51
0.29983118 1.2365628 0.083848871 59
0.2911613 1.2527322 0.10647142 66
0.28635684 1.2616924 -0.0097384425 88
0.28252089 1.2688464 0.15166797 69
0.29464638 1.2502503 0.0094941091 92
0.29495749 1.2496653 0.02847076 100
0.28903174 1.2608099 0.048632905 88
0.28719169 1.2642705 0.068734311 50
0.29837808 1.243232 0.10418171 75
0.28150317 1.2749691 -0.0099827768 86
0.28789163 1.2629541 0.14959741 70
0.29663339 1.2505525 0.02847076 100
0.29167581 1.2599554 0.048458595 88
0.29354772 1.256405 0.067515619 51
0.29848802 1.2470349 0.085413218 58
0.28513274 1.2723655 -0.0099129668 87
0.29051495 1.2621572 0.14907977 78
0.29707891 1.2537935 0.0095290141 76
0.29061845 1.2661512 0.048981529 87
0.29044443 1.266484 0.15011504 78
0.29784894 1.2564487 0.0095639192 91
0.29815614 1.255856 0.028680105 100
0.28868431 1.274129 0.049678773 86
0.29694968 1.2581835 0.067515619 51
0.29973349 1.2528131 0.10570818 66
0.29217908 1.267387 0.15011504 78
0.29389033 1.2679079 0.0097733475 100
0.29848462 1.2589761 0.067515619 51
0.29023165 1.2750208 -0.0099129668 100
0.29109201 1.2733482 0.15166797 77
0.2910876 1.277706 -0.0099478718 100
0.29809883 1.2682474 0.14959741 78
0.29914224 1.270515 0.048981529 58
0.29897398 1.2708507 0.15011504 78
0.29570743 1.282269 -0.0099827768 100
0.29918101 1.2752717 0.15115032 77
