# .PCD v0.7 - Point Cloud Data file format
VERSION 0.7
FIELDS x y z intensity
SIZE 4 4 4 4
TYPE F F F F
COUNT 1 1 1 1
WIDTH 730
HEIGHT 1
VIEWPOINT 0 0 0 1 0 0 0
POINTS 730
DATA ascii
0.068894118 0.0024564266 0.015811881 9
0.045993388 0.0018470287 0.048149079 28
0.05005604 0.013520122 0.047521047 100
0.040776432 0.0052954555 0.048149079 79
0.03379333 0.00035339594 0.048567768 58
0.035177231 0.013881445 0.047939736 18
0.035799682 0.020713747 0.047625721 19
0.033317804 0.022423029 0.047625721 9
0.032864392 0.027599514 0.047416378 9
0.025817335 0.022778213 0.047835063 9
-0.77626437 0.58006364 0.023386225 16
-0.7913962 0.58720553 0.023630558 100
-0.79599077 0.59136277 0.023700368 100
-0.7867201 0.59757638 0.023525843 100
-0.76945657 0.60448354 0.023211701 100
-0.78193623 0.60763848 0.023421129 123
-0.78249484 0.61228883 0.023421129 134
-1.0397654 1.1288522 0.085412279 3
-1.0397761 1.1288548 0.1425868 4
-1.0287464 1.1321611 0.028272899 7
-1.0151427 1.1290405 0.084156215 5
-1.030746 1.13262 0.14188954 8
-1.017735 1.1354003 0.028098375 10
-0.9905383 1.1290615 0.082900152 37
-1.0333514 1.1390401 0.14223817 42
-1.0028286 1.1376455 0.02785404 32
-0.98733205 1.1339766 0.082795486 91
-1.0165431 1.1408925 0.14084367 91
-0.97820455 1.1374537 0.027435184 40
-1.0015874 1.1430761 0.083632857 100
-0.99974161 1.1426322 0.13944919 91
-0.97108465 1.141363 0.027330469 42
-0.9828133 1.1442266 0.082690813 100
-1.0023026 1.1489847 0.13979781 86
-0.98142487 1.1495566 0.027539898 22
-0.97762054 1.1486138 0.082481466 92
-1.004838 1.1553595 0.14014643 86
-0.97815138 1.1544123 0.027504992 23
-0.97241575 1.1529694 0.08227212 44
-1.0015512 1.1602985 0.13997212 73
-0.96904999 1.1577657 0.027365373 44
-0.97106963 1.1582813 0.08227212 32
-0.98859638 1.1627553 0.13892625 82
-0.95800799 1.1605591 0.027190849 59
-0.98130578 1.166593 0.082900152 73
-0.98142976 1.166625 0.13840333 92
-0.95470148 1.1653125 0.027155945 71
-0.9799121 1.1719358 0.082900152 95
-0.97425491 1.1704495 0.13788038 94
-0.94944781 1.1695328 0.027086135 81
-0.95148081 1.1700745 0.081434749 92
-0.97284788 1.1757677 0.13788038 100
-0.95583695 1.1765879 0.027225753 96
-0.94050485 1.1724482 0.08091139 100
-0.9753409 1.1818541 0.13822901 100
-0.95055109 1.1807858 0.027155945 93
-0.9487229 1.1802853 0.081434749 100
-0.96812886 1.1855979 0.13770607 99
-0.95303458 1.1868284 0.027225753 92
-0.94158024 1.1836518 0.081120729 100
-0.95906264 1.1885002 0.13700883 92
-0.93224674 1.1869199 0.026876707 93
-0.94389945 1.1901975 0.081330076 86
-0.95560068 1.1934888 0.13683452 98
-0.95201117 1.197859 0.027260659 67
-0.92905182 1.191319 0.080597371 72
-0.95227188 1.1979334 0.1366602 100
-0.96388108 1.2072456 0.027504992 47
-0.92557889 1.196183 0.080492698 36
-0.95260757 1.2039895 0.13683452 98
-0.94514889 1.2072121 0.027190849 52
-0.91840655 1.1993921 0.080178685 22
-0.94159859 1.2061739 0.13596296 84
-0.92436391 1.2070065 0.026841801 71
-0.91682285 1.2047712 0.080178685 30
-0.93425912 1.2099394 0.13544002 89
-0.91907591 1.2107439 0.026771991 75
-0.92685121 1.2130766 0.080806717 34
-0.93470043 1.2154315 0.13561434 99
-0.91553742 1.2155437 0.026737086 78
-0.91184098 1.21442 0.080074012 84
-0.93305796 1.2208701 0.13561434 100
-0.91405183 1.2204012 0.026737086 81
-0.90272337 1.2169161 0.079655327 100
-0.92965037 1.2251998 0.13544002 98
-0.92774457 1.2302662 0.027016325 88
-0.90306133 1.2225782 0.07976 91
-0.91473657 1.2262146 0.13421984 66
-0.89950866 1.2267501 0.026527658 85
-0.90917224 1.2297952 0.080178685 68
-0.91131538 1.2304705 0.13404553 47
-0.89393443 1.2310959 0.026457848 81
-0.9092986 1.2360022 0.080283359 76
-0.90763861 1.2354721 0.13387123 43
-0.90000898 1.2383401 0.026597468 88
-0.89254063 1.2359279 0.07944598 97
-0.90798289 1.2409157 0.13404553 45
-0.89076239 1.2409137 0.026457848 96
-0.88710862 1.2397195 0.079236634 100
-0.9214806 1.2509539 0.13544002 63
-0.88919288 1.2456889 0.026457848 99
-0.89312845 1.2469897 0.079655327 100
-0.91041893 1.2527046 0.13456847 80
-0.87985426 1.2484225 0.02631823 100
-0.88190025 1.2491071 0.079131968 100
-0.89919275 1.2548931 0.13369691 84
-0.87447137 1.2518799 0.02624842 96
-0.88597947 1.2557728 0.07944598 100
-0.89380223 1.2584193 0.13334829 84
-0.87269562 1.2570976 0.02624842 96
-0.87663108 1.258445 0.079027295 100
-0.89954227 1.2662892 0.13404553 91
-0.87107259 1.2618127 0.02624842 89
-0.86745375 1.2605603 0.07860861 100
-0.90165418 1.2723966 0.13439415 89
-0.87680966 1.2696617 0.026388038 83
-0.85999125 1.2637719 0.07829459 89
-0.89416176 1.2757382 0.13387123 49
-0.8638342 1.2703872 0.02617861 81
-0.86211175 1.2697777 0.078503937 51
-0.88872033 1.2791951 0.1335226 43
-0.85822541 1.2742176 0.0261088 93
-0.86403114 1.2762964 0.078713275 17
-0.88309282 1.2831215 0.13317397 41
-0.85269624 1.2777689 0.026038991 96
-0.85849923 1.2798696 0.078503937 53
-0.87941951 1.2874427 0.13299966 22
-0.85467106 1.2840366 0.0261088 93
-0.84733278 1.2813511 0.077980578 89
-0.86824936 1.2890055 0.1321281 15
-0.8491171 1.2875491 0.026038991 100
-0.85303217 1.2889974 0.078399263 100
-0.86642903 1.2939529 0.1321281 5
-0.83615416 1.287986 0.025829561 100
-0.84194893 1.2901515 0.077875905 76
-0.87214917 1.3014369 0.13282534 1
-0.83433753 1.2928214 0.025829561 100
-0.83451945 1.2928901 0.077561885 51
-0.86096603 1.3028781 0.13195379 3
-0.83437234 1.2983636 0.025864467 75
-0.83455175 1.298432 0.077666558 53
-0.84420592 1.3021166 0.1305593 13
-0.83998257 1.3060709 0.026004085 72
-0.83456224 1.3039805 0.077771232 68
-0.85163468 1.3105648 0.13143086 52
-0.83996612 1.3116457 0.026038991 78
-0.82710689 1.3066347 0.077457212 68
-0.85159558 1.3161775 0.13160518 100
-0.82318157 1.3106337 0.025759751 96
-0.82336694 1.3107067 0.077352546 61
-0.83114177 1.3137677 0.12986206 95
-0.81385356 1.3124676 0.025620133 100
-0.82889456 1.31845 0.077771232 89
-0.82738394 1.3178492 0.12968774 99
-0.81566268 1.318716 0.025689943 100
-0.82141191 1.3210261 0.077457212 95
-0.84210175 1.329339 0.13125655 100
-0.80384785 1.3139689 0.17914793 21
-0.81744486 1.3249838 0.025759751 100
-0.80837625 1.3213032 0.07682918 100
-0.83829468 1.3334458 0.13108224 100
-0.77435011 1.3074936 0.17549185 13
-0.81919974 1.3312706 0.025829561 100
-0.81383556 1.3290718 0.077247873 100
-0.81788439 1.3307314 0.12933913 100
-0.78899664 1.3188896 0.1776855 16
-0.81003827 1.3325121 0.025689943 100
-0.80468994 1.3303001 0.07682918 100
-0.81243378 1.333503 0.1289905 100
-0.78726572 1.3230934 0.1776855 18
-0.79330486 1.3310903 0.025410704 100
-0.81194073 1.3388743 0.077352546 100
-0.80678159 1.3367195 0.12864187 100
-0.77799994 1.3246975 0.17671055 16
-0.79482502 1.3377998 0.025480513 100
-0.79686648 1.3386617 0.076619841 100
-0.81193751 1.3450248 0.12933913 100
-0.76305884 1.3243878 0.17500438 18
-0.80019277 1.3456275 0.025620133 85
-0.78568691 1.3394432 0.076096483 65
-0.81175476 1.3505567 0.12951343 95
-0.77755028 1.3359743 0.17719802 16
-0.82399291 1.3611664 0.0261088 59
-0.81864959 1.3588674 0.078085244 53
-0.81348246 1.3566442 0.12986206 26
-0.79207748 1.3474345 0.17939167 3
-0.80357987 1.3579915 0.025759751 94
-0.80925828 1.3604581 0.077666558 100
-0.82787317 1.3685445 0.13143086 71
-0.79369515 1.3536975 0.17987914 10
-0.78697079 1.3560544 0.025480513 100
-0.81460971 1.3681698 0.078085244 100
-0.82040638 1.3707107 0.13090792 100
-0.77720731 1.3517747 0.17792924 35
-0.79040295 1.3631454 0.025585229 100
-0.80155486 1.3680801 0.077457212 100
-0.81101328 1.3722657 0.13021068 100
-0.7769838 1.3572073 0.17817298 38
-0.79917401 1.3729496 0.025794657 100
-0.80664748 1.3762895 0.077875905 100
-0.81607276 1.3805017 0.13090792 100
-0.78025967 1.3644967 0.17890419 36
-0.807998 1.382589 0.026004085 100
-0.80088168 1.3793788 0.077666558 100
-0.80303639 1.3803508 0.12986206 100
-0.77636689 1.3683203 0.17866045 21
-0.79493171 1.3823538 0.025794657 100
-0.80965263 1.3890562 0.07829459 100
-0.79908437 1.3842444 0.12968774 100
-0.77427036 1.3729465 0.17866045 15
-0.79278606 1.3870448 0.025794657 100
-0.81655747 1.3979683 0.078817949 100
-0.80236322 1.3914458 0.13021068 100
-0.76854998 1.3759077 0.17817298 14
-0.79425222 1.3934108 0.025864467 100
-0.80348581 1.397693 0.078189917 100
-0.80741566 1.3995155 0.13090792 100
-0.76282531 1.3788363 0.1776855 11
-0.79387909 1.398947 0.025899371 100
-0.8030954 1.4032604 0.07829459 100
-0.81242818 1.4076281 0.13160518 100
-0.7750755 1.3901467 0.17963541 5
-0.80986935 1.4119364 0.02624842 100
-0.8046003 1.4094491 0.078503937 100
-0.80670267 1.4104415 0.13125655 100
-0.77121657 1.3936901 0.17939167 3
-0.78415078 1.4054999 0.025794657 100
-0.80416304 1.4150325 0.07860861 100
-0.80086142 1.4134598 0.13090792 100
-0.78744346 1.4125185 0.025899371 100
-0.81101805 1.4238439 0.079131968 100
-0.80590373 1.421387 0.13160518 100
-0.78879148 1.4189276 0.025969181 100
-0.80333573 1.4259772 0.078817949 100
-0.81079322 1.4295921 0.13230242 100
-0.79718143 1.4291029 0.02617861 100
-0.79374605 1.4274222 0.078399263 100
-0.82268399 1.4415799 0.13369691 100
-0.80563158 1.4391119 0.026388038 100
-0.80218893 1.4374127 0.079027295 100
-0.80603856 1.4393127 0.13230242 100
-0.78908354 1.4364755 0.0261088 100
-0.80533236 1.4445628 0.079341307 100
-0.80381149 1.4438059 0.13230242 100
-0.78674895 1.4411458 0.0261088 100
-0.80653936 1.451082 0.079550654 100
-0.8050124 1.4503154 0.13265105 100
-0.78796595 1.4476148 0.02617861 100
-0.79880828 1.4531059 0.079236634 100
-0.80796176 1.4577417 0.13317397 100
-0.79627723 1.4577394 0.026388038 100
-0.79463702 1.4569013 0.079131968 100
-0.81619853 1.467916 0.13421984 100
-0.80097872 1.4660981 0.026527658 100
-0.7993328 1.46525 0.079550654 100
-0.80312735 1.4672052 0.13317397 100
-0.78789431 1.465277 0.02631823 100
-0.80398661 1.4736398 0.079969339 100
-0.80245334 1.4728429 0.13334829 100
-0.78545922 1.4699428 0.02631823 100
-0.80329126 1.4792891 0.080074012 100
-0.80881518 1.4821842 0.13421984 100
-0.78654367 1.4764693 0.026388038 83
-0.786681 1.4765418 0.079236634 100
-0.80808228 1.4878541 0.13439415 98
-0.80041927 1.489543 0.13387123 40
0.10883024 1.3171384 0.13661924 5
0.15257952 1.2664169 0.011099731 25
0.13933319 1.2829628 0.03443706 27
0.1615026 1.2552711 0.054385185 25
0.13765979 1.285053 0.10449822 11
0.15245995 1.2665663 0.12364423 24
0.19071817 1.2187779 0.13272113 7
0.15398932 1.2646558 0.16978529 7
0.16178051 1.2584087 0.010890301 91
0.15852517 1.2625041 0.032971654 58
0.1582399 1.2628629 0.055082429 75
0.1596747 1.2610579 0.077021427 14
0.16527256 1.2540154 0.097927973 24
0.1590822 1.2618033 0.12211776 93
0.18986171 1.2230804 0.13362093 23
0.15451631 1.2675475 0.17030293 21
0.1672042 1.2550516 0.010785587 100
0.17014521 1.2513249 0.032134276 100
0.15132263 1.2751756 0.056302611 96
0.15893164 1.2655339 0.077508904 14
0.17308322 1.2476021 0.096363634 25
0.1583688 1.2662472 0.122881 100
0.18540919 1.2319834 0.13587044 45
0.15027153 1.2765074 0.17289113 35
0.16264674 1.2641876 0.010960111 100
0.17667183 1.2462943 0.031715591 100
0.14931273 1.2811991 0.056825545 100
0.17772147 1.2449551 0.07409656 30
0.16735741 1.2581776 0.098240845 24
0.16486108 1.2613624 0.12135452 100
0.19535843 1.2224538 0.13272113 39
0.15433687 1.2747893 0.17185585 43
0.16560224 1.2639585 0.010925206 100
0.17220363 1.2554755 0.032238949 90
0.14620513 1.2888842 0.057522789 93
0.17084765 1.257218 0.075802729 30
0.18604824 1.237685 0.093860678 39
0.1714015 1.2565063 0.11982805 100
0.19215268 1.2298406 0.13452072 31
0.15016913 1.2837903 0.17444403 42
0.16977403 1.2621324 0.010855397 65
0.17145836 1.2599523 0.032448292 59
0.16994506 1.261911 0.054385185 51
0.17619166 1.2538259 0.075071514 30
0.17560574 1.2545843 0.096989371 25
0.18422851 1.2434237 0.13811995 22
0.15314615 1.2836542 0.1739264 35
0.17636243 1.25711 0.010715778 79
0.16466188 1.2723639 0.033180997 28
0.1656014 1.2711391 0.055256739 49
0.18875638 1.240952 0.072877869 47
0.19292891 1.2355123 0.092922069 53
0.19512016 1.2326555 0.11334054 13
0.19062749 1.2385126 0.13632034 30
0.1596446 1.2789049 0.17185585 65
0.17806503 1.2584112 0.010715778 53
0.18577841 1.2482823 0.031506244 31
0.16856012 1.2708927 0.055082429 50
0.19040248 1.2422101 0.072877869 47
0.18737534 1.2461853 0.094799288 51
0.1872218 1.2463869 0.11639348 13
0.20525217 1.2227101 0.13137141 47
0.16844589 1.2710428 0.16875002 66
0.17253646 1.2692773 0.010925206 39
0.17781428 1.2622963 0.032343622 30
0.16670626 1.276989 0.055605363 49
0.1968416 1.2371285 0.071902916 64
0.19976133 1.2332666 0.091983467 53
0.19007087 1.2460842 0.11601187 13
0.2056593 1.2254653 0.13182132 47
0.17485732 1.2662075 0.16667947 67
0.17908308 1.2641946 0.010785587 39
0.15555665 1.2955402 0.03443706 27
0.17685026 1.2671695 0.054385185 51
0.18655822 1.254235 0.074340299 46
0.20138058 1.2344863 0.091983467 53
0.19173491 1.2473378 0.11601187 13
0.20959082 1.2235472 0.13092151 40
0.178911 1.2644238 0.16564418 68
0.18789434 1.255802 0.010576159 67
0.19072273 1.2520075 0.031506244 31
0.19040799 1.2524297 0.05264207 53
0.1940977 1.2474796 0.073121607 78
0.20646438 1.2308884 0.091044858 54
0.19801295 1.2422268 0.1144854 13
0.21109673 1.2246736 0.13092151 32
0.18747976 1.2563583 0.16253836 70
0.19197124 1.2538481 0.010506349 81
0.19003141 1.2564696 0.031715591 61
0.18616861 1.2616899 0.053513627 78
0.19694734 1.2471232 0.072877869 47
0.1916253 1.2543156 0.095425025 76
0.21250916 1.2260927 0.1102876 14
0.21384504 1.2242873 0.13047162 32
0.18228501 1.2669383 0.16564418 68
0.19476181 1.2534213 0.010471444 82
0.20702147 1.236738 0.030354854 65
0.18190211 1.2709212 0.054385185 76
0.20088243 1.2450922 0.072390392 100
0.20025167 1.2459505 0.093547814 100
0.20821074 1.2351196 0.11219569 14
0.22689292 1.2096962 0.12597258 24
0.18965471 1.2603712 0.163056 70
0.18955305 1.2644774 0.010680873 93
0.20881614 1.2380514 0.030354854 65
0.18030733 1.2771611 0.054908119 100
0.20037058 1.2496374 0.072877869 94
0.21255422 1.2329234 0.090731993 100
0.20421684 1.2443609 0.11410378 13
0.23087943 1.2077839 0.12507279 16
0.18698838 1.2679957 0.16512655 68
0.18884966 1.2689097 0.010750682 92
0.21154127 1.2375624 0.030250182 65
0.18900084 1.2687007 0.053862248 100
0.20545503 1.2459702 0.072146654 79
0.21061626 1.2388402 0.091670595 100
0.20233819 1.250276 0.11524864 13
0.25861475 1.1725329 0.11472504 9
0.19317293 1.2629373 0.163056 70
0.19759479 1.2604237 0.010541254 95
0.21317545 1.2387409 0.030250182 65
0.19074383 1.2699578 0.053862248 100
0.20364344 1.2520062 0.072877869 94
0.21110219 1.2416263 0.091983467 93
0.2303665 1.214817 0.10647142 14
0.24410123 1.1957031 0.12102367 8
0.20053235 1.2563357 0.1604678 72
0.20154607 1.2583342 0.010471444 96
0.21009129 1.2463585 0.03066887 96
0.19240373 1.2711464 0.053862248 100
0.21100891 1.2450726 0.071659178 64
0.212668 1.2427474 0.091983467 100
0.21473813 1.2398463 0.11219569 21
0.23645929 1.2094057 0.12462288 16
0.20326912 1.2559193 0.15995017 72
0.19640499 1.2694001 0.010680873 93
0.2153019 1.2427111 0.030354854 97
0.19194031 1.2757058 0.054210871 100
0.2173408 1.2398314 0.070684217 98
0.21097854 1.2488172 0.092922069 100
0.20398316 1.2586972 0.11639348 33
0.23469359 1.2153232 0.12597258 16
0.20281976 1.2603402 0.16098544 80
0.19806302 1.2705699 0.010680873 93
0.22261491 1.2356491 0.029831495 99
0.19591108 1.2736306 0.053862248 100
0.2211841 1.2376842 0.07019674 66
0.21824887 1.241859 0.09135773 100
0.19995981 1.2678721 0.11830158 84
0.23617208 1.2163663 0.12597258 49
0.20111439 1.2662299 0.16253836 70
0.2020143 1.2684549 0.010611063 81
0.21387121 1.251471 0.030773543 96
0.19758314 1.2748022 0.053862248 100
0.21819147 1.2452826 0.071171694 65
0.21529236 1.2494354 0.092609204 100
0.19936508 1.2722497 0.11906482 100
0.22761431 1.2317854 0.13002171 88
0.20386773 1.2658 0.16202073 70
0.2127831 1.2564586 0.010331824 98
0.22912398 1.2328858 0.029517479 100
0.20833972 1.2628685 0.052467756 100
0.21863848 1.2480118 0.071415432 64
0.22588721 1.237555 0.090106249 100
0.21892831 1.2475938 0.11295892 100
0.22581676 1.2376567 0.13137141 86
0.20991614 1.2605944 0.15995017 72
0.21465346 1.2577498 0.010331824 98
0.22185132 1.2472808 0.030354854 97
0.21023473 1.2641767 0.052467756 100
0.22385031 1.2443733 0.070684217 81
0.22432742 1.2436794 0.091044858 100
0.22410142 1.2440081 0.11181407 98
0.22540671 1.2421097 0.13227122 94
0.21399137 1.2587128 0.15891489 73
0.21176291 1.2654655 0.010471444 96
0.23357058 1.2335205 0.029412808 100
0.20962867 1.2685918 0.05281638 100
0.22654441 1.2438128 0.070440479 65
0.22812748 1.2414938 0.090419121 100
0.23120964 1.236979 0.10990598 92
0.22807279 1.2415739 0.13182132 94
0.20907861 1.2693975 0.16202073 70
0.21918812 1.2584234 0.010296919 42
0.22855142 1.2445991 0.03004084 66
0.20475459 1.2797337 0.053862248 77
0.22494355 1.2499259 0.071171694 65
0.23207328 1.2393993 0.089793384 100
0.21640894 1.2625268 0.11563025 100
0.23526746 1.2346833 0.12957181 96
0.21199465 1.2690442 0.16150309 70
0.21188241 1.2727928 0.010576159 40
0.22789794 1.2489772 0.030250182 32
0.21534139 1.2676492 0.052467756 53
0.22210583 1.2575903 0.072146654 63
0.23363161 1.240451 0.089793384 100
0.22461742 1.2538555 0.11334054 96
0.23572269 1.2373415 0.13002171 100
0.21688551 1.2653531 0.15995017 72
0.21363956 1.27397 0.010576159 40
0.21848434 1.266711 0.031296901 31
0.22924706 1.2505853 0.05055033 56
0.22491184 1.2570808 0.071902916 96
0.2385655 1.2366234 0.088854775 98
0.22957799 1.2500894 0.11219569 91
0.23302868 1.2449193 0.13182132 100
0.22505128 1.2568718 0.15684435 82
0.22856757 1.2550794 0.0101573 28
0.21792686 1.2711375 0.031506244 31
0.21983707 1.2682548 0.052293446 53
0.23420444 1.2465727 0.07019674 82
0.23356774 1.2475336 0.090731993 95
0.24093184 1.2364203 0.10876112 94
0.23352885 1.2475922 0.13227122 100
0.22346628 1.2627778 0.15839726 73
0.23254457 1.2529123 0.010087491 28
0.23293135 1.2523239 0.030250182 32
0.21947658 1.2727913 0.05264207 53
0.24031505 1.2410918 0.069221787 83
0.24291584 1.2371355 0.08854191 84
0.23832965 1.244112 0.1102876 99
0.24170429 1.2389785 0.12957181 96
0.22209102 1.2688142 0.15995017 72
0.22321856 1.2707084 0.010436539 27
0.23453254 1.2533727 0.030250182 32
0.22114572 1.2738845 0.05264207 53
0.23970908 1.245441 0.069709264 83
0.24554622 1.236497 0.088229038 98
0.23668459 1.2500752 0.11143246 91
0.24752143 1.2334706 0.1277722 97
0.22797027 1.2634277 0.15787962 73
0.23157656 1.2618312 0.01022711 42
0.24064806 1.2478194 0.029831495 33
0.22299474 1.2750864 0.05264207 53
0.23498073 1.2565732 0.071171694 65
0.25047871 1.2326353 0.087290429 85
0.24378106 1.2429802 0.10952436 85
0.24922216 1.2345761 0.1277722 89
0.23083085 1.262983 0.15736198 74
0.24185887 1.2494268 0.0099478718 58
0.24979344 1.2370816 0.029098792 68
0.23221222 1.2644358 0.051421888 55
0.23444939 1.260955 0.071659178 80
0.25415063 1.2303025 0.086664692 86
0.24959719 1.2373869 0.10799789 87
0.24549618 1.2437676 0.13002171 96
0.23246738 1.2640387 0.15736198 74
0.23940307 1.2573518 0.010087491 71
0.24192834 1.2533895 0.03004084 66
0.23518384 1.263972 0.051247578 82
0.23953751 1.2571409 0.070927955 48
0.24955025 1.24143 0.08854191 84
0.25350434 1.2352258 0.10723466 73
0.25045958 1.2400032 0.128672 89
0.23436669 1.2652543 0.15736198 74
0.24957395 1.2448599 0.0098082526 59
0.2510078 1.2425935 0.029308135 100
0.23575842 1.266697 0.051421888 82
0.25389051 1.2380371 0.068003096 51
0.24900296 1.2457625 0.089167647 70
0.24770117 1.2478201 0.10990598 92
0.25827116 1.231113 0.12597258 99
0.23291218 1.2711959 0.15891489 65
0.24493882 1.2561207 0.010017681 72
0.2506187 1.2470697 0.029517479 100
0.23864007 1.2661579 0.051247578 55
0.2534976 1.2424822 0.068490572 50
0.25914878 1.2334769 0.086664692 71
0.25675941 1.2372844 0.10723466 81
0.26514241 1.2239259 0.12372308 100
0.23475128 1.2723547 0.15891489 73
0.23703676 1.2724054 0.010331824 98
0.26065052 1.2344979 0.028680105 100
0.2476612 1.2553499 0.050027397 85
0.25191727 1.2485175 0.069221787 50
0.26590958 1.2260554 0.085100345 58
0.24585411 1.2582508 0.11181407 84
0.26149741 1.2331383 0.12597258 99
0.24050462 1.2668384 0.15684435 66
0.25342795 1.2496291 0.0098431576 88
0.25378931 1.2490448 0.029517479 100
0.24612886 1.2614336 0.05055033 84
0.25454974 1.247815 0.068978049 50
0.26119018 1.2370758 0.086977564 57
0.25779998 1.2425585 0.10799789 72
0.26508456 1.2307775 0.12507279 92
0.24215391 1.2678621 0.15684435 66
0.25292805 1.2540185 0.0099129668 87
0.25120047 1.2568333 0.029936166 99
0.24567577 1.2658347 0.050898954 83
0.2602894 1.2420247 0.068003096 51
0.26377395 1.2363473 0.086664692 57
0.25526077 1.2502179 0.10952436 85
0.26253664 1.2383633 0.12687239 90
0.24380657 1.2688801 0.15684435 66
0.2558282 1.2534473 0.0098780617 88
0.26137766 1.2443273 0.029098792 100
0.24240348 1.2755098 0.051770512 81
0.26416776 1.239742 0.067515619 51
0.26145935 1.2441931 0.087916173 56
0.25812739 1.2496688 0.10914274 85
0.27345404 1.2244807 0.12282328 85
0.24974123 1.2634509 0.15477379 75
0.25226396 1.2629789 0.010052586 86
0.26295218 1.2452818 0.029098792 100
0.24717158 1.2714107 0.051247578 82
0.2595695 1.2508826 0.068978049 50
0.26711836 1.2383835 0.086664692 71
0.25667474 1.2556758 0.1102876 85
0.2739552 1.2270634 0.12327318 76
0.24239063 1.2793267 0.15943253 73
0.25193095 1.2674458 0.010122396 85
0.26666611 1.2428544 0.028889447 100
0.24687555 1.2758827 0.051596198 82
0.26124987 1.2518935 0.068978049 50
0.27383167 1.2308958 0.085100345 58
0.25635365 1.2600648 0.11105084 84
0.27655396 1.2263526 0.12282328 85
0.25604224 1.2605845 -0.0099827768 86
0.25509286 1.2621689 0.15373851 68
0.25869283 1.2598379 0.0099478718 73
0.26823571 1.2437913 0.028889447 100
0.25975713 1.2580483 0.049678773 86
0.25676149 1.2630855 0.070440479 49
0.27334216 1.2352047 0.08572609 58
0.26099089 1.2559736 0.10990598 85
0.2710962 1.2389814 0.12597258 82
0.26265129 1.2531817 0.15063268 70
0.26666895 1.250617 0.0097384425 75
0.26701415 1.2500314 0.029203463 100
0.25859779 1.2643081 0.050201707 85
0.26873803 1.2471071 0.068003096 51
0.28014633 1.2277552 0.084161744 59
0.26884112 1.2469323 0.10761628 79
0.27685758 1.2333338 0.12417299 75
0.25862229 1.2642666 0.15373851 76
0.26119566 1.2636359 0.0099827768 87
0.27365044 1.2423477 0.028680105 100
0.26124471 1.2635521 0.050027397 85
0.26430714 1.2583176 0.069465525 49
0.2736856 1.2422876 0.086664692 57
0.26943284 1.2495565 0.10799789 79
0.27937964 1.232555 0.12372308 83
0.25440967 1.2752347 0.15684435 66
0.26793939 1.2559934 0.0098082526 89
0.28031367 1.2346724 0.028156744 100
0.25996897 1.2697265 0.05055033 100
0.27398497 1.2455769 0.067515619 51
0.28227684 1.2312899 0.084474608 59
0.26815206 1.2556269 0.10914274 85
0.28784329 1.2216988 0.12057377 86
0.26393282 1.2628968 0.15270324 68
0.26256633 1.2690558 0.010052586 86
0.27886561 1.2407563 0.02847076 100
0.26063332 1.2724121 0.05072464 84
0.26565611 1.2636913 0.069953002 49
0.28085032 1.2373104 0.085413218 58
0.26878417 1.2582603 0.10952436 85
0.28253439 1.2343864 0.12372308 92
0.27135393 1.2537985 0.14959741 70
0.27538979 1.2510527 0.0096686333 90
0.2767145 1.2487321 0.028889447 100
0.27342984 1.2544861 0.048807215 88
0.27542689 1.2509878 0.068003096 51
0.28166732 1.2400559 0.08572609 58
0.27455425 1.2525164 0.10799789 87
0.28528559 1.2337176 0.12327318 93
0.2674672 1.2649312 0.15270324 68
0.2740297 1.2571805 0.0097733475 89
0.28224117 1.2426845 0.02847076 100
0.27012792 1.2640684 0.049678773 86
0.28093708 1.2449867 0.067028143 51
0.2803067 1.2460995 0.086664692 57
0.27712348 1.2517189 0.10761628 79
0.28586429 1.2362884 0.12372308 83
0.27101433 1.2625036 0.15166797 69
0.27760643 1.2546066 0.0097035384 90
0.28185284 1.247052 0.028680105 100
0.26591033 1.2754147 0.05072464 84
0.27375954 1.2614504 0.069221787 67
0.28479072 1.2418252 0.08572609 58
0.27776045 1.2543325 0.10799789 79
0.29314122 1.2269691 0.12102367 86
0.26980931 1.2684782 0.15322088 76
0.27824089 1.2572536 0.0097384425 75
0.2834363 1.2479385 0.028680105 100
0.27438134 1.2641737 0.049504463 86
0.28022546 1.2536954 0.068003096 51
0.28539461 1.2444273 0.086038955 58
0.27649915 1.2603765 0.10914274 78
0.29465801 1.2278185 0.12102367 86
0.27337065 1.2659857 -0.0099129668 87
0.27240485 1.2677174 0.15270324 68
0.27519038 1.2669964 0.0099129668 87
0.27745813 1.2628951 0.029517479 100
0.27715853 1.263437 0.049330149 87
0.28103954 1.2564181 0.068246834 34
0.2957381 1.2298356 0.083223134 60
0.28209832 1.2545033 0.10761628 79
0.29822364 1.2253404 0.12012386 86
0.27906096 1.2599964 -0.0097733475 88
0.27423096 1.2687315 0.15270324 68
0.28261098 1.2573858 0.0097035384 90
0.28293675 1.2567921 0.029098792 100
0.2768797 1.2678325 0.049678773 86
0.28551844 1.2520862 0.067515619 51
0.29441395 1.2358718 0.084161744 59
0.28559509 1.2519464 0.10685304 88
0.29973501 1.2261728 0.12012386 77
0.27876365 1.2643986 -0.0098431576 87
0.2851783 1.2527062 0.14752686 71
0.29125312 1.246156 0.009459204 77
0.27917129 1.2683895 0.029726824 100
0.2788803 1.268925 0.049678773 86
0.28650796 1.2548883 0.067759357 68
0.29534298 1.2386297 0.084474608 59
0.29315618 1.242654 0.10456333 82
0.29505503 1.2391596 0.12327318 76
0.27693135 1.2725115 -0.0099827768 86
0.28158379 1.2639499 0.15063268 78
0.29093564 1.2505318 0.0095290141 92
0.29409465 1.2446723 0.028261416 100
0.27864534 1.2733288 0.050027397 85
0.2890594 1.254012 0.067515619 51
0.29221135 1.2481656 0.086038955 58
0.29006666 1.2521436 0.10647142 81
0.28239504 1.2663735 -0.0098431576 87
0.27588919 1.2784411 0.15477379 67
0.29253057 1.2513883 0.0095290141 92
0.28501424 1.2654414 0.049155839 87
0.29253832 1.2513738 0.067028143 51
0.29537064 1.2460781 0.10494494 82
0.28404257 1.2672582 -0.0098431576 87
0.28031009 1.2742367 0.15322088 76
0.29037929 1.2593052 0.0096686333 75
0.29724839 1.246359 0.028261416 100
0.29039398 1.2592775 0.048458595 88
0.29971853 1.2417036 0.065565705 53
0.29419026 1.2521226 0.1060898 73
0.28944203 1.2610717 -0.0097035384 89
0.28832191 1.2631826 0.14959741 78
0.29173043 1.2615141 0.029098792 100
0.29143339 1.2620794 0.048632905 88
0.29238039 1.2602772 0.068003096 51
0.29704088 1.2514077 0.10570818 66
0.28955507 1.2656541 -0.0097733475 88
0.28670937 1.2710698 0.15166797 77
0.29705441 1.2552834 0.028680105 100
0.29030389 1.2682345 0.049155839 87
0.29584271 1.2576082 0.067515619 51
0.28750303 1.273608 -0.0099129668 87
0.29194412 1.2650876 0.14959741 70
0.29936153 1.25498 0.0095290141 92
0.29387408 1.2655979 0.048807215 58
0.29012612 1.2728503 0.15166797 69
0.29461011 1.2682176 0.048981529 58
0.28911263 1.2789421 -0.0099827768 100
0.29003257 1.2771475 0.15270324 68
0.29270273 1.2762843 0.0099129668 100
0.29905877 1.2637775 0.048458595 59
0.29270273 1.2762843 -0.0099129668 100
0.29705587 1.2677187 0.14959741 70
0.29708323 1.2717776 0.0098082526 100
0.29528311 1.2753491 -0.0098780617 100
