# .PCD v0.7 - Point Cloud Data file format
VERSION 0.7
FIELDS x y z intensity
SIZE 4 4 4 4
TYPE F F F F
COUNT 1 1 1 1
WIDTH 729
HEIGHT 1
VIEWPOINT 0 0 0 1 0 0 0
POINTS 729
DATA ascii
0.077637106 0.00068151951 0.047311705 60
0.056494951 0.0021715164 0.047835063 65
0.052732021 0.0022224784 0.047939736 52
0.048963428 0.0022903681 0.04804441 35
0.048029006 0.01246655 0.047625721 100
0.04982388 0.020867586 0.047207031 81
0.040655196 0.012586176 0.047835063 37
0.034653485 0.0094083548 0.048149079 26
0.036505997 0.017810047 0.047730394 19
0.028224289 0.011379063 0.048253752 8
0.027854562 0.016488314 0.04804441 9
0.029800653 0.024866164 0.047625721 9
-0.93880576 0.55837667 0.02624842 11
-0.86228555 0.57428038 0.024887132 28
-0.83521622 0.58295757 0.024398465 52
-0.82991272 0.58857602 0.024293751 67
-0.84045523 0.59212518 0.024468273 72
-0.82916123 0.59846079 0.024258845 72
-0.83173686 0.60303611 0.024293751 55
-0.82436699 0.60879213 0.02415413 49
-0.83882946 0.61200839 0.024398465 43
-0.86123675 0.6144473 0.024782417 13
-1.0197864 1.1266468 0.084365562 5
-1.0353878 1.1301913 0.14223817 4
-1.0244057 1.1331908 0.028203089 7
-0.99329525 1.126014 0.083004825 9
-1.016712 1.131416 0.14066938 11
-1.0056694 1.1343061 0.027888946 11
-1.0134974 1.1361392 0.084156215 65
-1.0193846 1.1375179 0.14101799 53
-1.0004973 1.1388087 0.027819136 41
-0.98500699 1.1351241 0.082690813 100
-1.0258455 1.1448381 0.14171524 95
-0.98358554 1.14073 0.027539898 37
-0.98754114 1.1416863 0.082900152 100
-1.0070317 1.1463979 0.14014643 86
-0.97839803 1.1451278 0.027470088 36
-0.98817402 1.1475271 0.083004825 100
-0.99603349 1.1494561 0.13927488 89
-0.96938378 1.1482617 0.027330469 22
-0.98497552 1.1521432 0.082900152 67
-0.99669999 1.1550622 0.13944919 91
-0.96805412 1.153563 0.027330469 30
-0.97201389 1.1545634 0.08227212 38
-1.0011415 1.1619231 0.13997212 71
-0.97058016 1.1598529 0.027400278 50
-0.96679288 1.1588819 0.082062781 40
-0.99397415 1.1658508 0.13944919 89
-0.97695118 1.1671718 0.027539898 53
-0.9750908 1.166688 0.082586139 84
-0.97522885 1.1667238 0.13788038 89
-0.96008724 1.1684184 0.027260659 71
-0.97562808 1.1725186 0.082690813 95
-0.97383481 1.1720455 0.13788038 94
-0.95096034 1.1716197 0.027121039 83
-0.96070796 1.1742278 0.081958108 96
-0.96472341 1.1753023 0.13718314 100
-0.94761938 1.1763328 0.027086135 93
-0.94772238 1.1763608 0.081330076 100
-0.97291368 1.1831957 0.1380547 100
-0.95390421 1.1836795 0.027225753 92
-0.9405176 1.1799972 0.081016064 100
-0.97338313 1.1890376 0.13822901 94
-0.95252413 1.1886643 0.027225753 92
-0.9391498 1.1849377 0.081016064 94
-0.96046954 1.1908783 0.13718314 98
-0.93950707 1.1906457 0.027016325 89
-0.94538063 1.1923045 0.081434749 82
-0.94556946 1.1923578 0.13596296 100
-0.94557017 1.1985654 0.027155945 63
-0.94182807 1.1974931 0.081330076 60
-0.94776732 1.1991949 0.13631158 100
-0.95942825 1.2082437 0.027435184 36
-0.92690045 1.1987997 0.080597371 24
-0.95008677 1.2055316 0.1366602 92
-0.93494433 1.2064797 0.027016325 53
-0.92355412 1.2031317 0.080492698 24
-0.95628029 1.2127512 0.13735744 84
-0.93149513 1.2110898 0.026981421 72
-0.92203325 1.2082727 0.080492698 26
-0.93753964 1.2128894 0.13578865 87
-0.92045099 1.2131153 0.026806897 78
-0.92439646 1.2143042 0.080702044 46
-0.93415517 1.2172451 0.13561434 99
-0.9074195 1.2147436 0.026597468 81
-0.91901594 1.2182822 0.080492698 98
-0.9211511 1.2189338 0.13456847 100
-0.9135794 1.2219341 0.026737086 88
-0.91179627 1.2213835 0.080178685 90
-0.92155808 1.2243978 0.13474278 89
-0.91199297 1.2270402 0.026737086 88
-0.89305514 1.2211199 0.079236634 82
-0.93327433 1.233693 0.13596296 61
-0.91022724 1.2326504 0.026737086 85
-0.90464026 1.2308803 0.079969339 66
-0.90489227 1.2309601 0.1335226 46
-0.89717835 1.2340809 0.026527658 81
-0.90302259 1.2359551 0.079969339 80
-0.90706879 1.2372526 0.13387123 43
-0.8842997 1.2349254 0.02631823 92
-0.9034515 1.2411335 0.080074012 98
-0.91317493 1.2442852 0.13456847 52
-0.88646823 1.2411757 0.026388038 100
-0.89420706 1.2437141 0.079655327 100
-0.9171899 1.2512527 0.13509139 71
-0.88473171 1.2464375 0.026388038 100
-0.88298362 1.245857 0.079131968 100
-0.90974361 1.2547433 0.13456847 85
-0.88685101 1.2527164 0.026457848 99
-0.88699371 1.2527643 0.07944598 100
-0.90237659 1.2579323 0.13404553 77
-0.87388164 1.2536198 0.02624842 100
-0.88727599 1.2581692 0.079550654 100
-0.895091 1.2608235 0.1335226 86
-0.86840242 1.2572877 0.02617861 93
-0.89311892 1.265779 0.079969339 100
-0.88394743 1.2626282 0.13265105 100
-0.86669284 1.2622359 0.02617861 85
-0.87439984 1.2649138 0.079027295 100
-0.9010393 1.2741697 0.13439415 85
-0.8725124 1.2698298 0.02631823 77
-0.85382038 1.2632618 0.077980578 80
-0.90678948 1.2818737 0.13509139 45
-0.87452763 1.2761312 0.026388038 78
-0.85773605 1.2701652 0.07829459 38
-0.88246495 1.2789512 0.13299966 35
-0.86522442 1.2783964 0.02624842 93
-0.85786122 1.2757512 0.078399263 19
-0.8788045 1.2832748 0.13282534 31
-0.84464544 1.276507 0.025899371 99
-0.85796458 1.2813443 0.078503937 59
-0.87700421 1.288259 0.13282534 18
-0.85037762 1.2841289 0.026038991 100
-0.85242122 1.2848792 0.07829459 100
-0.86957544 1.2911772 0.13230242 13
-0.84491521 1.287379 0.025969181 100
-0.8450883 1.2874433 0.077980578 100
-0.8958599 1.3062747 0.1349171 3
-0.83935577 1.2908412 0.025899371 100
-0.84140342 1.2916088 0.077875905 53
-0.87159187 1.3029258 0.13282534 1
-0.83378929 1.2942709 0.025829561 96
-0.83583874 1.2950473 0.077666558 48
-0.83618623 1.2951789 0.12968774 3
-0.82634836 1.296953 0.025724847 72
-0.84518892 1.3041663 0.07829459 55
-0.84922999 1.3057135 0.13108224 22
-0.83569044 1.3060832 0.025934275 72
-0.83772773 1.3068714 0.077980578 72
-0.84177691 1.3084378 0.1305593 61
-0.83567327 1.3116449 0.025969181 81
-0.81538302 1.3037137 0.07682918 69
-0.85658985 1.319821 0.1321281 100
-0.83377415 1.3164785 0.025969181 96
-0.81536943 1.3092102 0.076933853 76
-0.83427781 1.3166775 0.13021068 100
-0.81699938 1.3153775 0.025689943 99
-0.83202964 1.3213739 0.077980578 91
-0.82125777 1.3170764 0.12916481 93
-0.80785936 1.316682 0.025550323 100
-0.83029062 1.3257129 0.077980578 95
-0.83246988 1.3265903 0.130385 100
-0.80594283 1.3214185 0.025550323 100
-0.81539148 1.3252609 0.077247873 97
-0.83051854 1.3314127 0.130385 100
-0.78684658 1.3136526 0.17719802 15
-0.81121343 1.3296626 0.025689943 100
-0.79847163 1.3244238 0.076410495 100
-0.82651001 1.3359517 0.13021068 100
-0.77924126 1.3165171 0.17646681 16
-0.80925149 1.3344107 0.025689943 100
-0.80575091 1.332957 0.076933853 100
-0.81164569 1.3354046 0.1289905 100
-0.78465873 1.3241987 0.17744176 18
-0.79640526 1.3340421 0.025480513 100
-0.80765992 1.3387568 0.0771432 99
-0.79883677 1.3350606 0.12794463 100
-0.77924925 1.3268549 0.17695428 18
-0.79074484 1.3371803 0.025410704 100
-0.80014807 1.3411582 0.07682918 96
-0.80603093 1.3436468 0.12881619 100
-0.77364093 1.3299447 0.17646681 20
-0.79795164 1.3457844 0.025585229 68
-0.78896254 1.3419447 0.076305822 42
-0.80768472 1.349942 0.12916481 76
-0.75524861 1.3275436 0.17427316 15
-0.81062311 1.3568217 0.025864467 64
-0.81263334 1.3576887 0.077771232 59
-0.83309442 1.3665133 0.13177948 18
-0.78610462 1.3462471 0.17866045 10
-0.81406671 1.3639625 0.025969181 100
-0.80508012 1.3600495 0.077457212 100
-0.82004339 1.366565 0.13073361 86
-0.78044504 1.3493224 0.17817298 15
-0.79917067 1.3630873 0.025724847 100
-0.81398255 1.3695984 0.078085244 100
-0.81248087 1.3689383 0.13021068 100
-0.79113549 1.359555 0.17987914 38
-0.79343659 1.3661709 0.025655037 100
-0.80640453 1.3719256 0.077771232 100
-0.81038183 1.3736906 0.13021068 100
-0.78181154 1.3610121 0.17890419 38
-0.80229717 1.3757617 0.025864467 100
-0.80064958 1.3750236 0.077561885 100
-0.80826634 1.3784356 0.13021068 100
-0.75618917 1.3551075 0.17573559 22
-0.79663652 1.3785956 0.025794657 100
-0.80227596 1.3811443 0.077771232 100
-0.81350356 1.3862185 0.13090792 100
-0.77956671 1.3708812 0.17914793 19
-0.79814261 1.3849523 0.025864467 100
-0.8055858 1.3883476 0.078085244 100
-0.80409342 1.3876668 0.13021068 100
-0.77023691 1.3722233 0.17817298 15
-0.79406339 1.3890529 0.025829561 100
-0.81419486 1.3983252 0.078713275 100
-0.79820102 1.3909587 0.12986206 100
-0.77883905 1.3820407 0.17963541 12
-0.78826755 1.392055 0.025759751 100
-0.81561559 1.404767 0.078922622 100
-0.80325228 1.3990202 0.1305593 100
-0.77309424 1.3850021 0.17914793 10
-0.79343957 1.3998851 0.025899371 100
-0.80446142 1.4050527 0.078399263 100
-0.8083747 1.4068875 0.13125655 100
-0.7674529 1.3877008 0.17866045 7
-0.80027074 1.4088467 0.026073895 100
-0.80043095 1.4089227 0.07829459 100
-0.81334728 1.4150336 0.13195379 100
-0.7904101 1.4041815 0.1820728 3
-0.79983705 1.4144177 0.0261088 100
-0.79999489 1.4144931 0.078399263 100
-0.80029935 1.4146384 0.13090792 100
-0.79037315 1.4156544 0.025969181 100
-0.8103326 1.4252688 0.079131968 100
-0.80163091 1.4210773 0.13125655 100
-0.78451413 1.418581 0.025899371 100
-0.80444437 1.4282672 0.078922622 100
-0.8065179 1.4292749 0.13195379 100
-0.79301482 1.4285176 0.0261088 100
-0.79855174 1.4312325 0.078713275 100
-0.811364 1.4375147 0.13265105 100
-0.79429275 1.4349749 0.02617861 100
-0.79444522 1.4350502 0.07860861 100
-0.81616896 1.4457963 0.13334829 100
-0.80269915 1.4450206 0.026388038 100
-0.80283815 1.4450899 0.079236634 100
-0.80310518 1.4452232 0.13230242 100
-0.79318994 1.4461417 0.02624842 100
-0.79868942 1.44891 0.079131968 100
-0.80073994 1.4499424 0.13230242 100
-0.78725559 1.4490155 0.02617861 100
-0.80343467 1.4572308 0.079550654 100
-0.80724078 1.4591634 0.13317397 100
-0.79211658 1.4570913 0.02631823 100
-0.7975927 1.4598949 0.079341307 100
-0.81026846 1.4663842 0.13369691 100
-0.79681712 1.4654419 0.026457848 100
-0.79162699 1.4627619 0.079131968 100
-0.81668085 1.4756987 0.13456847 100
-0.80147582 1.4738336 0.026597468 100
-0.7927435 1.469286 0.079341307 100
-0.80714077 1.4767838 0.13387123 100
-0.78838855 1.4729676 0.026388038 99
-0.79913539 1.4786123 0.079864666 100
-0.79937369 1.4787375 0.13334829 100
-0.77885824 1.4738913 0.02624842 63
-0.79135877 1.4805126 0.079550654 70
-0.80041283 1.4853085 0.13369691 89
0.12407967 1.2991705 0.13203983 11
0.15301287 1.2667634 0.011099731 25
0.17843387 1.2349534 0.03119223 31
0.15446326 1.2649486 0.055431053 24
0.1360836 1.2879477 0.081408724 13
0.15044147 1.2699811 0.10136953 11
0.14186272 1.2807161 0.12707879 47
0.20205915 1.2053902 0.128672 16
0.15200907 1.2680196 0.17082056 7
0.16220686 1.2587472 0.010890301 100
0.16888639 1.2503288 0.032134276 90
0.15867016 1.2632047 0.055082429 75
0.1625711 1.2582881 0.076533951 14
0.16937852 1.2497087 0.096989371 25
0.16927373 1.2498406 0.11906482 100
0.18177846 1.2340806 0.13677025 30
0.15254915 1.2709191 0.1713382 43
0.16391528 1.260098 0.010890301 100
0.16191378 1.2626386 0.032866981 100
0.16039413 1.2645676 0.055082429 100
0.16059265 1.2643156 0.077265166 29
0.17105535 1.2510343 0.096989371 37
0.16001689 1.2650466 0.12249938 100
0.1858125 1.2323015 0.13587044 45
0.15310463 1.273821 0.17185585 43
0.1619325 1.266168 0.010995016 100
0.18209267 1.240392 0.031296901 94
0.15230319 1.2784797 0.056476921 100
0.16721237 1.2594174 0.076290213 29
0.17760468 1.2461302 0.095737889 25
0.1726329 1.2524869 0.11906482 100
0.18742844 1.2335699 0.13587044 38
0.15129521 1.2797685 0.17340876 42
0.16620603 1.2644278 0.010925206 100
0.17279705 1.2559367 0.032238949 60
0.15783465 1.2752123 0.055953987 97
0.16535705 1.2655214 0.077021427 29
0.17692974 1.2506127 0.096363634 25
0.18162686 1.2445617 0.1167751 92
0.18674007 1.2379744 0.13677025 30
0.15079713 1.2842784 0.17444403 42
0.16793424 1.2657645 0.010925206 65
0.1781531 1.2525046 0.031924933 61
0.16811395 1.2655313 0.054733805 50
0.17435956 1.257427 0.07555899 30
0.18584457 1.2425241 0.094486415 39
0.18599671 1.2423267 0.13767004 22
0.1514155 1.287199 0.17496167 49
0.17435631 1.2606113 0.010785587 52
0.17845654 1.2552562 0.032029606 30
0.16603887 1.2714744 0.055256739 49
0.16985872 1.2664855 0.076777689 100
0.18252727 1.2499396 0.095737889 51
0.19313699 1.2360827 0.11410378 20
0.18866706 1.2419207 0.13722014 30
0.16008887 1.2792454 0.17185585 50
0.18091166 1.2555517 0.010645968 40
0.15114504 1.2947109 0.03454173 27
0.16899738 1.2712255 0.055082429 50
0.18841213 1.2456845 0.073365346 62
0.19018185 1.2433563 0.094173551 52
0.19833031 1.2326367 0.11295892 13
0.19857162 1.2323192 0.13407083 46
0.17122141 1.2682996 0.16771474 67
0.17546806 1.2664796 0.010855397 39
0.1530709 1.2961693 0.03454173 27
0.16843727 1.2757996 0.055431053 49
0.19254902 1.2438371 0.072877869 47
0.18835029 1.2494029 0.095112152 51
0.20121068 1.2323551 0.1125773 13
0.20731002 1.2242699 0.13137141 47
0.17305031 1.2696846 0.16771474 67
0.17720339 1.2677839 0.010855397 39
0.18364379 1.2591842 0.032029606 30
0.17856541 1.2659652 0.054210871 51
0.19301525 1.2466708 0.073121607 78
0.20186716 1.2348511 0.091983467 53
0.19929615 1.2382841 0.11372216 13
0.21123412 1.2223437 0.13047162 40
0.17711291 1.2679048 0.16667947 67
0.18243632 1.2642038 0.010750682 79
0.19957122 1.2411652 0.030773543 32
0.18021214 1.2671943 0.054210871 51
0.19933659 1.2414806 0.072146654 79
0.20458946 1.2344179 0.091670595 54
0.19850767 1.2425952 0.1144854 13
0.21273601 1.2234646 0.13047162 32
0.18222475 1.2644882 0.16512655 83
0.19366589 1.252614 0.010471444 82
0.2000317 1.2439923 0.030878214 63
0.19023401 1.2572621 0.05299069 52
0.19626808 1.2490897 0.073121607 62
0.20386603 1.2387991 0.092296332 80
0.20249173 1.2406604 0.11372216 13
0.21316347 1.2262068 0.13092151 32
0.18739554 1.2611065 0.16357364 77
0.1929884 1.2570807 0.010541254 81
0.19106191 1.259709 0.03182026 61
0.18251437 1.2713706 0.054385185 76
0.19794255 1.2503215 0.073121607 62
0.20316899 1.243191 0.092922069 100
0.20297617 1.2434541 0.11410378 13
0.22627831 1.2116623 0.12642249 16
0.18911204 1.2623693 0.16357364 85
0.19939688 1.2518561 0.010401634 97
0.21157491 1.235119 0.030145511 65
0.17723337 1.2823167 0.055431053 74
0.19962135 1.2515476 0.073121607 62
0.19901177 1.2523853 0.094486415 91
0.21849191 1.2256125 0.10952436 14
0.23584777 1.2017593 0.12327318 17
0.18628648 1.2698745 0.16564418 83
0.1940558 1.2628033 0.010611063 81
0.21320054 1.2362975 0.030145511 65
0.18952328 1.2690785 0.053862248 100
0.19897977 1.2559861 0.073609084 77
0.20416763 1.2488035 0.093547814 100
0.20858899 1.2426822 0.11334054 13
0.24876714 1.1870557 0.11877415 8
0.18350902 1.2774053 0.16771474 75
0.19344774 1.2672931 0.010680873 80
0.21483028 1.2374703 0.030145511 65
0.18894571 1.2735722 0.054210871 100
0.20299169 1.2539818 0.073121607 78
0.2092942 1.2451916 0.092609204 100
0.21138501 1.2422755 0.11295892 13
0.23546311 1.2086931 0.12462288 16
0.1976648 1.2614114 0.16202073 70
0.20205763 1.2586987 0.010471444 82
0.21290711 1.2434602 0.030459527 97
0.20217329 1.2585363 0.052467756 100
0.20690122 1.2518957 0.072634131 78
0.21774608 1.2366637 0.090731993 95
0.20042759 1.2609882 0.11715672 19
0.23013806 1.2192587 0.1273223 16
0.20153725 1.2594297 0.16098544 72
0.2083821 1.2533782 0.010331824 84
0.21571454 1.2430029 0.030354854 65
0.19353163 1.2743911 0.054036561 100
0.22004232 1.2368793 0.07019674 82
0.21481675 1.2442733 0.091983467 93
0.20554283 1.2573956 0.11601187 39
0.2283341 1.2251468 0.128672 24
0.19878796 1.2669535 0.163056 70
0.20777467 1.2578418 0.010401634 97
0.22195572 1.2376268 0.029936166 99
0.1987271 1.2707391 0.053513627 100
0.219394 1.2412784 0.070684217 65
0.21987763 1.240589 0.091044858 100
0.20499131 1.2618095 0.1167751 92
0.22544825 1.2326481 0.13047162 48
0.20163423 1.2665949 0.16253836 70
0.21176502 1.2557513 0.010331824 84
0.22359005 1.2387689 0.029936166 99
0.20047715 1.2719622 0.053513627 100
0.21423504 1.2522041 0.072146654 79
0.22942382 1.2303908 0.088854775 100
0.22017249 1.243677 0.11219569 84
0.2292923 1.2305797 0.12957181 80
0.20116195 1.2709787 0.16357364 69
0.20436704 1.2700891 0.010611063 94
0.2263639 1.2382624 0.029831495 99
0.19996586 1.2764573 0.053862248 100
0.22043487 1.2468411 0.071171694 81
0.23327911 1.2282569 0.088229038 100
0.21959549 1.2480556 0.11295892 82
0.22757804 1.2365057 0.13092151 96
0.21279824 1.2578903 0.15891489 73
0.21290201 1.2613988 0.010401634 83
0.22461095 1.2443303 0.030145511 65
0.2220231 1.2481027 0.05072464 100
0.21985549 1.2512624 0.071659178 80
0.23264575 1.2326176 0.088854775 100
0.22681916 1.2411113 0.11105084 91
0.2303108 1.2360214 0.13047162 96
0.21450335 1.2590644 0.15891489 73
0.22362286 1.249349 0.010122396 85
0.22289646 1.2504159 0.030459527 65
0.21135938 1.2673603 0.05264207 100
0.22153741 1.252412 0.071659178 64
0.22648025 1.2451524 0.091044858 100
0.23178038 1.2373681 0.10990598 100
0.22755241 1.2435777 0.13227122 100
0.21403801 1.2634263 0.15995017 72
0.20850319 1.2753381 0.010645968 53
0.23016688 1.2432806 0.029936166 33
0.21086642 1.271841 0.05299069 79
0.22655779 1.2486212 0.070927955 100
0.22150454 1.256099 0.092922069 100
0.22901672 1.2449827 0.11143246 100
0.23466313 1.2366272 0.13002171 96
0.21576244 1.264596 0.15995017 72
0.2191802 1.2632411 0.010366729 41
0.23182088 1.2443942 0.029936166 33
0.21816924 1.2647483 0.052119136 54
0.23154768 1.2448015 0.07019674 82
0.23750758 1.2359155 0.088854775 98
0.22083452 1.2607745 0.11486702 100
0.24280682 1.2280146 0.1273223 89
0.21426269 1.2705729 0.16150309 70
0.22081766 1.2643354 0.010366729 27
0.20793462 1.2836819 0.032343622 30
0.21649879 1.2708211 0.05264207 53
0.21882051 1.2673345 0.073365346 100
0.24233899 1.2320167 0.087916173 100
0.2355217 1.2422543 0.1102876 92
0.24432734 1.2290307 0.1273223 97
0.21913677 1.2668595 0.15995017 72
0.22356156 1.2637562 0.010331824 28
0.18761015 1.3181348 0.03443706 27
0.23244584 1.2503183 0.05037602 56
0.23032454 1.2535268 0.071171694 81
0.24278334 1.2346822 0.088229038 98
0.23925498 1.2400191 0.10952436 92
0.24155229 1.2365443 0.1291219 96
0.22824416 1.2566736 0.1563267 74
0.22190884 1.2698512 0.010436539 41
0.21134898 1.2859392 0.032343622 30
0.22857395 1.2596968 0.051247578 55
0.22648335 1.2628819 0.072390392 100
0.23782226 1.2456069 0.090106249 96
0.24512452 1.2344818 0.10799789 87
0.24096245 1.2408228 0.13002171 96
0.22879973 1.2593529 0.15684435 74
0.236837 1.2509413 0.010017681 43
0.21324226 1.2871771 0.032343622 30
0.22167355 1.2742286 0.05264207 53
0.23695755 1.2507563 0.070440479 49
0.23741177 1.2500587 0.090731993 95
0.24040133 1.2454674 0.1102876 85
0.24375352 1.2403193 0.12957181 96
0.22427061 1.2702403 0.15995017 72
0.22974882 1.2654121 0.010296919 42
0.24748737 1.2379714 0.029203463 34
0.22659233 1.2702949 0.052119136 54
0.24609721 1.240122 0.068734311 67
0.2465122 1.23948 0.08854191 84
0.24197972 1.2464914 0.1102876 92
0.25272039 1.2298763 0.12642249 99
0.22593126 1.2713176 0.15995017 72
0.23372561 1.2632159 0.01022711 56
0.24381402 1.2474835 0.029726824 67
0.23165464 1.2664454 0.051596198 54
0.241393 1.2512589 0.07019674 66
0.25250018 1.2339377 0.087290429 85
0.24902704 1.2393539 0.10837951 87
0.25230405 1.2342436 0.1273223 81
0.238199 1.2562399 0.15477379 75
0.241806 1.2541406 0.010017681 72
0.25076178 1.2400719 0.029203463 68
0.23972222 1.2574139 0.05055033 56
0.23979262 1.2573034 0.070927955 65
0.24979714 1.2415873 0.08854191 56
0.2421509 1.2535987 0.11143246 91
0.25279868 1.2368722 0.1277722 89
0.23566347 1.2637898 0.15684435 66
0.24998847 1.245122 0.0098082526 74
0.23969042 1.2614307 0.030459527 97
0.23725575 1.2652864 0.051247578 55
0.24582019 1.2517232 0.069953002 49
0.25258228 1.2410141 0.088229038 56
0.25335926 1.2397836 0.10799789 72
0.25035006 1.2445493 0.12957181 96
0.23334968 1.2714725 0.15891489 65
0.24944159 1.2495029 0.0098780617 73
0.24874702 1.2506111 0.029726824 100
0.23149276 1.2781379 0.052467756 80
0.25163645 1.2460012 0.068978049 100
0.25309673 1.2436715 0.08854191 70
0.24553454 1.2557361 0.11143246 91
0.25917023 1.2339821 0.12642249 99
0.23706639 1.269246 0.15787962 65
0.24275446 1.2641872 0.0101573 85
0.26316506 1.2313579 0.02847076 100
0.23440927 1.2776099 0.052293446 80
0.25128686 1.2504632 0.069465525 49
0.26526469 1.2279807 0.085413218 73
0.25664616 1.2418432 0.10799789 79
0.2670463 1.2251151 0.12372308 83
0.23277828 1.2802334 0.16098544 64
0.24019417 1.2720103 0.010296919 70
0.25630528 1.2459037 0.029308135 100
0.24341878 1.2667851 0.051073264 100
0.2434991 1.266655 0.071659178 80
0.26263529 1.2356466 0.086664692 86
0.24893302 1.2578498 0.11143246 77
0.26548678 1.2310261 0.12507279 83
0.24461761 1.2648425 0.15580906 67
0.25777873 1.2476099 0.0097733475 89
0.25605002 1.2504354 0.029517479 100
0.24636838 1.2662591 0.050898954 83
0.24851644 1.2627482 0.070927955 48
0.26442537 1.2367465 0.086664692 57
0.25900546 1.2456049 0.10837951 79
0.26725909 1.232115 0.12507279 100
0.24853641 1.2627157 0.15477379 67
0.25521222 1.2554131 0.0099129668 100
0.2576448 1.2514074 0.029517479 100
0.25628924 1.2536396 0.049504463 86
0.25839537 1.2501715 0.068978049 50
0.26597473 1.2376909 0.086664692 57
0.25752702 1.2516015 0.10952436 85
0.26778153 1.2347158 0.12552269 90
0.25017196 1.2637126 0.15477379 67
0.25062966 1.2666638 0.010122396 85
0.26336706 1.245532 0.029098792 100
0.24658072 1.273381 0.051421888 82
0.26921222 1.2358348 0.066784397 34
0.2654877 1.2420139 0.087290429 71
0.25811216 1.25425 0.10990598 92
0.27435419 1.2273041 0.12327318 93
0.24782166 1.2713223 0.15684435 66
0.25843805 1.2573575 0.0099129668 87
0.27109781 1.2361963 0.02847076 100
0.2390458 1.2897725 0.05299069 79
0.26260549 1.2503915 0.068734311 33
0.27313936 1.2327837 0.085413218 58
0.26274335 1.2501611 0.10876112 79
0.27987403 1.2215264 0.12147357 77
0.24750218 1.2756373 0.15787962 65
0.25818563 1.2618625 0.0099827768 87
0.26567474 1.2492392 0.029203463 100
0.25925177 1.2600654 0.049853086 100
0.26538104 1.2497344 0.068490572 50
0.27685326 1.2303976 0.084787481 59
0.25749302 1.2630298 0.11143246 84
0.27357614 1.2359213 0.12507279 100
0.26124659 1.2567031 -0.0098780617 76
0.25527173 1.2667739 0.15477379 67
0.26184753 1.2593811 0.0099129668 87
0.26625216 1.2519006 0.029308135 100
0.2608785 1.2610269 0.049853086 85
0.26193738 1.2592285 0.069709264 66
0.28038606 1.2278965 0.084161744 59
0.26709864 1.250463 0.10837951 87
0.2751227 1.2368354 0.12507279 83
0.25692073 1.2677485 0.15477379 67
0.27271783 1.244892 0.0095988233 76
0.26499909 1.2581117 0.029622151 100
0.2536386 1.2775683 0.051421888 82
0.26473337 1.2585667 0.069465525 49
0.27509388 1.2408227 0.086351827 58
0.27084136 1.2481058 0.10761628 79
0.27880079 1.2344739 0.12417299 83
0.2626434 1.2621462 0.15270324 68
0.27529672 1.2440786 0.0095639192 91
0.27162603 1.2504135 0.029098792 100
0.26231572 1.2664812 0.050201707 85
0.27232656 1.2492046 0.068003096 51
0.27566633 1.2434409 0.086664692 57
0.27144405 1.2507277 0.10799789 79
0.28522763 1.2269402 0.12192347 76
0.26040277 1.2697824 0.15477379 67
0.27404749 1.250284 0.0096686333 75
0.27736872 1.2445035 0.028680105 100
0.25917444 1.2761699 0.051073264 83
0.27507374 1.2484978 0.067759357 68
0.27937162 1.2410176 0.086038955 87
0.27125174 1.2551498 0.10876112 79
0.28787503 1.2262177 0.12147357 86
0.25838685 1.2775407 0.15684435 66
0.26870847 1.2633567 0.0099129668 87
0.2769652 1.2488751 0.028889447 100
0.26677564 1.2667466 0.050027397 100
0.27764523 1.2476825 0.067515619 51
0.27897823 1.2453445 0.086664692 71
0.27188969 1.2577771 0.10914274 85
0.2874589 1.2304703 0.12237337 93
0.26969892 1.2616194 -0.0098780617 76
0.26772639 1.265079 0.15270324 68
0.27642313 1.2539396 0.0097035384 90
0.27282488 1.2603047 0.029517479 100
0.27055919 1.2643125 0.049678773 86
0.27158263 1.2625021 0.069465525 66
0.28363863 1.2411758 0.08572609 58
0.28044245 1.2468296 0.10647142 88
0.2862713 1.2365187 0.12372308 83
0.26193723 1.2795641 0.15684435 66
0.28194267 1.2478679 0.0095639192 91
0.28031501 1.2507696 0.028889447 100
0.27609888 1.2582858 0.048981529 87
0.27904436 1.2530348 0.068003096 68
0.28616899 1.2403337 0.085413218 58
0.28586707 1.2408719 0.10494494 82
0.2878198 1.2373908 0.12372308 83
0.27307978 1.2636679 0.15166797 69
0.27697828 1.2611282 0.0098082526 74
0.28798556 1.2413276 0.028261416 100
0.27216741 1.2697823 0.050027397 85
0.28475913 1.2471316 0.067028143 51
0.28797689 1.2413433 0.085413218 58
0.28386143 1.2487464 0.10647142 81
0.29813802 1.2230648 0.11967396 78
0.27310008 1.2681046 0.15270324 68
0.28247163 1.2550268 0.0096686333 90
0.28954998 1.2421939 0.028261416 100
0.27575085 1.2672117 0.049678773 86
0.2805903 1.2584378 0.068490572 67
0.29431164 1.233561 0.083848871 59
0.28450227 1.2513454 0.10685304 81
0.29870063 1.2256038 0.12012386 77
0.275711 1.2672839 -0.0099129668 87
0.27102122 1.2757864 0.15477379 67
0.27936789 1.2647295 0.0098431576 88
0.28736576 1.2501091 0.028680105 100
0.27940047 1.26467 0.049330149 87
0.28801298 1.2489259 0.067028143 51
0.29593134 1.2344507 0.083848871 59
0.2824153 1.2591587 0.10837951 79
0.29935727 1.2281879 0.12057377 77
0.27552915 1.271747 -0.0099827768 96
0.28113261 1.2615036 0.15011504 78
0.287687 1.2533215 0.0095988233 61
0.29086471 1.2474666 0.02847076 100
0.28864539 1.2515557 0.047935657 89
0.28770879 1.2532815 0.067515619 51
0.29747292 1.2352906 0.083848871 59
0.28684834 1.2548668 0.10723466 81
0.28291768 1.2621093 -0.0097733475 88
0.28368548 1.2606945 0.14959741 70
0.29127118 1.2507126 0.0095290141 76
0.28874668 1.255403 0.028889447 100
0.28277382 1.2665005 0.049330149 87
0.28939736 1.254194 0.067515619 51
0.29535383 1.2431271 0.085100345 58
0.29319471 1.2471387 0.10532656 82
0.2835688 1.2650235 0.15063268 70
0.28909919 1.2586238 0.0096686333 75
0.2941207 1.2492193 0.02847076 100
0.28066799 1.2744141 0.050027397 85
0.29287446 1.2515534 0.067028143 51
0.29385364 1.2497195 0.10570818 73
0.28703165 1.262496 0.14959741 70
0.29378256 1.2543192 0.0095639192 91
0.29192361 1.2578331 0.048284281 88
0.29286882 1.2560465 0.067515619 51
0.29477945 1.2524348 0.1060898 73
0.29004216 1.2613896 -0.0097035384 89
0.2871179 1.2669172 0.15063268 70
0.28609771 1.272873 0.0099129668 87
0.29941264 1.247501 0.028261416 100
0.28428438 1.2763283 0.050027397 85
0.28710246 1.2709584 0.069465525 49
0.29181919 1.2619706 0.10799789 79
0.29167309 1.262249 -0.0097035384 100
0.2905626 1.2643651 0.14959741 70
0.29901546 1.252548 0.0094941091 92
0.29441625 1.2613906 0.048458595 59
0.29810029 1.2543075 0.067028143 51
0.28886533 1.2720628 -0.0098780617 97
0.29237628 1.2653127 0.14959741 70
0.29604715 1.2622354 0.048458595 59
0.29579169 1.2627306 0.14856213 71
0.28597185 1.2861784 0.05072464 56
0.2995947 1.2595456 0.067515619 68
0.29487395 1.2687746 0.15011504 78
0.29760069 1.2675062 0.048807215 58
0.2974034 1.2678951 0.14959741 78
0.298507 1.2702557 -0.0097733475 100
0.29838276 1.2746661 -0.0098431576 100
