# .PCD v0.7 - Point Cloud Data file format
VERSION 0.7
FIELDS x y z intensity
SIZE 4 4 4 4
TYPE F F F F
COUNT 1 1 1 1
WIDTH 738
HEIGHT 1
VIEWPOINT 0 0 0 1 0 0 0
POINTS 738
DATA ascii
0.057693452 0.0095920563 0.015811881 79
0.056122363 0.0071653724 0.047625721 50
0.05018869 0.0038756728 0.047939736 36
0.050941378 0.010544717 0.047625721 21
0.04734242 0.022530317 0.047207031 50
0.039266348 0.015933037 0.047730394 28
0.036505997 0.017810047 0.047730394 19
0.023830533 0.004704833 0.048672438 16
0.018010795 0.013617277 0.048463095 8
-1.1075895 0.51072478 0.029285138 10
-1.0669727 0.52285719 0.028552137 8
-1.0342033 0.53352189 0.027958754 5
-1.0132127 0.54195189 0.027574802 8
-1.0001409 0.54938227 0.027330469 12
-0.97317153 0.55864245 0.026841801 12
-0.94615668 0.56771165 0.026353134 27
-0.93495816 0.57450151 0.026143705 38
-0.92174715 0.58146483 0.025899371 34
-0.93033379 0.58561468 0.026038991 35
-0.92501277 0.59150386 0.025934275 34
-0.92364079 0.59688699 0.025899371 26
-0.91827554 0.60271108 0.025794657 17
-0.92083818 0.60761791 0.025829561 9
-1.0199108 1.1260988 0.084365562 5
-1.0510576 1.1331637 0.14363267 6
-1.0517495 1.139204 0.028691756 8
-1.0011423 1.1275392 0.083423518 9
-1.028424 1.1338276 0.14171524 13
-1.0037858 1.133579 0.02785404 12
-1.0116165 1.1354113 0.084051549 60
-1.0078089 1.1345203 0.13997212 53
-0.99667078 1.1376133 0.027749326 41
-0.99867266 1.1380891 0.083423518 100
-1.0142806 1.1417987 0.14066938 95
-0.97969812 1.1397903 0.027470088 37
-0.98754114 1.1416863 0.082900152 100
-1.0089684 1.1468661 0.14032075 87
-0.9861663 1.1470343 0.027609708 32
-0.97071689 1.1432425 0.082062781 100
-0.99796849 1.1499311 0.13944919 91
-0.98691469 1.1523412 0.027644612 23
-0.9772895 1.1499467 0.082481466 74
-0.99290031 1.1538303 0.13910057 92
-0.97781533 1.1557456 0.027504992 28
-0.98176342 1.1567425 0.082795486 39
-0.98961931 1.158726 0.13892625 77
-0.96096247 1.157106 0.027225753 48
-0.98814315 1.1640697 0.083214171 33
-0.97860271 1.1616254 0.1380547 85
-0.95960206 1.162378 0.027225753 61
-0.96356195 1.1634072 0.081958108 84
-0.9810831 1.1679614 0.13840333 91
-0.96209043 1.1686647 0.027295563 71
-0.95831686 1.1676698 0.081748761 98
-0.98161107 1.1738113 0.13857763 98
-0.9645533 1.1749735 0.027365373 81
-0.95113117 1.1713846 0.081434749 94
-0.96864361 1.1760671 0.13753176 100
-0.94769031 1.1760714 0.027086135 93
-0.9477933 1.1760994 0.081330076 100
-0.95760208 1.1787589 0.1366602 100
-0.94240743 1.1802368 0.027016325 92
-0.95406991 1.1834427 0.081748761 100
-0.96577173 1.1866593 0.13753176 94
-0.94096631 1.1854439 0.027016325 92
-0.9391498 1.1849377 0.081016064 92
-0.96430808 1.1919478 0.13753176 94
-0.94335586 1.1917326 0.027086135 89
-0.9261598 1.1868764 0.080388032 86
-0.9666608 1.1983142 0.13788038 98
-0.9648692 1.2038095 0.027504992 55
-0.9323023 1.1944834 0.080806717 66
-0.94975752 1.1994821 0.13648589 100
-0.95374328 1.2063086 0.027330469 42
-0.93848413 1.2018812 0.081225403 24
-0.9444223 1.2036042 0.13613728 94
-0.92535168 1.20366 0.026841801 59
-0.92930275 1.2048213 0.080806717 22
-0.94481117 1.2093799 0.13631158 82
-0.91999573 1.2076662 0.026771991 74
-0.91437644 1.2059929 0.080074012 26
-0.94517785 1.2151636 0.13648589 89
-0.91478401 1.2111287 0.026702182 75
-0.91873676 1.2123191 0.080388032 42
-0.93423325 1.2169859 0.13561434 99
-0.91897351 1.2179891 0.026806897 81
-0.90954214 1.2151129 0.079969339 94
-0.92885238 1.2210019 0.13526571 99
-0.9135794 1.2219341 0.026737086 88
-0.91179627 1.2213835 0.080178685 90
-0.91584688 1.2226342 0.13421984 92
-0.90054137 1.2234602 0.026527658 83
-0.91593057 1.2282711 0.080492698 76
-0.91425806 1.2277483 0.13421984 61
-0.90276259 1.2297274 0.026597468 83
-0.89718431 1.2279621 0.079550654 72
-0.9202494 1.2352611 0.1349171 45
-0.90114897 1.2347957 0.026597468 79
-0.89938098 1.2342294 0.07976 82
-0.9091292 1.2373517 0.13404553 45
-0.90712672 1.2423248 0.026737086 92
-0.89775175 1.2392858 0.07976 97
-0.907489 1.2424421 0.13404553 49
-0.89026839 1.2424222 0.026457848 100
-0.89990038 1.2455816 0.079969339 100
-0.90204471 1.246285 0.13369691 73
-0.87334496 1.2426562 0.02617861 100
-0.89814752 1.2508925 0.079969339 100
-0.90974361 1.2547433 0.13456847 85
-0.8830598 1.2514427 0.026388038 100
-0.88888699 1.2534003 0.079550654 100
-0.91181988 1.2611048 0.1349171 82
-0.8852424 1.2574785 0.026457848 93
-0.87782031 1.2549576 0.079027295 100
-0.90075058 1.2627459 0.13404553 77
-0.88353199 1.2624855 0.026457848 96
-0.87234098 1.2586408 0.078817949 100
-0.89525312 1.2665122 0.13369691 100
-0.87047058 1.2635485 0.02624842 88
-0.88383299 1.2681913 0.079550654 100
-0.89727527 1.272862 0.13404553 84
-0.86127919 1.2656059 0.0261088 79
-0.88028866 1.2722816 0.07944598 82
-0.89559978 1.2776585 0.13404553 45
-0.8651939 1.2725368 0.026213514 83
-0.85217696 1.2679144 0.077980578 38
-0.89945143 1.2847016 0.13456847 35
-0.86163741 1.2765515 0.02617861 96
-0.85239798 1.273236 0.078085244 17
-0.88460952 1.2847948 0.13334829 33
-0.85977131 1.2817221 0.02617861 96
-0.85993117 1.28178 0.07860861 59
-0.87147611 1.2859707 0.13230242 20
-0.84680218 1.282263 0.025969181 100
-0.85447603 1.2850773 0.078399263 100
-0.85853392 1.2865655 0.13125655 13
-0.83741564 1.2845975 0.025829561 100
-0.85819656 1.2923052 0.078713275 100
-0.86597127 1.2951889 0.1321281 3
-0.8431918 1.292002 0.025969181 100
-0.83775383 1.2899644 0.077666558 57
-0.87168485 1.3026778 0.13282534 1
-0.8412692 1.2971048 0.025969181 99
-0.83397108 1.2943397 0.077561885 53
-0.83991247 1.2965908 0.13003637 3
-0.83391076 1.2995715 0.025864467 72
-0.83409005 1.2996401 0.077666558 55
-0.84560186 1.3040452 0.13073361 22
-0.8319605 1.3046402 0.025864467 74
-0.83586496 1.3061507 0.077875905 63
-0.83248597 1.3048434 0.12968774 60
-0.82459217 1.3070369 0.025759751 81
-0.8303588 1.3092898 0.077666558 59
-0.84926265 1.3166754 0.13143086 100
-0.8228038 1.3115923 0.025759751 99
-0.81369966 1.3080006 0.07682918 72
-0.83446854 1.3161942 0.13021068 95
-0.82100028 1.3161416 0.025759751 100
-0.81561893 1.313998 0.077038527 100
-0.83635157 1.3222569 0.1305593 95
-0.82269937 1.3226566 0.025829561 100
-0.82658511 1.3242211 0.077771232 97
-0.8343181 1.3273344 0.1305593 100
-0.80974406 1.3226877 0.025620133 100
-0.82288939 1.3280308 0.077666558 100
-0.8269251 1.3296713 0.13003637 100
-0.78878039 1.3141668 0.17744176 15
-0.80400974 1.3261483 0.025550323 100
-0.81898743 1.3323002 0.077561885 100
-0.81380659 1.3301723 0.1289905 100
-0.78494066 1.3183157 0.17719802 16
-0.79846364 1.3291035 0.025480513 100
-0.80420047 1.3314822 0.07682918 100
-0.81562239 1.3362179 0.12933913 100
-0.78861624 1.3250206 0.17792924 20
-0.80009407 1.3355874 0.025550323 100
-0.79108065 1.3318114 0.076201156 100
-0.82456392 1.3458383 0.130385 100
-0.78291112 1.3283889 0.17744176 22
-0.80557841 1.3431764 0.025689943 100
-0.78921026 1.3362556 0.076201156 96
-0.79879063 1.3403063 0.12811895 100
-0.77922374 1.3320329 0.17719802 20
-0.79805213 1.3455491 0.025585229 71
-0.8074308 1.3495533 0.077352546 42
-0.80045635 1.3465757 0.12846756 76
-0.78273076 1.3390077 0.17792924 15
-0.80715495 1.354764 0.025794657 63
-0.82017535 1.3603742 0.078189917 59
-0.82232398 1.3613 0.13073361 16
-0.78265959 1.3442097 0.17817298 5
-0.79950184 1.3573403 0.025689943 100
-0.79968899 1.3574218 0.0771432 100
-0.81101316 1.3623503 0.12986206 71
-0.76052421 1.3403761 0.17549185 15
-0.7975468 1.3618121 0.025689943 100
-0.79956239 1.3626974 0.077247873 100
-0.8218109 1.3724685 0.13108224 100
-0.78770608 1.3574904 0.17939167 33
-0.79719657 1.367558 0.025724847 100
-0.80103236 1.3692594 0.077457212 100
-0.81230849 1.374261 0.130385 100
-0.79280227 1.3656089 0.18036664 38
-0.79510254 1.372257 0.025724847 100
-0.81169254 1.3796849 0.078189917 100
-0.79746181 1.3733134 0.12916481 100
-0.78527969 1.3678589 0.17963541 31
-0.78388077 1.3728309 0.025550323 100
-0.81137604 1.385257 0.07829459 100
-0.80260998 1.3812953 0.12986206 100
-0.76871318 1.3659761 0.1776855 22
-0.7926845 1.3824627 0.025759751 100
-0.80013436 1.3858609 0.077771232 100
-0.80409342 1.3876668 0.13021068 100
-0.76481873 1.3697517 0.17744176 15
-0.79962069 1.391327 0.025934275 100
-0.80341917 1.3930757 0.078085244 100
-0.81097811 1.3965557 0.13108224 100
-0.76992995 1.3776581 0.17841671 14
-0.80469769 1.3994045 0.026073895 100
-0.80485851 1.3994794 0.07829459 100
-0.80336207 1.398784 0.1305593 100
-0.76780075 1.382262 0.17841671 10
-0.79525024 1.4007339 0.025934275 100
-0.80446142 1.4050527 0.078399263 100
-0.7975511 1.4018128 0.13021068 100
-0.78183156 1.3944426 0.18061037 5
-0.78942508 1.4037154 0.025864467 100
-0.81487411 1.415756 0.079131968 100
-0.80254132 1.4099211 0.13090792 100
-0.77605504 1.3973897 0.18012288 3
-0.7909258 1.4098761 0.025934275 100
-0.79289716 1.4108168 0.077980578 100
-0.80760449 1.417835 0.13160518 100
-0.79589099 1.4180229 0.026073895 100
-0.79245168 1.4163669 0.078085244 100
-0.81251544 1.4260273 0.13230242 100
-0.80249947 1.4273219 0.02624842 100
-0.79905528 1.4256481 0.07860861 100
-0.8065179 1.4292749 0.13195379 100
-0.79301482 1.4285176 0.0261088 100
-0.80213827 1.432991 0.078922622 100
-0.80063051 1.4322517 0.13160518 100
-0.78723866 1.4311949 0.026038991 100
-0.81067449 1.4427826 0.079550654 100
-0.8055709 1.4402592 0.13230242 100
-0.79565912 1.4412141 0.02624842 100
-0.79759413 1.4421794 0.078922622 100
-0.81392044 1.4503229 0.13334829 100
-0.79330796 1.4459074 0.02624842 100
-0.80237621 1.4504701 0.079341307 100
-0.81153733 1.4550798 0.13334829 100
-0.79807311 1.4542124 0.026388038 100
-0.79999262 1.4551866 0.079341307 100
-0.8002544 1.4553195 0.13247673 100
-0.79567653 1.4589138 0.026388038 100
-0.80114836 1.4617151 0.079550654 100
-0.79962748 1.4609365 0.13265105 100
-0.78970999 1.461772 0.02631823 100
-0.8058241 1.4700928 0.079969339 100
-0.80605906 1.470214 0.1335226 100
-0.78728706 1.4664443 0.02631823 100
-0.7962864 1.471131 0.079550654 100
-0.80890793 1.477704 0.13404553 100
-0.79547006 1.4766872 0.026527658 100
-0.79206258 1.4748974 0.07944598 100
-0.81172091 1.4852226 0.13456847 100
-0.80018824 1.4848878 0.026667276 64
-0.77912706 1.4737365 0.078817949 76
-0.80053765 1.4850729 0.13369691 91
0.1302346 1.2915235 0.13013174 11
0.15410993 1.2618604 0.14576828 6
0.16299996 1.2542663 0.010820492 26
0.16097772 1.2567968 0.032657638 29
0.14451265 1.2774 0.056825545 23
0.14599776 1.2755418 0.07945881 14
0.13317659 1.2915853 0.1057497 10
0.15289345 1.2669129 0.12364423 49
0.19232652 1.217569 0.13227122 15
0.1459789 1.2755654 0.17340876 7
0.15599224 1.2665797 0.011064826 100
0.17633486 1.2409413 0.031506244 93
0.15123984 1.2725693 0.056128297 72
0.15023258 1.2738388 0.078971334 14
0.17674538 1.2404239 0.095112152 38
0.16927373 1.2498406 0.11906482 100
0.19267976 1.2203413 0.13272113 31
0.14414385 1.2815126 0.17496167 28
0.15764111 1.2678835 0.011064826 100
0.17171752 1.2500213 0.032029606 100
0.15044221 1.2770185 0.056476921 100
0.15559164 1.2704842 0.078240119 28
0.18075278 1.238556 0.094486415 39
0.15750018 1.2680625 0.12326261 100
0.19417512 1.2215238 0.13272113 47
0.15540817 1.2707171 0.17082056 43
0.16677487 1.2598006 0.010855397 100
0.16354957 1.2639229 0.032866981 100
0.16203633 1.265857 0.055082429 100
0.15978754 1.2687311 0.077752642 28
0.17752159 1.2460651 0.095737889 38
0.17496827 1.2493286 0.11830158 100
0.18734753 1.2335067 0.13587044 30
0.1571584 1.2720914 0.17082056 36
0.17470491 1.2533047 0.010680873 100
0.16536248 1.2653359 0.032866981 58
0.15774646 1.2751439 0.055953987 97
0.17135808 1.2576149 0.075802729 30
0.17684588 1.2505476 0.096363634 25
0.17913583 1.2475986 0.11753834 86
0.1794872 1.2471461 0.13946965 29
0.15307707 1.281157 0.17340876 42
0.16662678 1.2672814 0.010960111 77
0.1731911 1.2587667 0.032343622 60
0.16316158 1.2717762 0.055431053 49
0.18275863 1.2463565 0.073852822 62
0.16887689 1.2643628 0.098866582 24
0.18948376 1.2376332 0.13632034 15
0.15486377 1.2825395 0.17340876 42
0.17192495 1.2637868 0.010855397 52
0.19059849 1.2393981 0.030982886 31
0.16361642 1.2746382 0.055605363 49
0.18554708 1.2459955 0.073609084 62
0.18372816 1.2483711 0.095425025 51
0.1883629 1.2423179 0.11563025 13
0.19695997 1.2310897 0.13407083 31
0.15891445 1.2807792 0.17237349 57
0.17123064 1.2682874 0.010925206 39
0.17048347 1.2692704 0.032866981 29
0.17261451 1.266467 0.054559495 50
0.1908147 1.2425238 0.072877869 47
0.19735432 1.2339207 0.092296332 53
0.19595417 1.2357626 0.11372216 13
0.19857162 1.2323192 0.13407083 46
0.17706674 1.2606099 0.16512655 76
0.17779055 1.2632219 0.010785587 52
0.16501001 1.2801576 0.033495013 28
0.17915043 1.2614198 0.053862248 51
0.18170443 1.2580354 0.075071514 60
0.19659603 1.2383024 0.092922069 53
0.19521692 1.2401298 0.1144854 13
0.20018753 1.2335432 0.13407083 46
0.17994526 1.2603666 0.16460891 69
0.18431041 1.2581165 0.010645968 40
0.16679314 1.2814983 0.033495013 28
0.18206269 1.2611167 0.053687938 52
0.19174182 1.2481972 0.073365346 62
0.19231084 1.2474377 0.094486415 52
0.1992144 1.238223 0.11372216 13
0.20648146 1.228523 0.13227122 31
0.1781843 1.2662935 0.16616182 68
0.1848231 1.2609947 0.010680873 80
0.19480348 1.2475756 0.03119223 31
0.17783409 1.2703917 0.054559495 50
0.19933659 1.2414806 0.072146654 79
0.1975162 1.2439282 0.093547814 52
0.19499275 1.2473211 0.11563025 13
0.21506199 1.2203373 0.12957181 32
0.17530736 1.2737889 0.16823238 67
0.1865392 1.2622664 0.010680873 93
0.21308136 1.226318 0.029726824 67
0.17721617 1.2748933 0.054908119 75
0.19862628 1.2458957 0.072634131 94
0.2062127 1.2356209 0.091670595 81
0.20015946 1.2438192 0.1144854 13
0.22358108 1.2120974 0.12687239 24
0.1828056 1.267323 0.16564418 68
0.1905385 1.2602437 0.010611063 94
0.20396742 1.2419288 0.03066887 64
0.18360499 1.2696998 0.054210871 100
0.19668493 1.251861 0.073365346 93
0.21243086 1.2303863 0.090419121 82
0.20753708 1.2370604 0.1125773 13
0.22389662 1.2147489 0.1273223 16
0.18902609 1.2623062 0.16357364 69
0.19225195 1.2614954 0.010611063 94
0.20209077 1.2479782 0.030982886 63
0.19004151 1.2645322 0.053513627 100
0.20421013 1.2450665 0.072146654 79
0.21055251 1.236353 0.09135773 94
0.20916954 1.238253 0.1125773 13
0.22545105 1.2158844 0.1273223 16
0.18847302 1.2666872 0.16460891 69
0.19873926 1.256319 0.010471444 82
0.20384499 1.2492502 0.030982886 63
0.1883567 1.2706937 0.054036561 100
0.20944062 1.241503 0.071415432 96
0.20879418 1.242398 0.092296332 100
0.20858899 1.2426822 0.11334054 13
0.23279265 1.2091722 0.12507279 16
0.19821391 1.2570465 0.16098544 72
0.19810855 1.2607925 0.010541254 95
0.21133891 1.2423397 0.030459527 97
0.19126761 1.2703338 0.053862248 100
0.21455863 1.2378491 0.070684217 65
0.20353901 1.2532185 0.094173551 100
0.21252897 1.24068 0.1125773 13
0.23886964 1.2039419 0.12327318 8
0.19541347 1.2645514 0.163056 78
0.20205763 1.2586987 0.010471444 96
0.21406549 1.2418332 0.030354854 65
0.19755101 1.2650285 0.053165004 100
0.19999319 1.2615983 0.07409656 92
0.22003749 1.2334453 0.090106249 96
0.20042759 1.2609882 0.11715672 19
0.22787756 1.2224336 0.12822211 16
0.19145313 1.2735932 0.16564418 76
0.19684094 1.2697085 0.010680873 93
0.21110374 1.2495271 0.030773543 64
0.19813123 1.2678828 0.053339314 78
0.21316817 1.246606 0.071659178 80
0.22165722 1.2345943 0.090106249 100
0.20554283 1.2573956 0.11601187 46
0.2283341 1.2251468 0.128672 24
0.20436275 1.2590654 0.1604678 72
0.20777467 1.2578418 0.010401634 97
0.21966171 1.2408968 0.030145511 98
0.20559236 1.2609527 0.052467756 100
0.21027383 1.2542793 0.072634131 78
0.21760875 1.2438233 0.091670595 100
0.20273635 1.2650239 0.11753834 92
0.23104396 1.2246714 0.12822211 48
0.20496258 1.2618504 0.16098544 72
0.21405038 1.2524692 0.010262015 84
0.22473133 1.2371299 0.029831495 99
0.21072376 1.2572467 0.051944822 100
0.21536937 1.2505749 0.071902916 48
0.21813592 1.2466018 0.091983467 100
0.21792877 1.2468994 0.11295892 100
0.21927017 1.2449728 0.13362093 85
0.20557764 1.2646372 0.16150309 70
0.21101767 1.2601007 0.010401634 97
0.21597522 1.2529331 0.030773543 96
0.20772266 1.2648647 0.05264207 100
0.22704375 1.2369303 0.069709264 66
0.21851116 1.2492666 0.092296332 100
0.2272462 1.2366376 0.1102876 92
0.22852376 1.2347904 0.13047162 96
0.2038365 1.2704833 0.163056 70
0.21499404 1.2579839 0.010331824 84
0.22783658 1.2392769 0.029831495 99
0.20381394 1.2742693 0.053513627 100
0.21744049 1.2544203 0.072146654 79
0.22801223 1.2390211 0.090106249 96
0.22221011 1.2474726 0.1125773 96
0.23345694 1.2310901 0.1291219 96
0.20777237 1.2685033 0.16202073 70
0.2178255 1.2574978 0.010296919 84
0.2339752 1.2337965 0.029412808 67
0.20669818 1.273828 0.053339314 100
0.22360462 1.2490163 0.071171694 65
0.22853905 1.2417746 0.090419121 100
0.21835133 1.256726 0.1144854 87
0.22738713 1.2434652 0.13227122 94
0.21386582 1.263309 0.15995017 72
0.22176969 1.2553413 0.01022711 42
0.22216958 1.25475 0.03066887 32
0.216272 1.2634705 0.052119136 81
0.22305456 1.2534415 0.071659178 80
0.23350766 1.2379849 0.089480512 97
0.23325023 1.2383655 0.10990598 85
0.23013347 1.2429742 0.13182132 94
0.21991876 1.2580782 0.15787962 81
0.22123694 1.2598048 0.010296919 42
0.22608986 1.2525748 0.030459527 32
0.22132769 1.2596695 0.051596198 54
0.22916934 1.2479868 0.070684217 81
0.23624408 1.2374465 0.089167647 84
0.2326988 1.2427285 0.11066922 92
0.22852826 1.2489419 0.13317102 93
0.21731791 1.2656436 0.15995017 72
0.22073138 1.2642779 0.010366729 41
0.21891794 1.2670002 0.031296901 31
0.20757461 1.2840281 0.054036561 51
0.2330409 1.2457997 0.07019674 82
0.23787767 1.238539 0.089167647 100
0.23761618 1.2389314 0.10952436 92
0.23884523 1.2370865 0.12957181 96
0.22012109 1.2651941 0.15943253 73
0.22245872 1.2654243 0.010366729 27
0.21404588 1.2781491 0.031924933 30
0.21376619 1.2785723 0.053339314 52
0.23470366 1.2469032 0.07019674 82
0.24060449 1.2379777 0.088854775 98
0.23708948 1.2432945 0.1102876 85
0.24585122 1.2300419 0.1273223 97
0.22078624 1.267954 0.15995017 72
0.2263841 1.2632208 0.010296919 28
0.23335236 1.2526004 0.030250182 32
0.22210145 1.2697479 0.052293446 53
0.23310331 1.25298 0.070927955 97
0.24549091 1.2341001 0.087916173 84
0.23120442 1.2558742 0.11295892 89
0.24425176 1.2359887 0.128672 97
0.22676557 1.2626393 0.15787962 73
0.22592542 1.2676989 0.010366729 41
0.23721856 1.2503554 0.03004084 33
0.22819659 1.2642108 0.051596198 54
0.23587435 1.2524197 0.070684217 65
0.25142434 1.2285388 0.086664692 86
0.24254388 1.242177 0.10952436 85
0.2416268 1.2435853 0.13047162 96
0.22848716 1.2637646 0.15787962 73
0.24285892 1.2453133 0.0098780617 44
0.23672923 1.2547992 0.030250182 32
0.22884235 1.2670046 0.051770512 54
0.24402449 1.2435095 0.069221787 83
0.24123362 1.2478286 0.090106249 96
0.24632499 1.2399495 0.10876112 87
0.24328181 1.2446589 0.13047162 96
0.23126116 1.2632613 0.15736198 74
0.24227735 1.2496955 0.0099478718 58
0.25235799 1.2339813 0.028889447 69
0.2251133 1.2764518 0.05264207 53
0.23059058 1.2679136 0.072634131 94
0.24601963 1.2438619 0.089167647 70
0.24894512 1.2393014 0.10837951 87
0.24801415 1.2407527 0.1291219 96
0.23081243 1.2675676 0.15839726 73
0.23751059 1.2608881 0.0101573 71
0.24754417 1.2451265 0.029517479 100
0.22688314 1.2775828 0.05264207 53
0.24405661 1.2506051 0.069953002 49
0.24979714 1.2415873 0.08854191 84
0.24953085 1.2420056 0.10876112 72
0.25698462 1.2302965 0.12597258 99
0.22321451 1.2833458 0.163056 63
0.24349782 1.2552134 0.010017681 72
0.25133783 1.2428021 0.029308135 100
0.23610526 1.2669163 0.051421888 82
0.25315717 1.239922 0.068246834 34
0.25566497 1.235952 0.087290429 71
0.23650143 1.2662892 0.11410378 96
0.25547093 1.2362592 0.1273223 89
0.24563372 1.2518321 -0.0099478718 75
0.23326215 1.2714171 0.15891489 65
0.24200729 1.2613634 0.010122396 85
0.25511152 1.2404573 0.029098792 100
0.24524888 1.2561918 0.050201707 85
0.24320215 1.2594571 0.070927955 48
0.25519499 1.240324 0.087916173 70
0.25491875 1.2407649 0.10799789 72
0.25917023 1.2339821 0.12642249 99
0.24732649 1.2528772 0.15270324 68
0.25534168 1.2437569 0.0097384425 75
0.25675553 1.2414837 0.029098792 100
0.239582 1.2690957 0.051421888 82
0.24491253 1.2605251 0.070927955 97
0.25892508 1.2379954 0.087290429 57
0.25137943 1.2501276 0.10990598 92
0.25770396 1.2399588 0.1277722 97
0.23881099 1.2703352 0.15787962 65
0.24754551 1.2600982 0.010052586 86
0.25525635 1.2476034 0.029412808 100
0.23400161 1.2820446 0.05264207 79
0.25288177 1.2514513 0.069465525 49
0.25848565 1.2423707 0.087916173 56
0.25615036 1.2461548 0.10876112 79
0.26753363 1.2277093 0.12417299 83
0.23954481 1.2730625 0.15839726 73
0.25343508 1.2543294 0.0099129668 87
0.26214015 1.2401128 0.028889447 100
0.24411431 1.2695514 0.051247578 82
0.25871062 1.2457137 0.068490572 50
0.26013628 1.2433854 0.087916173 56
0.25166297 1.2572235 0.11105084 77
0.27015069 1.2270305 0.12372308 83
0.24231154 1.2724955 0.15787962 65
0.24682122 1.2690338 0.010192205 85
0.26378292 1.2411149 0.028889447 100
0.25517035 1.2552911 0.049678773 86
0.25831157 1.2501206 0.068978049 50
0.26794443 1.234265 0.086038955 58
0.25234616 1.2599398 0.11143246 84
0.27377141 1.2246737 0.12282328 85
0.2500858 1.2636603 0.15477379 67
0.25682354 1.2563879 0.0099129668 87
0.26233599 1.2472427 0.029203463 100
0.25686613 1.2563174 0.049678773 86
0.25998926 1.2511359 0.068978049 50
0.27160624 1.231863 0.085413218 73
0.26013917 1.2508873 0.10914274 78
0.27133617 1.2323111 0.12462288 83
0.25579998 1.2580861 0.15270324 68
0.25852314 1.2574084 0.0099129668 87
0.2568281 1.2602428 0.029936166 100
0.25140744 1.2693073 0.050898954 83
0.25555751 1.2623675 0.070440479 49
0.26916477 1.2396134 0.086664692 57
0.26081192 1.253581 0.10952436 99
0.26995111 1.2382985 0.12597258 90
0.24957344 1.2723742 0.15684435 66
0.26634824 1.2481041 0.0097035384 90
0.26873201 1.2440861 0.028889447 100
0.25315216 1.2703465 0.050898954 83
0.26538104 1.2497344 0.068490572 50
0.27282158 1.2371931 0.086038955 58
0.276526 1.2309492 0.10418171 75
0.27755344 1.2292173 0.12327318 85
0.25132889 1.2734196 0.15684435 66
0.26193297 1.2594314 0.0099129668 87
0.2703886 1.2450651 0.028889447 100
0.25287926 1.2748138 0.051247578 82
0.26504353 1.2541465 0.068978049 50
0.27545604 1.2364554 0.08572609 58
0.26718247 1.2505124 0.10837951 79
0.27915809 1.2301656 0.12327318 85
0.25112817 1.2777889 0.15787962 65
0.26868463 1.2517996 0.0097384425 75
0.2680203 1.2529373 0.029308135 100
0.2546432 1.2758479 0.051247578 82
0.26873711 1.2517097 0.068490572 50
0.28007406 1.2322932 0.084787481 59
0.2609421 1.2650599 0.11143246 91
0.28174862 1.2294253 0.12282328 93
0.26364315 1.2604339 -0.0099129668 87
0.2626434 1.2621462 0.15270324 68
0.26435456 1.2631609 0.0099478718 73
0.2697078 1.2539186 0.029308135 100
0.26739538 1.257911 0.049330149 100
0.27042031 1.2526885 0.068490572 50
0.2826795 1.2315233 0.084474608 59
0.27644795 1.2422819 0.1060898 73
0.28628412 1.2253 0.12147357 77
0.2682361 1.2564595 0.15063268 70
0.27396369 1.2502358 0.0096686333 75
0.26733282 1.2617719 0.029726824 100
0.26603627 1.2640276 0.049853086 85
0.27597949 1.2467288 0.067515619 51
0.28125823 1.2375451 0.085413218 73
0.27605888 1.2465906 0.10685304 81
0.28585315 1.2295511 0.12237337 76
0.2621491 1.2707903 0.15477379 67
0.27465123 1.2529336 0.0097035384 90
0.2769652 1.2488751 0.028889447 100
0.26874933 1.2632849 0.049678773 86
0.27469555 1.2528559 0.068246834 85
0.28387031 1.2367643 0.085100345 58
0.2738345 1.254366 0.10837951 87
0.2874589 1.2304703 0.12237337 93
0.26389894 1.2717919 0.15477379 67
0.27355623 1.2592102 0.0098082526 74
0.2847015 1.2394869 0.028261416 100
0.26672471 1.2712996 0.05037602 84
0.27166861 1.2625506 0.069465525 49
0.28857997 1.2326233 0.084161744 59
0.27569637 1.2554228 0.10837951 87
0.29402247 1.2229919 0.12012386 77
0.27257246 1.2609512 -0.0098431576 87
0.26867902 1.2678412 0.15322088 76
0.26842165 1.2723829 0.010052586 86
0.27657682 1.2578328 0.029308135 100
0.27139869 1.2670714 0.049853086 85
0.27533075 1.2600559 0.068978049 50
0.2950255 1.2249172 0.082597397 60
0.2754727 1.2598026 0.10914274 78
0.29369971 1.2272826 0.12102367 86
0.27233246 1.2654053 -0.0099129668 87
0.269474 1.2705054 0.15373851 76
0.27786449 1.2593329 0.0097733475 89
0.28402039 1.2482638 0.028680105 100
0.27401692 1.2662513 0.049678773 86
0.27695733 1.260964 0.068978049 50
0.29269508 1.2326657 0.083848871 59
0.28282368 1.2504157 0.10685304 88
0.29332322 1.2315361 0.12192347 76
0.27203301 1.2698187 -0.0099827768 86
0.27864677 1.2579262 0.14959741 70
0.29019809 1.2410189 0.0093893949 77
0.27990368 1.2596825 0.029308135 100
0.28537363 1.2497656 0.047935657 89
0.28442532 1.2514849 0.067515619 51
0.29240355 1.2370205 0.084474608 59
0.28639868 1.2479072 0.1060898 81
0.29587704 1.230723 0.12147357 86
0.27661946 1.2656368 0.15166797 69
0.28216153 1.2594197 0.0097384425 90
0.29495257 1.2360468 0.027842728 100
0.28314009 1.2576317 0.048632905 88
0.28792939 1.2488801 0.067028143 51
0.28826374 1.2482692 0.086351827 58
0.28609994 1.2522231 0.10685304 73
0.27733713 1.2682353 0.1521856 77
0.28196383 1.2638668 0.0098082526 74
0.28895929 1.2509773 0.028680105 100
0.27914158 1.2690668 0.049678773 86
0.285815 1.2567708 0.068003096 51
0.29370385 1.2422353 0.085100345 58
0.28684834 1.2548668 0.10723466 88
0.27814835 1.2708969 -0.0099478718 86
0.27447042 1.2776736 0.15477379 75
0.28274164 1.2665602 0.0098431576 88
0.29063982 1.2518857 0.028680105 100
0.29032794 1.2524651 0.047935657 89
0.28375253 1.2646821 0.068978049 50
0.29133379 1.2505963 0.1060898 66
0.28368938 1.2647994 -0.0098082526 88
0.28539994 1.2616212 0.14959741 70
0.29295075 1.2516128 0.0095290141 76
0.29420435 1.249264 0.02847076 100
0.28826109 1.2603993 0.048632905 88
0.29108912 1.2551007 0.067515619 51
0.29393739 1.2497642 0.10570818 73
0.28541815 1.265726 -0.0098082526 88
0.28984651 1.2574289 0.1480445 79
0.29471767 1.2525517 0.0095290141 76
0.29222682 1.2572601 0.028889447 100
0.28633353 1.2684 0.049330149 87
0.29472536 1.2525371 0.067028143 51
0.28536668 1.2702276 -0.0098780617 87
0.28802127 1.2652097 0.15011504 78
0.2944608 1.2569369 0.0095988233 76
0.29570025 1.2545751 0.028680105 100
0.28798774 1.2692716 0.049330149 87
0.29817182 1.2498655 0.066540658 52
0.29729298 1.2515402 0.10570818 81
0.28876719 1.2677863 0.15063268 70
0.29523903 1.2595999 0.0096337283 90
0.29065177 1.2684157 0.049155839 87
0.29801577 1.2542635 0.067028143 51
0.29625672 1.2576441 0.10685304 73
0.29246992 1.2649217 -0.0097384425 88
0.2887229 1.2721226 0.15166797 69
0.29594687 1.262219 0.0096686333 90
0.29596126 1.2621911 0.048458595 59
0.29871258 1.2568605 0.067271881 51
0.29697475 1.2602274 0.10723466 73
0.29227823 1.2693268 -0.0098082526 100
0.29216152 1.2695529 0.15063268 78
0.29597875 1.2666148 0.068490572 50
0.28955686 1.2791696 -0.0099827768 100
0.29940355 1.2639526 0.048458595 59
0.29942322 1.2639139 0.068003096 68
0.29584622 1.2755483 0.049504463 57
0.29836226 1.2705436 0.15011504 78
0.29659826 1.2782452 -0.0099129668 100
0.29485157 1.2817485 0.15322088 76
0.29934847 1.2773778 -0.0098780617 100
