# .PCD v0.7 - Point Cloud Data file format
VERSION 0.7
FIELDS x y z intensity
SIZE 4 4 4 4
TYPE F F F F
COUNT 1 1 1 1
WIDTH 743
HEIGHT 1
VIEWPOINT 0 0 0 1 0 0 0
POINTS 743
DATA ascii
0.064484745 0.00050485134 0.015881689 13
0.055021763 0.0031203628 0.047835063 63
0.051258892 0.0031785369 0.047939736 41
0.04701829 0.0083457232 0.047835063 100
0.042149842 0.0067805052 0.04804441 99
0.039488792 0.0085579157 0.04804441 72
0.035981774 0.0085100532 0.048149079 26
0.037688136 0.017004371 0.047730394 19
0.02928406 0.01065129 0.048253752 17
0.040131211 0.03228122 0.046997689 10
-1.193893 0.45716667 0.030925665 9
-1.1634624 0.4687953 0.030367186 9
-1.1487889 0.4777894 0.030087948 7
-1.1281073 0.48737428 0.029703995 3
-1.1231644 0.49420935 0.029599281 7
-1.1043751 0.50323486 0.029250233 8
-1.0815027 0.51217908 0.028831376 10
-1.0725114 0.51940185 0.028656852 11
-1.0714843 0.5259313 0.028621947 10
-1.0584772 0.53362805 0.028377613 11
-1.0295217 0.54295021 0.02785404 21
-1.0223832 0.54957563 0.027714422 18
-1.013274 0.55669194 0.027539898 22
-1.0278847 0.56030601 0.02778423 20
-1.0226932 0.56685919 0.027679516 22
-1.0214086 0.57259941 0.027644612 18
-1.0161331 0.57881278 0.027539898 12
-1.036649 0.58192688 0.027888946 3
-1.043726 1.1294539 0.14293543 4
-1.0366061 1.1336727 0.028412517 6
-1.0229924 1.1305523 0.084574908 5
-1.0249832 1.1310086 0.14136662 6
-1.0294843 1.1378481 0.028307803 10
-0.9944914 1.1296985 0.083109498 28
-1.0295348 1.1378598 0.14188954 39
-0.9951089 1.135533 0.027714422 30
-0.98350841 1.1327887 0.082586139 98
-1.0224245 1.1419952 0.14136662 84
-0.99382359 1.1409242 0.027714422 40
-0.99776858 1.141872 0.083423518 100
-1.0133674 1.1456199 0.14066938 95
-0.98086303 1.1434672 0.027504992 40
-0.98675936 1.1449057 0.082900152 100
-0.99849743 1.1477693 0.13944919 91
-0.96984476 1.1464051 0.027330469 26
-0.98544127 1.1502677 0.082900152 99
-0.99910325 1.1536512 0.13962349 81
-0.97433978 1.1531705 0.027435184 23
-0.98023051 1.1546513 0.082690813 43
-0.9996869 1.159542 0.13979781 74
-0.97493058 1.1589833 0.027470088 38
-0.97307271 1.1585095 0.082376793 34
-0.99252599 1.1634717 0.13927488 82
-0.97356349 1.164304 0.027470088 53
-0.98330861 1.166826 0.083004825 63
-0.9814989 1.1663578 0.13840333 91
-0.96250707 1.1670809 0.027295563 68
-0.97418684 1.1701473 0.082586139 100
-0.97239774 1.1696775 0.13770607 92
-0.94951755 1.169271 0.027086135 81
-0.96506077 1.1734097 0.082167454 90
-0.97099334 1.1749892 0.13770607 100
-0.95197588 1.1755455 0.027155945 92
-0.9501459 1.1750513 0.081434749 96
-0.9714939 1.1808155 0.13788038 100
-0.95448035 1.1815792 0.027225753 93
-0.946868 1.1794968 0.081330076 100
-0.96820146 1.1853329 0.13770607 99
-0.9568885 1.1878972 0.027295563 99
-0.94350487 1.1841855 0.081225403 98
-0.96290249 1.1895649 0.13735744 92
-0.94001979 1.1888256 0.027016325 92
-0.94974095 1.1915581 0.081644088 86
-0.94224817 1.1894521 0.13561434 99
-0.94047195 1.1945721 0.027051231 68
-0.94633943 1.1962435 0.081539422 72
-0.95035571 1.1973876 0.13648589 100
-0.96011478 1.2058722 0.027435184 47
-0.9294911 1.1970332 0.080702044 38
-0.95076901 1.2031747 0.1366602 99
-0.93939096 1.2055284 0.027086135 48
-0.92032355 1.1999526 0.080283359 22
-0.95880932 1.2112067 0.13753176 84
-0.93210953 1.2090209 0.026981421 71
-0.92264372 1.2062169 0.080492698 26
-0.94579798 1.2130755 0.13648589 85
-0.91524523 1.2095946 0.026702182 75
-0.92111212 1.2113547 0.080492698 30
-0.93279213 1.214859 0.13544002 94
-0.91577047 1.2147763 0.026737086 78
-0.92545193 1.2177141 0.080806717 88
-0.92948073 1.2189366 0.13526571 100
-0.91612047 1.2204773 0.026771991 83
-0.90860671 1.2181687 0.079969339 98
-0.92409557 1.2229278 0.1349171 99
-0.91247076 1.2255089 0.026737086 89
-0.89924759 1.2213904 0.079550654 91
-0.93185681 1.231547 0.13578865 70
-0.90705758 1.2294085 0.026667276 83
-0.90909201 1.2300498 0.080178685 68
-0.91123503 1.2307256 0.13404553 50
-0.90163499 1.2332758 0.026597468 83
-0.9131853 1.236962 0.080492698 76
-0.89633137 1.2315831 0.13282534 46
-0.88478583 1.2334232 0.02631823 88
-0.90584475 1.2402251 0.080178685 86
-0.90419108 1.2396909 0.13369691 45
-0.89084452 1.2406622 0.026457848 100
-0.88908905 1.2400888 0.079341307 100
-0.91588277 1.2488412 0.1349171 59
-0.89299017 1.246944 0.026527658 100
-0.88743943 1.2451093 0.079341307 100
-0.91420239 1.2539551 0.1349171 80
-0.88381428 1.249191 0.026388038 96
-0.88775021 1.2505065 0.07944598 100
-0.90692061 1.2569134 0.13439415 84
-0.87455553 1.2516313 0.02624842 93
-0.8879562 1.2561619 0.079550654 100
-0.89388746 1.2581673 0.13334829 82
-0.86529714 1.2540126 0.0261088 96
-0.88814026 1.2618246 0.079655327 100
-0.89594501 1.2644938 0.13369691 91
-0.863599 1.25895 0.0261088 89
-0.86942691 1.2609658 0.078713275 100
-0.89044422 1.2682354 0.13334829 93
-0.86943382 1.2665224 0.02624842 81
-0.86016351 1.2632797 0.07829459 89
-0.89809948 1.2765498 0.13421984 56
-0.86957723 1.272141 0.026283324 72
-0.86031598 1.2688651 0.078399263 53
-0.88880914 1.2789439 0.1335226 41
-0.86019617 1.2746456 0.026143705 88
-0.86223906 1.2753767 0.07860861 19
-0.87943059 1.2815287 0.13282534 43
-0.849024 1.2761635 0.025969181 100
-0.86422259 1.2816622 0.078817949 48
-0.86826855 1.2831261 0.13195379 22
-0.85485035 1.2835462 0.0261088 96
-0.85313874 1.2829206 0.07829459 85
-0.87217301 1.2898786 0.13247673 15
-0.8492977 1.2870607 0.026038991 100
-0.8457194 1.2857385 0.077980578 100
-0.88716954 1.301055 0.13404553 7
-0.84364682 1.290786 0.025969181 100
-0.83446532 1.2873549 0.077457212 76
-0.87214917 1.3014369 0.13282534 1
-0.83433753 1.2928214 0.025829561 100
-0.83078247 1.2914789 0.077352546 48
-0.8441909 1.2965428 0.130385 1
-0.8287676 1.2962244 0.025759751 77
-0.84574753 1.302705 0.07829459 53
-0.83676022 1.2992749 0.12986206 13
-0.8287881 1.3017535 0.025794657 72
-0.83269876 1.3032618 0.077666558 63
-0.84977573 1.3098478 0.13125655 56
-0.8382917 1.3104351 0.026004085 74
-0.8310166 1.307603 0.077666558 63
-0.8610695 1.3193021 0.13247673 100
-0.83453578 1.3145459 0.025969181 96
-0.82727295 1.3116894 0.077561885 59
-0.83689386 1.3154733 0.130385 97
-0.81775957 1.3134682 0.025689943 100
-0.83094198 1.3187062 0.077875905 80
-0.82387191 1.315897 0.12933913 97
-0.80843109 1.3152597 0.025550323 100
-0.83457881 1.3257551 0.078189917 97
-0.825656 1.3221736 0.12968774 100
-0.81022578 1.321501 0.025620133 100
-0.80671769 1.3200786 0.076724514 99
-0.83295208 1.3307153 0.1305593 100
-0.77269799 1.3062854 0.17524812 15
-0.80829245 1.3262457 0.025620133 100
-0.81403071 1.3285956 0.077247873 100
-0.82545513 1.3332741 0.13003637 100
-0.78918821 1.3184221 0.1776855 18
-0.81383246 1.3338027 0.025759751 100
-0.80478781 1.3300637 0.07682918 100
-0.81253213 1.3332652 0.1289905 100
-0.80387288 1.3296854 0.17987914 17
-0.80078405 1.3339374 0.025550323 100
-0.80651075 1.3363283 0.077038527 100
-0.81055766 1.3380178 0.1289905 100
-0.78359228 1.3267601 0.17744176 16
-0.79512209 1.3370955 0.025480513 100
-0.79900438 1.3387322 0.076724514 99
-0.80856663 1.3427637 0.1289905 100
-0.77981156 1.3306407 0.17719802 24
-0.79313439 1.3417873 0.025480513 89
-0.79701096 1.3434377 0.076724514 67
-0.80655903 1.3475025 0.1289905 91
-0.75775522 1.3267262 0.1745169 16
-0.82409614 1.3609265 0.0261088 59
-0.80957848 1.3546833 0.077561885 44
-0.81358486 1.3564062 0.12986206 28
-0.77941293 1.3417106 0.1776855 5
-0.81835645 1.3641266 0.026038991 94
-0.80752927 1.3594255 0.077561885 97
-0.8279776 1.368304 0.13143086 67
-0.79197615 1.3526725 0.17963541 14
-0.79612809 1.3600686 0.025655037 100
-0.81278044 1.367368 0.077980578 100
-0.81493205 1.3683112 0.130385 100
-0.79538828 1.3597442 0.18036664 31
-0.78857428 1.3623362 0.025550323 100
-0.81068689 1.3721213 0.077980578 100
-0.80554742 1.3698469 0.12968774 100
-0.76972264 1.353994 0.17719802 30
-0.79025453 1.3684022 0.025620133 100
-0.81050652 1.3774445 0.078085244 100
-0.80900866 1.3767757 0.13021068 100
-0.76596612 1.3575579 0.17695428 28
-0.80091935 1.3788284 0.025864467 100
-0.80109423 1.3789072 0.077666558 100
-0.81778091 1.3864276 0.13125655 100
-0.76752669 1.3637791 0.17744176 28
-0.80242628 1.3851962 0.025934275 100
-0.79896063 1.3836198 0.077666558 100
-0.80111223 1.3845985 0.12986206 100
-0.76725298 1.3691964 0.1776855 16
-0.79118401 1.3857417 0.025759751 100
-0.81133133 1.3949914 0.078503937 100
-0.80258006 1.3909736 0.13021068 100
-0.77958578 1.3804169 0.17963541 12
-0.78902656 1.3904195 0.025759751 100
-0.81095356 1.4005792 0.07860861 100
-0.80401975 1.3973665 0.1305593 100
-0.77024227 1.3817161 0.17866045 12
-0.79047555 1.3967838 0.025829561 100
-0.80150717 1.401942 0.078189917 100
-0.80904096 1.4054646 0.13125655 100
-0.75551146 1.3804352 0.17695428 7
-0.79562432 1.4046376 0.025969181 100
-0.79579121 1.4047164 0.077980578 100
-0.81053025 1.4116677 0.13160518 100
-0.77502507 1.3949224 0.17987914 3
-0.79881769 1.4119089 0.026073895 100
-0.80438823 1.4145598 0.07860861 100
-0.80828208 1.4164129 0.13160518 100
-0.78924602 1.4133844 0.025934275 100
-0.80921775 1.4229791 0.079027295 100
-0.79872018 1.4179358 0.13090792 100
-0.78519255 1.4171832 0.025899371 100
-0.80872744 1.4285908 0.079131968 100
-0.80720752 1.4278541 0.13195379 100
-0.78663212 1.4233636 0.025969181 100
-0.79756421 1.4287074 0.07860861 100
-0.81217843 1.4358509 0.13265105 100
-0.8022781 1.4368697 0.02631823 100
-0.78809148 1.4298737 0.078189917 100
-0.82056743 1.445889 0.13369691 100
-0.79994208 1.441586 0.02631823 100
-0.79293281 1.4380989 0.07860861 100
-0.80392915 1.4435695 0.13230242 100
-0.79401499 1.4445002 0.02624842 100
-0.80308801 1.4490535 0.079341307 100
-0.80335039 1.4491851 0.13247673 100
-0.78808421 1.4473813 0.02617861 100
-0.80427331 1.4555767 0.079550654 100
-0.80452651 1.4557049 0.13282534 100
-0.78927344 1.4538667 0.02624842 100
-0.80009323 1.4593916 0.07944598 100
-0.81099695 1.4649593 0.13369691 100
-0.7904337 1.4603686 0.02631823 100
-0.79412729 1.462271 0.079236634 100
-0.81033403 1.470618 0.13387123 100
-0.80221206 1.472418 0.026597468 100
-0.80233699 1.4724828 0.079864666 100
-0.81141633 1.4771991 0.13421984 100
-0.7927894 1.4731874 0.026457848 99
-0.80000013 1.4769635 0.079864666 100
-0.79847354 1.4761641 0.13317397 100
-0.78325373 1.4741349 0.02631823 92
-0.79399186 1.4798061 0.079655327 100
-0.80128568 1.4836582 0.13369691 98
-0.80406195 1.4911804 0.13421984 42
0.11736286 1.3063647 0.13394791 5
0.16624311 1.2491783 0.010715778 13
0.13924366 1.282891 0.03443706 27
0.13152698 1.2925265 0.05856866 22
0.16226631 1.254144 0.098240845 12
0.13519189 1.2879504 0.12898688 23
0.18942168 1.2202363 0.13317102 7
0.15269536 1.2660947 0.17030293 7
0.16169527 1.2583408 0.010890301 78
0.16341141 1.2561827 0.032552965 59
0.15815389 1.2627946 0.055082429 50
0.15464711 1.2672048 0.077996381 14
0.16272923 1.2570405 0.09855371 24
0.15899637 1.2617351 0.12211776 87
0.18493125 1.2291188 0.13542053 22
0.15082246 1.2720149 0.17185585 29
0.16092408 1.2628324 0.010960111 100
0.16758603 1.2543938 0.032343622 100
0.15987644 1.2641594 0.055082429 100
0.16253531 1.2607915 0.076777689 29
0.18034402 1.2382337 0.094486415 39
0.16193172 1.261556 0.12173614 100
0.17929095 1.2395675 0.13811995 45
0.15377429 1.2718887 0.1713382 43
0.16388035 1.2626137 0.010925206 100
0.17667183 1.2462943 0.031715591 100
0.14931273 1.2811991 0.056825545 100
0.17159846 1.2527668 0.075315252 30
0.16735741 1.2581776 0.098240845 24
0.17333898 1.2505463 0.1186832 100
0.1869432 1.2331899 0.13587044 38
0.15791214 1.2702279 0.17030293 43
0.16683036 1.2623804 0.010890301 100
0.18201652 1.2428658 0.031401575 93
0.15477046 1.2778776 0.056302611 96
0.18181992 1.2431185 0.073609084 31
0.18119556 1.2439208 0.095112152 25
0.17381296 1.2534075 0.11906482 100
0.18856224 1.2344544 0.13587044 38
0.14660981 1.2883642 0.17599694 41
0.17213386 1.2589016 0.010785587 65
0.18114388 1.2472441 0.031610917 61
0.16620401 1.2665739 0.054908119 50
0.1688236 1.2631847 0.076533951 29
0.17793718 1.2513931 0.096363634 25
0.17541808 1.2546524 0.11906482 19
0.19248784 1.2325667 0.13497064 22
0.14006132 1.3003986 0.17962041 39
0.17384276 1.2602177 0.010785587 52
0.16943762 1.2659585 0.032762308 29
0.17400417 1.2600073 0.054036561 51
0.17779815 1.2550629 0.075071514 60
0.19164515 1.2370172 0.093234941 53
0.18786851 1.2419389 0.11563025 13
0.18698674 1.243088 0.13767004 22
0.16073185 1.2773042 0.1713382 58
0.17806503 1.2584112 0.010715778 53
0.17125794 1.2673501 0.032762308 29
0.16976723 1.2693076 0.054908119 50
0.19040248 1.2422101 0.072877869 47
0.19455603 1.2367558 0.092922069 53
0.19911617 1.2307677 0.1125773 13
0.19934893 1.2304621 0.13362093 46
0.17429793 1.2633581 0.16616182 68
0.1821841 1.2565162 0.010645968 53
0.18745014 1.2495508 0.031506244 31
0.17631865 1.2642746 0.054210871 51
0.20163018 1.2307947 0.070927955 65
0.18665716 1.2505996 0.095425025 51
0.20783055 1.2225933 0.1102876 14
0.20213363 1.2301288 0.13317102 38
0.17602235 1.2646666 0.16616182 68
0.17899683 1.2641299 0.010785587 39
0.17944884 1.2635279 0.032343622 30
0.17317468 1.2718842 0.054908119 50
0.19004935 1.2494092 0.073609084 77
0.19299713 1.2454832 0.094173551 52
0.19636673 1.2409953 0.1144854 13
0.21302187 1.2188127 0.12957181 40
0.1730251 1.2720834 0.16823238 67
0.17833379 1.2686285 0.010855397 65
0.19072273 1.2520075 0.031506244 31
0.18088239 1.2652092 0.054036561 51
0.19172502 1.2506628 0.073609084 77
0.21118653 1.2245531 0.089793384 69
0.18628004 1.2579677 0.11830158 13
0.20527366 1.2324859 0.13317102 31
0.18286166 1.2625539 0.16460891 69
0.18602392 1.2618854 0.010680873 80
0.1888434 1.2580751 0.03182026 61
0.1790579 1.2712995 0.054559495 76
0.19812813 1.2455275 0.072634131 78
0.1986753 1.2447881 0.093547814 91
0.21367693 1.2245145 0.10990598 14
0.21152675 1.2274203 0.13137141 31
0.18688145 1.2607266 0.16357364 69
0.19011083 1.2599298 0.010611063 94
0.20473814 1.2400171 0.030564198 64
0.18316904 1.2693799 0.054210871 100
0.19743976 1.2499526 0.073121607 78
0.2015042 1.2444196 0.093234941 92
0.20596737 1.2383437 0.11295892 13
0.2131255 1.2285991 0.13137141 23
0.1828782 1.2697757 0.16616182 68
0.19889247 1.2514886 0.010401634 83
0.20991123 1.2363781 0.030250182 65
0.18374053 1.2722671 0.054385185 76
0.2037957 1.2447646 0.072146654 63
0.20781788 1.2392488 0.091983467 93
0.21223125 1.2331965 0.11143246 14
0.22850665 1.2108774 0.12597258 16
0.18576324 1.2694933 0.16564418 68
0.19823018 1.2559509 0.010471444 82
0.21154127 1.2375624 0.030250182 65
0.19133741 1.2654729 0.053513627 100
0.20778304 1.2427542 0.071659178 64
0.21409118 1.2340398 0.090731993 100
0.20809418 1.2423244 0.11334054 13
0.23690367 1.2025256 0.12327318 8
0.19090736 1.266067 0.16409127 69
0.19059336 1.2701672 0.010750682 92
0.21084446 1.2419848 0.030459527 65
0.19423178 1.2651038 0.053339314 100
0.20016828 1.2568424 0.073609084 77
0.22032389 1.2287929 0.089480512 97
0.21203625 1.2403263 0.1125773 13
0.19940504 1.2579045 0.16098544 72
0.19930884 1.2616508 0.010541254 95
0.21249408 1.2431659 0.030459527 65
0.20174709 1.2582326 0.052467756 100
0.21109182 1.2451317 0.071659178 80
0.21963316 1.2331572 0.090106249 96
0.20683965 1.251093 0.11486702 20
0.23200941 1.2158064 0.12642249 16
0.20111027 1.2591254 0.16098544 72
0.20787609 1.2530202 0.010331824 98
0.20713851 1.2540615 0.031087559 63
0.19415525 1.2723916 0.053862248 100
0.20578498 1.2559724 0.073121607 93
0.21432027 1.2439221 0.091983467 100
0.20957166 1.2506263 0.1144854 33
0.22898403 1.2232194 0.12822211 24
0.20050097 1.2634325 0.16202073 70
0.20496374 1.2607548 0.010471444 96
0.22031748 1.2389168 0.03004084 66
0.19820294 1.270371 0.053513627 100
0.2166172 1.2441797 0.071171694 81
0.21484047 1.2467068 0.092296332 100
0.19770151 1.2710841 0.11906482 78
0.22832638 1.2275255 0.1291219 32
0.2033366 1.2630692 0.16150309 70
0.21125653 1.2553968 0.010331824 84
0.22881436 1.2302376 0.029412808 67
0.20223212 1.2683282 0.053165004 100
0.22054651 1.2420849 0.070684217 65
0.21989799 1.2430141 0.09135773 94
0.20169985 1.2690909 0.11830158 100
0.23215589 1.2254494 0.12822211 81
0.19842637 1.2737815 0.16460891 69
0.20612091 1.2664393 0.010541254 81
0.227011 1.2362814 0.029726824 100
0.20397374 1.2695391 0.053165004 100
0.21541429 1.253023 0.072146654 63
0.22830009 1.2344205 0.089480512 97
0.22133088 1.2444816 0.11219569 84
0.22598004 1.2377698 0.13137141 94
0.20568725 1.2670654 0.16202073 70
0.2169193 1.2544543 0.010262015 84
0.22298285 1.245635 0.030250182 65
0.21136349 1.262535 0.052293446 100
0.21260375 1.2607311 0.073121607 62
0.23216146 1.232285 0.088854775 98
0.22743827 1.2391548 0.11066922 92
0.22540671 1.2421097 0.13227122 94
0.21399137 1.2587128 0.15891489 73
0.22312108 1.249007 0.010122396 85
0.22014195 1.2533726 0.03066887 64
0.20971569 1.2686511 0.05281638 100
0.2232703 1.2487884 0.071171694 65
0.22375593 1.2480767 0.091670595 100
0.22686464 1.2435212 0.11143246 91
0.23584422 1.2303625 0.128672 89
0.21787721 1.2566913 0.15787962 73
0.21470255 1.2650461 0.010436539 55
0.23751166 1.2313699 0.029203463 68
0.21145838 1.2698359 0.05281638 79
0.22494355 1.2499259 0.071171694 65
0.21878016 1.2590258 0.093547814 100
0.23402429 1.2365187 0.10952436 99
0.2374531 1.2314563 0.128672 97
0.21524468 1.2642457 0.15995017 72
0.21866384 1.2628944 0.010366729 41
0.23243853 1.2424031 0.029831495 33
0.21765134 1.2644006 0.052119136 54
0.22772825 1.2494102 0.070927955 97
0.23150963 1.243785 0.090419121 100
0.22251132 1.2571709 0.11410378 100
0.23689145 1.235779 0.12957181 100
0.21589422 1.2670145 0.1604678 72
0.22243473 1.2606068 0.010296919 42
0.22726998 1.2533648 0.030459527 32
0.21699351 1.2687563 0.052467756 53
0.22041771 1.2636276 0.072877869 100
0.23848408 1.236569 0.088854775 98
0.22622374 1.2549318 0.11334054 89
0.23619208 1.2400018 0.13047162 100
0.22389358 1.2584217 0.15736198 82
0.21973094 1.2684149 0.010436539 27
0.21351394 1.2777971 0.031924933 30
0.22093761 1.2665939 0.052119136 54
0.23201141 1.2498822 0.070684217 81
0.2401146 1.2376535 0.088854775 100
0.23442513 1.2462397 0.11105084 91
0.24214032 1.2345965 0.128672 97
0.21919787 1.2692194 0.1604678 88
0.22367027 1.2662232 0.010366729 27
0.21748334 1.2756311 0.031715591 30
0.22595727 1.2627455 0.051596198 54
0.23259771 1.2526479 0.070927955 97
0.23849273 1.2436838 0.089793384 100
0.23932564 1.2424173 0.10990598 85
0.2351979 1.2486939 0.13227122 94
0.21775806 1.2752134 0.16202073 86
0.23196188 1.2573116 0.0101573 28
0.21706721 1.2801338 0.031924933 30
0.22550139 1.2672106 0.051944822 54
0.24296388 1.2404538 0.068978049 100
0.24122772 1.243114 0.089480512 97
0.23775759 1.2484312 0.11105084 98
0.24858651 1.2318386 0.1273223 97
0.22269109 1.2715166 0.1604678 72
0.23818126 1.251814 0.010017681 43
0.24073148 1.2478734 0.029831495 33
0.22416541 1.2734709 0.052467756 53
0.24585107 1.2399628 0.068734311 67
0.25055948 1.2326875 0.087290429 85
0.24066359 1.2479783 0.11066922 85
0.25142083 1.2313565 0.12687239 99
0.22566882 1.271148 0.15995017 72
0.23338136 1.262995 0.01022711 42
0.24779791 1.2405474 0.029308135 68
0.23453814 1.2611938 0.051073264 55
0.23998439 1.2527137 0.070440479 49
0.25217637 1.23373 0.087290429 85
0.24445578 1.2457514 0.10990598 85
0.2530331 1.2323959 0.12687239 90
0.22846407 1.2706515 0.15943253 73
0.24361813 1.250553 0.0099478718 58
0.24506512 1.2482834 0.029726824 67
0.23081324 1.270637 0.051944822 54
0.23838529 1.2587605 0.071171694 65
0.24522018 1.2480402 0.089793384 69
0.24075794 1.2550391 0.11181407 84
0.25247282 1.2366645 0.1277722 97
0.23739591 1.2603123 0.15580906 75
0.24529743 1.2516196 0.0099478718 73
0.24353302 1.2544084 0.03004084 99
0.23575842 1.266697 0.051421888 82
0.24539992 1.2514575 0.069953002 49
0.25956428 1.229069 0.086038955 72
0.25085011 1.2428428 0.10876112 87
0.25201982 1.240994 0.128672 89
0.23704362 1.2646656 0.15684435 74
0.24051508 1.2627878 0.0101573 71
0.25470108 1.2401997 0.029098792 100
0.23952651 1.2643619 0.051073264 83
0.24488664 1.2558271 0.070440479 49
0.25268349 1.2434123 0.08854191 70
0.25241977 1.2438322 0.10876112 72
0.26083827 1.2304275 0.12552269 90
0.23457596 1.2722447 0.15891489 65
0.24329472 1.262168 0.010122396 85
0.25423154 1.2446177 0.029308135 100
0.23914659 1.2688246 0.051421888 82
0.25078389 1.2501502 0.069465525 49
0.26060629 1.2343884 0.086664692 57
0.24265391 1.2631963 0.11295892 89
0.26347789 1.2297802 0.12507279 100
0.23633102 1.2733426 0.15891489 65
0.24510068 1.2632889 0.010122396 85
0.2538729 1.2490965 0.029517479 100
0.24097696 1.2699605 0.051421888 82
0.25045833 1.2546208 0.069953002 49
0.25919452 1.2404867 0.087603301 57
0.25685024 1.2442795 0.10837951 65
0.265165 1.2308273 0.12507279 92
0.24224082 1.2679157 0.15684435 66
0.2551879 1.2507129 0.0098431576 88
0.25345874 1.2535324 0.029726824 100
0.24584886 1.2659409 0.050898954 83
0.2542274 1.252279 0.069465525 49
0.26187131 1.2398151 0.087290429 71
0.25440204 1.2519943 0.10990598 78
0.26371893 1.2368023 0.12642249 90
0.24802059 1.2623997 0.15477379 67
0.26198247 1.2431474 0.0096686333 75
0.25921786 1.247689 0.029308135 100
0.24645916 1.2686486 0.051073264 83
0.2516996 1.2600398 0.070440479 49
0.26137659 1.2441427 0.087916173 56
0.25702286 1.2512949 0.10952436 85
0.26628175 1.2360846 0.12597258 90
0.24764612 1.2666987 0.15580906 67
0.25433159 1.2595553 0.0099827768 87
0.26191962 1.2469914 0.029203463 100
0.24717158 1.2714107 0.051247578 82
0.25751701 1.2542812 0.069465525 49
0.26303342 1.2451472 0.087916173 56
0.26073459 1.2489536 0.10876112 87
0.27496266 1.2253953 0.12282328 85
0.24538684 1.2743658 0.15787962 65
0.26015353 1.2537231 0.0098431576 88
0.26050669 1.2531338 0.029517479 100
0.24687555 1.2758827 0.051596198 82
0.26533115 1.2450824 0.068003096 51
0.27078569 1.2359792 0.086038955 58
0.25736275 1.2583808 0.11066922 78
0.27555233 1.2280242 0.12327318 85
0.24317744 1.2820545 0.15995017 64
0.25571284 1.2650454 0.010052586 86
0.26117429 1.2558582 0.029622151 100
0.25984231 1.2580988 0.049678773 86
0.26496249 1.2494857 0.068490572 50
0.27645159 1.230159 0.084787481 59
0.26107571 1.2560241 0.10990598 85
0.27416542 1.2340047 0.12462288 92
0.25483835 1.2665164 0.15477379 67
0.26954958 1.2453512 0.0096337283 90
0.2668466 1.2499325 0.029203463 100
0.26146251 1.2590584 0.049678773 86
0.26655409 1.2504284 0.068490572 50
0.2759715 1.2344663 0.085413218 58
0.26867467 1.246834 0.10761628 79
0.27570564 1.2349169 0.12462288 83
0.26237637 1.2575095 0.15166797 69
0.26919037 1.2497789 0.0097035384 90
0.2644881 1.257813 0.029622151 100
0.26216498 1.2617822 0.049853086 85
0.26923555 1.2497016 0.068246834 68
0.27160752 1.245649 0.087290429 71
0.27232423 1.2444245 0.10685304 81
0.27831456 1.2341897 0.12417299 75
0.26017651 1.2651795 0.15373851 68
0.27295828 1.2473458 0.0096337283 90
0.27229324 1.2484916 0.028994121 100
0.25896886 1.2714498 0.05072464 100
0.26800629 1.2558781 0.068978049 50
0.27335274 1.2466662 0.087290429 85
0.26815206 1.2556269 0.10914274 78
0.28393051 1.2284405 0.12237337 85
0.26199338 1.2662385 0.15373851 68
0.26963755 1.2569751 0.0098082526 74
0.27795127 1.2425345 0.028575432 100
0.25376242 1.2845492 0.051944822 81
0.26673272 1.2620206 0.069709264 99
0.28290308 1.2339334 0.084787481 73
0.26788983 1.2600107 0.10990598 78
0.29039392 1.2209222 0.12012386 86
0.26664436 1.262174 -0.0099129668 87
0.25987181 1.2739377 0.15580906 67
0.27125397 1.257902 0.0098082526 74
0.27753818 1.2469025 0.028784776 100
0.26634225 1.2664993 0.050027397 85
0.2663964 1.2664044 0.07019674 66
0.28542292 1.2331015 0.084474608 59
0.27341193 1.2541249 0.10837951 87
0.28802386 1.228549 0.12192347 85
0.27422988 1.2526932 -0.0097035384 89
0.26537782 1.2681874 0.15373851 68
0.27690241 1.2519131 0.0096686333 90
0.27723512 1.251326 0.028994121 100
0.26905939 1.265753 0.049853086 85
0.2681309 1.2673914 0.07019674 82
0.28898889 1.230585 0.083848871 59
0.27510351 1.2550874 0.10837951 79
0.28866529 1.2311561 0.12237337 85
0.26902348 1.2658165 0.15270324 68
0.27769101 1.2546542 0.0097035384 90
0.27508777 1.2592874 0.029412808 100
0.26892641 1.2702534 0.050201707 85
0.27676246 1.2563068 0.068490572 50
0.28487307 1.2418715 0.08572609 58
0.28073001 1.2492453 0.10685304 73
0.28558442 1.2406055 0.12462288 83
0.27084261 1.2668428 0.15270324 68
0.28035787 1.253855 0.0096686333 75
0.27679738 1.260244 0.029412808 100
0.26582491 1.2799333 0.051073264 83
0.28619227 1.2433854 0.066540658 52
0.28844503 1.239343 0.085100345 58
0.28240454 1.2501824 0.10685304 81
0.29481781 1.2279075 0.12102367 86
0.2706978 1.2711893 0.15373851 68
0.27809331 1.2617464 0.0098082526 74
0.28808919 1.2436688 0.028366089 100
0.27330211 1.2704113 0.050027397 85
0.2781578 1.2616298 0.068978049 50
0.29000288 1.2402078 0.085100345 58
0.28019834 1.2579395 0.10837951 87
0.29822364 1.2253404 0.12012386 86
0.27615803 1.2652464 -0.0098780617 97
0.27049172 1.275494 0.15477379 67
0.27596539 1.269706 0.0099478718 87
0.2859028 1.251585 0.028784776 100
0.27888259 1.2643864 0.049330149 87
0.28369358 1.2556134 0.068003096 51
0.2916458 1.2411125 0.085100345 58
0.27907118 1.2640425 0.10952436 85
0.29794058 1.2296338 0.12102367 86
0.28077301 1.2609391 -0.0097733475 88
0.27876025 1.2646095 0.15115032 77
0.28822073 1.2513357 0.0095639192 91
0.28949392 1.2489948 0.028575432 100
0.2825138 1.2618291 0.048981529 87
0.28728715 1.2530524 0.067515619 51
0.29423562 1.2402761 0.084787481 59
0.28923926 1.249463 0.1060898 81
0.27675596 1.2724161 -0.0099827768 86
0.28510332 1.2570678 0.14856213 71
0.28990251 1.2522466 0.0095639192 91
0.28358266 1.2639642 0.029412808 100
0.28423223 1.2627599 0.048981529 87
0.28897491 1.2539665 0.067515619 51
0.29119018 1.2498591 0.086351827 58
0.28998253 1.2520983 0.10647142 73
0.29930541 1.2348127 0.12192347 85
0.27946064 1.2716069 -0.0099478718 96
0.28405395 1.2630904 0.15011504 78
0.29167178 1.2531967 0.0095639192 91
0.29104486 1.2543693 0.028784776 100
0.28416136 1.2672447 0.049330149 87
0.2907505 1.2549199 0.067515619 51
0.29574469 1.2455784 0.085413218 58
0.29452813 1.247854 0.10532656 75
0.28035814 1.2743585 -0.0099827768 86
0.28677383 1.2623582 0.14959741 78
0.29055008 1.2593958 0.0096686333 90
0.2821658 1.2752109 0.050027397 85
0.29244477 1.2558219 0.067515619 51
0.29251939 1.2556812 0.10685304 73
0.28961346 1.2611625 -0.0097035384 89
0.28125516 1.2769287 0.15373851 68
0.28946859 1.2656085 0.0097733475 89
0.29443267 1.2561654 0.028784776 100
0.28949338 1.2655613 0.048981529 87
0.29229483 1.2602322 0.068003096 51
0.29421631 1.2565769 0.10685304 81
0.28760764 1.2691486 -0.0098431576 87
0.28841972 1.2676038 0.15063268 78
0.29582158 1.2576486 0.0095988233 91
0.29982391 1.2499701 0.028366089 100
0.29584271 1.2576082 0.067515619 51
0.28842729 1.2718347 -0.0098780617 97
0.29105121 1.2668008 0.15011504 78
0.29224411 1.2685386 0.029412808 100
0.29470265 1.2637835 0.048632905 88
0.29563767 1.2619749 0.068003096 51
0.29358733 1.2659407 0.14959741 78
0.29824555 1.2611256 0.048284281 59
0.2991676 1.2593268 0.067515619 68
0.29532003 1.2668327 0.14959741 70
0.29813859 1.2655882 0.0097035384 100
0.29454544 1.2726583 0.049330149 58
0.29270273 1.2762843 -0.0099129668 100
0.2935549 1.2746074 0.15166797 77
0.29627106 1.2736077 -0.0098431576 100
0.29436719 1.2816017 -0.0099827768 100
0.29615456 1.2824907 -0.0099827768 100
