# .PCD v0.7 - Point Cloud Data file format
VERSION 0.7
FIELDS x y z intensity
SIZE 4 4 4 4
TYPE F F F F
COUNT 1 1 1 1
WIDTH 717
HEIGHT 1
VIEWPOINT 0 0 0 1 0 0 0
POINTS 717
DATA ascii
0.049351871 0.011591613 0.047625721 100
0.045601487 0.011680841 0.047730394 100
0.039621711 0.0084688067 0.04804441 63
0.038348913 0.011731565 0.047939736 27
0.027844787 0.0019603372 0.048672438 16
0.032936037 0.015412271 0.047939736 18
0.022362232 0.0057163835 0.048672438 8
0.024259329 0.014121473 0.048253752 8
0.021624029 0.01596123 0.048253752 8
-1.0378952 1.1281388 0.14241248 3
-1.0229924 1.1305523 0.084574908 5
-1.0269253 1.1314538 0.14154093 6
-1.0100086 1.1333123 0.027958754 10
-0.9944914 1.1296985 0.083109498 28
-1.0295348 1.1378598 0.14188954 39
-0.9951089 1.135533 0.027714422 30
-0.98739558 1.1337082 0.082795486 91
-1.0224245 1.1419952 0.14136662 84
-0.98799044 1.1395228 0.027609708 37
-0.99776858 1.141872 0.083423518 100
-1.0133674 1.1456199 0.14066938 95
-0.98280579 1.1439412 0.027539898 38
-0.99840146 1.1477458 0.083528183 100
-0.99849743 1.1477693 0.13944919 91
-0.97760898 1.1483279 0.027470088 23
-0.98737997 1.1507478 0.083004825 97
-0.99523538 1.1526933 0.13927488 89
-0.97240037 1.152683 0.027400278 27
-0.97441953 1.1531906 0.082376793 50
-1.0035515 1.1605134 0.14014643 74
-0.97105533 1.1579949 0.027400278 41
-0.9692021 1.1575222 0.082167454 36
-0.99831778 1.1649491 0.13979781 76
-0.96775573 1.1628009 0.027365373 61
-0.97944146 1.1658252 0.082795486 65
-0.9814989 1.1663578 0.13840333 91
-0.95863873 1.1660655 0.027225753 67
-0.9819141 1.1721759 0.083004825 100
-0.96854359 1.1686656 0.13735744 92
-0.94565278 1.168242 0.027016325 81
-0.96506077 1.1734097 0.082167454 92
-0.96714264 1.173964 0.13735744 100
-0.95583695 1.1765879 0.027225753 88
-0.94628948 1.17401 0.081225403 100
-0.96957034 1.1802961 0.13770607 99
-0.95062274 1.1805239 0.027155945 92
-0.94108862 1.1779157 0.081016064 100
-0.972045 1.1863844 0.1380547 99
-0.94918066 1.1857595 0.027155945 92
-0.94350487 1.1841855 0.081225403 100
-0.95522279 1.1874352 0.1366602 92
-0.94379669 1.1901686 0.027086135 93
-0.94389945 1.1901975 0.081330076 86
-0.9498468 1.1918705 0.13631158 100
-0.9403978 1.1948322 0.027051231 68
-0.94434434 1.1959572 0.081434749 76
-0.94261688 1.1954647 0.13578865 100
-0.9562723 1.2047632 0.027365373 50
-0.92565328 1.1959255 0.080492698 38
-0.95459753 1.2042798 0.13700883 99
-0.94131023 1.2060896 0.027121039 50
-0.92224044 1.2005132 0.080388032 24
-0.95689708 1.2106476 0.13735744 84
-0.93594426 1.2101567 0.027051231 71
-0.92264372 1.2062169 0.080492698 28
-0.93815666 1.2108121 0.13578865 87
-0.92099124 1.2113185 0.026806897 78
-0.92685121 1.2130766 0.080806717 30
-0.93279213 1.214859 0.13544002 98
-0.91178852 1.2141253 0.026667276 78
-0.92529553 1.2182291 0.080806717 88
-0.92551118 1.2182946 0.1349171 100
-0.91787452 1.2215772 0.026806897 85
-0.90845019 1.2186779 0.079969339 98
-0.92965037 1.2251998 0.13544002 98
-0.90881079 1.2238104 0.026667276 89
-0.90131217 1.2214777 0.079655327 89
-0.93582278 1.2322134 0.13613728 73
-0.91095215 1.2303561 0.026737086 89
-0.9015525 1.2273942 0.07976 72
-0.91701621 1.2322669 0.13456847 47
-0.89782494 1.2320598 0.026527658 83
-0.9074772 1.2351403 0.080178685 72
-0.90771979 1.2352177 0.13387123 43
-0.89231604 1.2361333 0.026457848 85
-0.90576261 1.2404791 0.080178685 90
-0.90031737 1.2387192 0.13334829 48
-0.89084452 1.2406622 0.026457848 96
-0.89478475 1.2419493 0.079655327 100
-0.92156452 1.2506971 0.13544002 63
-0.88910979 1.2459401 0.026457848 100
-0.88356394 1.2441059 0.079131968 100
-0.92168444 1.2567132 0.13561434 80
-0.89519376 1.2529942 0.026597468 96
-0.88396174 1.2492404 0.079236634 100
-0.90125161 1.2550187 0.13387123 84
-0.87825984 1.2531614 0.02631823 93
-0.8897633 1.2570529 0.079655327 100
-0.89380223 1.2584193 0.13334829 82
-0.86908132 1.2553067 0.02617861 92
-0.87491161 1.2573006 0.078922622 100
-0.89217466 1.2632043 0.13334829 97
-0.874852 1.2631208 0.02631823 92
-0.87122864 1.2618668 0.078817949 100
-0.90165418 1.2723966 0.13439415 89
-0.87698406 1.2691636 0.026388038 79
-0.85639304 1.2619607 0.078085244 87
-0.90562218 1.2791812 0.1349171 56
-0.87137467 1.273056 0.02631823 78
-0.86587733 1.2711103 0.078713275 53
-0.89247674 1.2805245 0.13387123 40
-0.86396176 1.2759931 0.026213514 88
-0.86223906 1.2753767 0.07860861 19
-0.88318235 1.2828714 0.13317397 41
-0.84517509 1.2750463 0.025899371 96
-0.86788923 1.2832687 0.079027295 48
-0.86817902 1.2833736 0.13195379 22
-0.85109407 1.2821732 0.026038991 93
-0.85126287 1.2822349 0.078189917 89
-0.86843044 1.2885104 0.1321281 16
-0.84920746 1.2873049 0.026038991 100
-0.84562939 1.2859821 0.077980578 100
-0.87773305 1.2978512 0.13317397 5
-0.84757537 1.2916981 0.026038991 100
-0.83464581 1.2868717 0.077457212 80
-0.87233454 1.3009404 0.13282534 1
-0.83442885 1.2925799 0.025829561 100
-0.83461064 1.2926486 0.077561885 46
-0.87037903 1.30615 0.13282534 1
-0.83446461 1.2981219 0.025864467 74
-0.84584051 1.3024614 0.07829459 51
-0.83685261 1.2990329 0.12986206 13
-0.83625108 1.3046318 0.025934275 72
-0.83269876 1.3032618 0.077666558 63
-0.85163468 1.3105648 0.13143086 52
-0.83642823 1.3097095 0.025969181 78
-0.82915539 1.3068786 0.077561885 68
-0.85364288 1.316411 0.13177948 100
-0.83444077 1.3147875 0.025969181 96
-0.8178857 1.308273 0.077038527 60
-0.83679861 1.3157153 0.130385 99
-0.82147628 1.314945 0.025759751 99
-0.83094198 1.3187062 0.077875905 80
-0.82942659 1.318104 0.12986206 100
-0.81204718 1.3169873 0.025620133 100
-0.8252148 1.3222753 0.077666558 95
-0.83110613 1.3246412 0.13021068 100
-0.81022578 1.321501 0.025620133 100
-0.81412131 1.3230803 0.0771432 97
-0.8274129 1.3284695 0.13003637 100
-0.80829245 1.3262457 0.025620133 100
-0.79924446 1.3225403 0.076410495 100
-0.82914263 1.3347843 0.130385 100
-0.80994004 1.3327496 0.025689943 100
-0.7935192 1.3259544 0.076201156 100
-0.81233543 1.3337407 0.1289905 100
-0.79267186 1.3256038 0.17841671 17
-0.79689699 1.3328669 0.025480513 100
-0.80815572 1.3375719 0.0771432 100
-0.80300599 1.3354199 0.12829325 100
-0.77790314 1.3249294 0.17671055 15
-0.79143685 1.3355417 0.025410704 100
-0.80084485 1.3395082 0.07682918 100
-0.80122298 1.3396676 0.12829325 100
-0.75969058 1.3221579 0.1745169 16
-0.79681414 1.343354 0.025550323 88
-0.78966027 1.3403084 0.076305822 65
-0.81022543 1.3490632 0.12933913 90
-0.76140827 1.3282812 0.17500438 16
-0.82052487 1.3591073 0.026038991 59
-0.81335038 1.3560234 0.077771232 51
-0.82833081 1.3624625 0.13125655 26
-0.77221769 1.3383429 0.17671055 5
-0.81846017 1.3638878 0.026038991 94
-0.8057999 1.3583934 0.077457212 100
-0.82808203 1.3680634 0.13143086 67
-0.78843576 1.3508577 0.17914793 14
-0.79612809 1.3600686 0.025655037 100
-0.81278044 1.367368 0.077980578 100
-0.81493205 1.3683112 0.130385 100
-0.79902452 1.3613381 0.18085411 33
-0.79406017 1.3647637 0.025655037 100
-0.81616622 1.3745459 0.07829459 100
-0.80372542 1.3690407 0.12951343 100
-0.78606027 1.3612237 0.17939167 38
-0.79573244 1.3708481 0.025724847 100
-0.80321151 1.3741874 0.077666558 100
-0.80900866 1.3767757 0.13021068 100
-0.76596612 1.3575579 0.17695428 30
-0.80274242 1.3796501 0.025899371 100
-0.79745251 1.3772659 0.077457212 100
-0.81778091 1.3864276 0.13125655 100
-0.76390713 1.3621478 0.17695428 18
-0.79867882 1.3837757 0.025864467 100
-0.80612487 1.3871644 0.078085244 100
-0.80463189 1.3864849 0.13021068 100
-0.76534158 1.3686042 0.17744176 18
-0.79652804 1.3884797 0.025864467 100
-0.80759221 1.3935616 0.07829459 100
-0.8024717 1.3912097 0.13021068 100
-0.77947921 1.3806489 0.17963541 15
-0.78710395 1.3898122 0.025724847 100
-0.81627959 1.4033365 0.078922622 100
-0.80391032 1.3976028 0.1305593 100
-0.76473254 1.379442 0.17792924 11
-0.7921775 1.3978651 0.025864467 100
-0.80320591 1.4030242 0.07829459 100
-0.8125394 1.4073904 0.13160518 100
-0.75720292 1.3815041 0.17719802 5
-0.79551345 1.4048724 0.025969181 100
-0.79748672 1.4058034 0.078085244 100
-0.814022 1.4136056 0.13195379 100
-0.77850658 1.3968478 0.18036664 3
-0.79870564 1.4121442 0.026073895 100
-0.80066901 1.413079 0.078399263 100
-0.80816931 1.4166501 0.13160518 100
-0.79476613 1.4157475 0.026038991 100
-0.80393046 1.4201481 0.078713275 100
-0.80242532 1.4194254 0.13125655 100
-0.79430348 1.4213096 0.026073895 100
-0.80884236 1.4283535 0.079131968 100
-0.80732232 1.4276171 0.13195379 100
-0.79370373 1.4271108 0.0261088 100
-0.80103761 1.4306973 0.078817949 100
-0.8120622 1.4360887 0.13265105 100
-0.80216163 1.4371058 0.02631823 100
-0.79514092 1.4336419 0.07860861 100
-0.81330234 1.4426022 0.13299966 100
-0.79982477 1.4418216 0.02631823 100
-0.79818028 1.4410031 0.078922622 100
-0.81094629 1.4473569 0.13299966 100
-0.79032308 1.4429402 0.02617861 100
-0.80296952 1.4492897 0.079341307 100
-0.8050124 1.4503154 0.13265105 100
-0.78451592 1.4455749 0.0261088 100
-0.80783719 1.4573808 0.07976 100
-0.80985934 1.4584045 0.13334829 100
-0.7928353 1.4556855 0.02631823 100
-0.79831439 1.4584832 0.079341307 100
-0.81099695 1.4649593 0.13369691 100
-0.7904337 1.4603686 0.02631823 100
-0.79590291 1.4631855 0.079341307 100
-0.81741911 1.4742671 0.13456847 100
-0.79866296 1.4705744 0.026527658 100
-0.7970199 1.4697208 0.079550654 100
-0.80257589 1.4726069 0.13334829 100
-0.79620928 1.4752778 0.026527658 100
-0.79633838 1.4753454 0.079655327 100
-0.80717462 1.4810224 0.13404553 100
-0.78313071 1.4743676 0.02631823 88
-0.80093175 1.4837728 0.080074012 100
-0.80292279 1.4848248 0.13387123 99
-0.80054492 1.4893073 0.13387123 36
0.12608269 1.2957419 0.13127659 5
0.15507901 1.2632947 0.011029921 25
0.15181547 1.2673712 0.033390339 28
0.12912783 1.2957103 0.05891728 22
0.142598 1.2788848 0.10324675 11
0.14877903 1.2711641 0.12478908 24
0.18950027 1.2202992 0.13317102 7
0.15278196 1.2661641 0.17030293 7
0.16178051 1.2584087 0.010890301 91
0.1622535 1.2578136 0.032657638 88
0.15080142 1.2722211 0.056128297 72
0.15102828 1.2719357 0.078727596 28
0.16527256 1.2540154 0.097927973 24
0.1590822 1.2618033 0.12211776 93
0.18622395 1.227657 0.13497064 22
0.149708 1.2735968 0.17237349 21
0.16968185 1.2519121 0.010715778 100
0.16519594 1.2575963 0.032552965 100
0.15008834 1.2767396 0.056476921 100
0.16754007 1.254626 0.075802729 30
0.17797825 1.2413995 0.095112152 25
0.15958506 1.264706 0.12249938 100
0.18299469 1.235043 0.13677025 37
0.15146831 1.2749909 0.17237349 42
0.17128202 1.2531706 0.010715778 100
0.18036816 1.2415785 0.031401575 100
0.15668735 1.2717905 0.055779677 100
0.16792464 1.2574539 0.076046467 44
0.1819807 1.2395211 0.094486415 26
0.16728333 1.2582722 0.12059128 100
0.19295406 1.2255213 0.13362093 46
0.15433687 1.2747893 0.17185585 43
0.16683036 1.2623804 0.010890301 100
0.18201652 1.2428658 0.031401575 93
0.15477046 1.2778776 0.056302611 96
0.16353282 1.2666178 0.077265166 29
0.17634284 1.2501566 0.096363634 37
0.17260724 1.254957 0.11944643 100
0.18616861 1.2375304 0.13677025 30
0.1406776 1.2959871 0.17858514 40
0.16610622 1.2668797 0.010960111 77
0.18122718 1.2473085 0.031610917 61
0.1614182 1.2729475 0.055605363 49
0.17497799 1.2553968 0.075315252 45
0.1731903 1.2577107 0.097615108 24
0.18303707 1.2449658 0.13856985 22
0.14251611 1.2974128 0.17858514 40
0.17757949 1.2555233 0.010680873 80
0.17195535 1.2628555 0.032552965 29
0.1656014 1.2711391 0.055256739 49
0.17667463 1.2567029 0.075315252 45
0.18571535 1.2449166 0.094799288 51
0.18795088 1.2420021 0.11563025 13
0.19418561 1.233874 0.13497064 22
0.15846884 1.2804377 0.17237349 57
0.18533412 1.2488657 0.010506349 54
0.16641781 1.273706 0.033180997 28
0.17459556 1.2629672 0.054210871 51
0.19160515 1.2406309 0.072634131 63
0.19216245 1.239899 0.093547814 52
0.19673729 1.2338915 0.11334054 13
0.20525217 1.2227101 0.13137141 39
0.17195711 1.2664319 0.16719711 75
0.17977217 1.2597065 0.010715778 39
0.17058736 1.2718555 0.032971654 29
0.16670626 1.276989 0.055605363 49
0.19085586 1.245046 0.073121607 62
0.18903974 1.2474482 0.094799288 51
0.19835871 1.2351218 0.11334054 13
0.20918494 1.2208018 0.13047162 40
0.17252725 1.2692895 0.16771474 67
0.17428157 1.270592 0.010925206 39
0.19631979 1.2412291 0.030878214 31
0.17565426 1.2687629 0.054559495 50
0.19609112 1.2415338 0.072390392 47
0.21086681 1.2218472 0.089480512 55
0.19173491 1.2473378 0.11601187 13
0.21310019 1.2188716 0.12957181 32
0.178911 1.2644238 0.16564418 68
0.17722604 1.2702968 0.010890301 78
0.18842021 1.2552732 0.031715591 30
0.18334967 1.2620784 0.053687938 52
0.18469253 1.2602761 0.075071514 75
0.20418432 1.2341163 0.091670595 67
0.19692236 1.2438626 0.11486702 13
0.2169978 1.2169194 0.128672 32
0.18294764 1.2626179 0.16460891 69
0.18610975 1.2619489 0.010680873 80
0.20080593 1.2420809 0.030773543 64
0.18151507 1.2681606 0.054210871 76
0.19348913 1.2519727 0.073609084 77
0.20580649 1.2353207 0.091670595 81
0.21025375 1.2293084 0.11105084 14
0.20928881 1.2306129 0.13227122 31
0.18926477 1.2576836 0.16253836 70
0.20203197 1.2438743 0.010262015 84
0.20482019 1.2400773 0.030564198 64
0.17971849 1.2742617 0.054733805 75
0.20104831 1.245214 0.072390392 95
0.20743287 1.2365193 0.091670595 94
0.20953509 1.2336564 0.11181407 14
0.23050663 1.2050967 0.12462288 25
0.1886825 1.2620542 0.16357364 69
0.18955305 1.2644774 0.010680873 93
0.21587512 1.2283676 0.029726824 67
0.18969634 1.2642808 0.053513627 78
0.19218528 1.2608664 0.074584037 91
0.20557258 1.242501 0.092609204 93
0.21346858 1.2316689 0.11105084 14
0.22973153 1.2093588 0.12552269 16
0.18812636 1.2664347 0.16460891 69
0.18659216 1.2722127 0.010820492 91
0.21279374 1.2360034 0.030145511 98
0.18791988 1.2703779 0.054036561 100
0.1985558 1.2556796 0.073609084 93
0.21185613 1.2372991 0.09135773 94
0.2127803 1.236022 0.11181407 14
0.24383363 1.1931076 0.12057377 8
0.18872893 1.2692598 0.16512655 68
0.19759479 1.2604237 0.010541254 95
0.21084446 1.2419848 0.030459527 97
0.1953944 1.2634859 0.053165004 100
0.19900993 1.2584543 0.073852822 93
0.22032389 1.2287929 0.089480512 97
0.21203625 1.2403263 0.1125773 13
0.24296406 1.1972857 0.12147357 17
0.19827771 1.2594733 0.16150309 70
0.19930884 1.2616508 0.010541254 95
0.20785481 1.2496698 0.030878214 95
0.20174709 1.2582326 0.052467756 100
0.20878631 1.248364 0.072146654 63
0.21275052 1.2428063 0.091983467 100
0.19999924 1.2606829 0.11715672 19
0.22974613 1.2189794 0.1273223 16
0.20335394 1.2559799 0.15995017 72
0.2079604 1.2530799 0.010331824 98
0.20953125 1.2508613 0.030878214 63
0.19654557 1.2692016 0.053513627 100
0.21619371 1.2414515 0.070927955 48
0.20869556 1.2520416 0.093547814 100
0.21079004 1.2490834 0.11410378 34
0.22568485 1.2280467 0.12957181 16
0.20170343 1.2619169 0.16150309 70
0.20274973 1.2640872 0.010541254 95
0.22499305 1.2324381 0.029622151 100
0.195999 1.2736925 0.053862248 100
0.1995784 1.2685995 0.074827775 100
0.21492368 1.2467654 0.092296332 100
0.20682001 1.2582958 0.11601187 79
0.22616518 1.2307703 0.13002171 40
0.20231184 1.2647102 0.16202073 70
0.21134123 1.255456 0.010331824 98
0.22089565 1.24176 0.030145511 98
0.19775936 1.2749251 0.053862248 100
0.21835741 1.2453985 0.071171694 81
0.22224095 1.2398316 0.090731993 100
0.20403349 1.2659314 0.11753834 100
0.22777551 1.231898 0.13002171 80
0.19851431 1.2738429 0.16460891 69
0.20848432 1.2632113 0.010471444 96
0.2202704 1.2461901 0.030354854 97
0.20632938 1.2663233 0.05281638 100
0.22340909 1.2416571 0.070440479 65
0.2272566 1.2361007 0.089793384 97
0.21806079 1.2493811 0.11334054 89
0.22606167 1.2378263 0.13137141 86
0.21347237 1.2560077 0.15839726 73
0.2124733 1.2611043 0.010401634 83
0.22985342 1.2358161 0.029622151 100
0.21032098 1.264236 0.052467756 100
0.2171869 1.2542461 0.072146654 79
0.23000443 1.2355964 0.089480512 100
0.22640815 1.240829 0.11105084 98
0.22880045 1.2373483 0.13092151 96
0.21407667 1.2587714 0.15891489 73
0.22095093 1.252368 0.010192205 85
0.22697935 1.2435305 0.03004084 66
0.20643443 1.2736483 0.053339314 78
0.22670981 1.2439257 0.070440479 65
0.22161302 1.2513973 0.092296332 100
0.2302663 1.2387121 0.1102876 99
0.22055027 1.2529552 0.13497064 99
0.21796215 1.2567493 0.15787962 81
0.2237578 1.2518578 0.0101573 42
0.23759219 1.2314245 0.029203463 34
0.21377966 1.2665954 0.052467756 80
0.23170486 1.2401199 0.069709264 99
0.22551036 1.2492692 0.091670595 100
0.226401 1.2479538 0.11219569 100
0.23425603 1.2363518 0.13002171 96
0.21208173 1.2691032 0.16150309 70
0.21651924 1.2662717 0.010436539 41
0.22583723 1.2524052 0.030459527 32
0.20440269 1.2843031 0.054210871 51
0.22891912 1.2478187 0.070684217 81
0.23159233 1.2438406 0.090419121 100
0.22478634 1.253969 0.11334054 82
0.24132034 1.2293638 0.1277722 97
0.2192134 1.2622623 0.15891489 73
0.20937741 1.2807419 0.010715778 39
0.21200874 1.2767966 0.031924933 30
0.21946564 1.2656153 0.052119136 54
0.22838613 1.2522397 0.071171694 81
0.23763239 1.2383754 0.089167647 100
0.22865629 1.2518346 0.1125773 82
0.23535696 1.2417873 0.13092151 100
0.22307748 1.2601997 0.15787962 81
0.22661421 1.2585826 0.01022711 28
0.21377987 1.2779732 0.031924933 30
0.21569929 1.2750733 0.05299069 52
0.2322627 1.2500486 0.070684217 65
0.23708865 1.2427574 0.089793384 100
0.23792532 1.2414935 0.10990598 85
0.23915687 1.2396327 0.13002171 96
0.22585687 1.2597269 0.15736198 74
0.22384349 1.266337 0.010366729 27
0.21765986 1.2757471 0.031715591 30
0.22394097 1.2661886 0.051944822 54
0.23494652 1.2494407 0.070440479 98
0.24191254 1.23884 0.088854775 98
0.24164689 1.2392442 0.10914274 92
0.24071595 1.2406609 0.13002171 96
0.22536081 1.2640281 0.15839726 73
0.23213199 1.2574226 0.0101573 28
0.22379127 1.2702123 0.031296901 31
0.22240996 1.2723305 0.052467756 53
0.23336893 1.2555258 0.071171694 65
0.23923481 1.246531 0.090106249 96
0.24221429 1.2419622 0.10952436 85
0.24661875 1.2352084 0.12822211 97
0.2291978 1.2619219 0.15736198 74
0.22940302 1.2651883 0.010296919 42
0.25801522 1.2209945 0.028156744 35
0.21974635 1.2801039 0.053165004 52
0.23929608 1.2499077 0.07019674 66
0.24833161 1.2359517 0.087916173 98
0.24058017 1.2479243 0.11066922 92
0.25557664 1.2247611 0.12507279 92
0.22663125 1.2694696 0.15943253 73
0.23113352 1.2663045 0.010296919 56
0.2477158 1.2404947 0.029308135 68
0.22906765 1.2695199 0.051944822 54
0.23775411 1.2559997 0.070927955 48
0.25636646 1.2270303 0.086038955 72
0.24012792 1.252305 0.11143246 84
0.25400576 1.2307045 0.12642249 82
0.23464209 1.2608435 0.1563267 74
0.23832834 1.2590381 0.010122396 85
0.25158912 1.2382309 0.029098792 68
0.24803349 1.2438099 0.049155839 58
0.22886869 1.2738812 0.073365346 93
0.25592023 1.2314351 0.086664692 86
0.24084258 1.2550931 0.11181407 100
0.25255427 1.2367165 0.1277722 81
0.23644322 1.261996 0.1563267 74
0.24324381 1.2550528 0.010017681 58
0.24255002 1.2561499 0.030145511 98
0.23691005 1.2650681 0.051247578 55
0.24972808 1.2447997 0.068978049 50
0.2511977 1.242476 0.08854191 70
0.25513008 1.2362579 0.10723466 81
0.25626844 1.234458 0.12687239 99
0.2309345 1.2745167 0.15995017 64
0.25131643 1.2459579 0.0098082526 74
0.24637213 1.2538366 0.029936166 99
0.23758101 1.2678455 0.051421888 82
0.25560793 1.2391193 0.068003096 51
0.25074875 1.2468624 0.089167647 56
0.24841094 1.2505878 0.1102876 85
0.25789148 1.2354803 0.12687239 90
0.23269755 1.2756274 0.15995017 72
0.24558055 1.2588801 0.010052586 86
0.26073158 1.2345483 0.028680105 100
0.23510811 1.2756982 0.052119136 81
0.25724727 1.240144 0.068003096 51
0.25659177 1.2411966 0.087916173 70
0.24697709 1.2566373 0.11143246 91
0.26878878 1.221609 0.12282328 93
0.23854905 1.2701724 0.15787962 65
0.24615204 1.2615879 0.010087491 71
0.2559731 1.2456987 0.029308135 100
0.24411955 1.2648761 0.050898954 83
0.24837095 1.257998 0.070440479 49
0.26438749 1.2320852 0.086038955 72
0.25788245 1.2426095 0.10799789 72
0.26618958 1.2291696 0.12462288 92
0.24630362 1.2613426 0.15477379 67
0.25100616 1.2575315 0.0099827768 87
0.25137043 1.2569375 0.029936166 99
0.24689049 1.2642424 0.05072464 84
0.25215182 1.2556634 0.069953002 49
0.26187131 1.2398151 0.087290429 57
0.2513229 1.2570151 0.11105084 100
0.26371893 1.2368023 0.12642249 99
0.24802059 1.2623997 0.15477379 67
0.25886315 1.2482717 0.0097733475 89
0.25714085 1.251101 0.029517479 100
0.24749514 1.2669468 0.050898954 83
0.26098922 1.244779 0.068246834 68
0.26343086 1.240768 0.087290429 57
0.26723111 1.234525 0.10570818 73
0.26121536 1.2444075 0.12822211 89
0.24764612 1.2666987 0.15580906 67
0.25846681 1.2527084 0.0098431576 88
0.26295218 1.2452818 0.029098792 100
0.24614155 1.2731161 0.051421888 82
0.26162201 1.2474842 0.068490572 50
0.26303342 1.2451472 0.087916173 70
0.25768968 1.2539952 0.10990598 85
0.27093282 1.2320678 0.12462288 92
0.24538684 1.2743658 0.15787962 65
0.25501442 1.2622998 0.010017681 87
0.26871926 1.2394279 0.028680105 100
0.25097182 1.2690465 0.050898954 83
0.25920925 1.2552991 0.069465525 49
0.274847 1.2292013 0.084787481 73
0.25736275 1.2583808 0.11066922 85
0.27455071 1.2296958 0.12372308 83
0.24516335 1.2787402 0.15891489 65
0.25571284 1.2650454 0.010052586 86
0.2672978 1.2455573 0.028994121 100
0.25067943 1.2735126 0.051247578 82
0.26597685 1.2477795 0.068246834 34
0.27039516 1.240347 0.086664692 57
0.26107571 1.2560241 0.10990598 85
0.27715281 1.2289795 0.12327318 85
0.252864 1.2698376 0.15580906 67
0.26675284 1.2506664 0.0097384425 75
0.2701399 1.2449186 0.028889447 100
0.26070711 1.2609259 0.049853086 85
0.26479006 1.2539972 0.068978049 50
0.27822047 1.2312059 0.084787481 59
0.26693094 1.2503642 0.10837951 94
0.27693847 1.2333815 0.12417299 83
0.2606701 1.2609887 0.15270324 68
0.27549684 1.2395678 0.0094941091 92
0.26978344 1.2493411 0.029098792 100
0.25840047 1.2688129 0.05055033 84
0.27048859 1.2481349 0.068003096 51
0.27385047 1.242384 0.086664692 57
0.27752674 1.2360953 0.10494494 75
0.27659068 1.2376966 0.12507279 83
0.26238576 1.2619957 0.15270324 68
0.26492807 1.261182 0.0099129668 87
0.27530092 1.2433095 0.028680105 100
0.25796875 1.273173 0.050898954 83
0.27099565 1.2507274 0.068246834 51
0.27236116 1.2483747 0.087603301 57
0.27012303 1.252231 0.10837951 79
0.28490871 1.2267551 0.12192347 76
0.25617504 1.2762635 0.15684435 66
0.26564664 1.2639071 0.0099478718 73
0.27595821 1.2459964 0.028784776 100
0.26668552 1.2621026 0.049678773 86
0.27168494 1.2534188 0.068490572 50
0.28388867 1.2322216 0.084474608 59
0.2649512 1.265115 0.11105084 84
0.28844929 1.2243 0.12102367 86
0.26179957 1.2705892 0.15477379 67
0.26448467 1.2701559 0.010052586 86
0.2747342 1.2522012 0.029098792 100
0.25960132 1.2787104 0.051247578 100
0.27149037 1.2578835 0.068978049 50
0.2865639 1.2314782 0.084161744 59
0.2687144 1.2627465 0.1102876 85
0.28625169 1.2320251 0.12282328 93
0.27241567 1.2562627 -0.0097733475 88
0.27321362 1.2548648 0.14959741 70
0.27895772 1.2484808 0.0095988233 76
0.28125677 1.2444223 0.028575432 100
0.26816392 1.2675356 0.050027397 85
0.27506658 1.25535 0.068490572 50
0.28517479 1.2375057 0.085100345 58
0.28486466 1.2380531 0.10456333 67
0.28490379 1.2379841 0.12417299 83
0.27107286 1.2624003 -0.0098780617 87
0.27672735 1.2524183 0.14856213 71
0.27573195 1.2581408 0.0097733475 89
0.27606609 1.2575462 0.029308135 100
0.26795045 1.2719903 0.05037602 84
0.27870721 1.2528455 0.068003096 51
0.28197023 1.247038 0.086664692 57
0.28265336 1.2458222 0.1060898 81
0.28844813 1.2355087 0.12327318 76
0.26895002 1.2702112 0.15373851 68
0.28514212 1.2450749 0.0094941091 92
0.28740993 1.2410071 0.028261416 100
0.27446759 1.2642218 0.049504463 86
0.28030989 1.2537425 0.068003096 51
0.28740123 1.2410228 0.085413218 58
0.28136474 1.2518504 0.10723466 81
0.29473791 1.227863 0.12102367 86
0.27437314 1.2643912 0.15166797 69
0.27721182 1.263544 0.0098431576 88
0.28913802 1.2419665 0.028261416 100
0.27146184 1.2739472 0.05037602 84
0.27920389 1.2599398 0.068734311 84
0.28721824 1.2454398 0.086038955 72
0.2821829 1.25455 0.10761628 79
0.29830313 1.2253844 0.12012386 86
0.27624446 1.2652942 -0.0098780617 87
0.26590738 1.2839966 0.15736198 74
0.2769269 1.2679526 0.0099129668 87
0.28302172 1.2568386 0.029098792 100
0.27121851 1.2783619 0.05072464 84
0.2856026 1.2521324 0.067515619 51
0.29544511 1.2341844 0.083848871 59
0.28095919 1.2605996 0.10876112 79
0.29700357 1.2313426 0.12147357 77
0.28061804 1.2612218 0.15011504 78
0.28456962 1.2584553 0.0097035384 90
0.29252198 1.243821 0.028261416 100
0.28649068 1.25492 0.048284281 88
0.28461236 1.2583766 0.068246834 51
0.29534298 1.2386297 0.084474608 59
0.28846925 1.251279 0.10647142 81
0.29784638 1.2340229 0.12192347 76
0.27788612 1.2707546 -0.0099478718 86
0.28342858 1.260555 0.14959741 70
0.28998667 1.252292 0.0095639192 91
0.29409465 1.2446723 0.028261416 100
0.28526372 1.2610525 0.048807215 88
0.29282749 1.2470226 0.066540658 69
0.29596099 1.2412105 0.084787481 59
0.29472497 1.2435031 0.10456333 75
0.27772272 1.2750401 0.15373851 76
0.29167178 1.2531967 0.0095639192 91
0.2901032 1.2561307 0.028889447 100
0.28040391 1.2742729 0.050027397 85
0.29262233 1.2514187 0.067028143 51
0.29853871 1.2403523 0.084474608 59
0.29452813 1.247854 0.10532656 75
0.28130093 1.2725952 -0.0099478718 86
0.28495219 1.2657654 0.15063268 70
0.29233858 1.2558173 0.0095988233 76
0.28954586 1.2610829 0.048632905 88
0.29235998 1.2557769 0.067515619 51
0.29732317 1.246419 0.085413218 58
0.29059488 1.259105 0.10761628 72
0.28203213 1.27525 -0.0099827768 96
0.28478736 1.2700551 0.15166797 69
0.29048523 1.2638838 0.0097384425 60
0.28772634 1.2691343 0.049330149 87
0.29238039 1.2602772 0.068003096 51
0.29704088 1.2514077 0.10570818 81
0.29141539 1.2621136 -0.0097035384 89
0.29030377 1.2642292 0.14959741 70
0.29674587 1.2558753 0.0095639192 91
0.29398751 1.2611673 0.048458595 59
0.29217255 1.2646494 0.068490572 50
0.28657874 1.2753813 -0.0099478718 96
0.29819462 1.2530959 0.14597394 81
0.29874992 1.2561634 0.028680105 100
0.29572353 1.2620194 0.068003096 51
0.29367387 1.2659854 0.14959741 78
0.28915694 1.2788557 0.050027397 57
0.29532003 1.2668327 0.14959741 70
0.29562294 1.2709711 0.049155839 58
0.29650089 1.269242 -0.0097733475 100
0.2946057 1.2729745 0.15115032 77
0.29905725 1.268294 0.0097384425 100
0.29725838 1.271866 -0.0098082526 100
0.29801285 1.2703679 0.15011504 78
0.29986322 1.2799168 0.1521856 77
