# .PCD v0.7 - Point Cloud Data file format
VERSION 0.7
FIELDS x y z intensity
SIZE 4 4 4 4
TYPE F F F F
COUNT 1 1 1 1
WIDTH 716
HEIGHT 1
VIEWPOINT 0 0 0 1 0 0 0
POINTS 716
DATA ascii
0.12003478 0.028867424 0.044904251 13
0.098895997 0.51964009 -0.0090054413 12
0.091877818 0.52415109 -0.0090752514 11
-1.0336707 1.1286386 0.085098267 3
-1.0550706 1.1334848 0.14398129 4
-1.0518782 1.1386449 0.028691756 7
-0.99542779 1.1256539 0.083109498 5
-1.038259 1.1355107 0.1425868 9
-1.0194907 1.1366761 0.028133279 11
-1.0136888 1.1353205 0.084156215 48
-1.021517 1.1371495 0.1411923 45
-0.99096197 1.1356882 0.027644612 32
-0.99880105 1.1375484 0.083423518 100
-1.0085945 1.1398726 0.14014643 91
-0.97995597 1.1387223 0.027470088 38
-1.0033336 1.1443564 0.08373753 100
-1.0072939 1.1453109 0.14014643 84
-0.98642915 1.1459618 0.027609708 37
-0.98455721 1.1455038 0.082795486 100
-1.0040393 1.1502709 0.13997212 87
-0.97734457 1.1493943 0.027470088 25
-0.96579188 1.1465247 0.081853434 84
-1.0007687 1.1552129 0.13979781 84
-0.97601086 1.1547234 0.027470088 26
-0.97802502 1.1552312 0.082586139 44
-1.0013466 1.1611109 0.13997212 68
-0.96497208 1.1575698 0.027295563 45
-0.97473603 1.1600677 0.082481466 32
-0.97873932 1.1610918 0.1380547 80
-0.95973891 1.1618509 0.027225753 61
-0.98883075 1.1694016 0.083318844 73
-0.98122185 1.1674268 0.13840333 91
-0.96222943 1.1681368 0.027295563 67
-0.96811289 1.1696857 0.08227212 100
-0.9798252 1.1727693 0.13840333 92
-0.95310253 1.1713495 0.027155945 81
-0.94934148 1.1703453 0.081330076 88
-0.98033494 1.1786211 0.13857763 100
-0.96327347 1.1797296 0.027365373 92
-0.95371848 1.1771425 0.081644088 100
-0.96351415 1.1797948 0.13718314 100
-0.95026392 1.1818333 0.027155945 92
-0.95036215 1.1818602 0.081539422 100
-0.95823187 1.1840205 0.13683452 98
-0.94125599 1.1844028 0.027016325 96
-0.94713646 1.1860369 0.081434749 94
-0.96076304 1.1898236 0.13718314 94
-0.93980032 1.1896058 0.027016325 93
-0.94183022 1.1901774 0.081225403 82
-0.95737058 1.1945544 0.13700883 99
-0.94986397 1.1980966 0.027225753 64
-0.9230693 1.1904488 0.080283359 70
-0.95587939 1.1998136 0.13700883 100
-0.97525412 1.2111073 0.027714422 42
-0.93310457 1.1989175 0.08091139 32
-0.94862801 1.2034069 0.13648589 94
-0.93532461 1.2051836 0.027016325 56
-0.92584831 1.2024071 0.080597371 22
-0.93754596 1.2058345 0.13561434 84
-0.91654307 1.2052453 0.026702182 72
-0.93007404 1.2092609 0.08091139 26
-0.94556576 1.2138586 0.13648589 85
-0.9150148 1.2103617 0.026702182 75
-0.91514271 1.2104001 0.080178685 38
-0.93637508 1.2167823 0.13578865 98
-0.91920787 1.2172198 0.026806897 78
-0.90213221 1.2120222 0.079550654 95
-0.93671256 1.2225482 0.13596296 100
-0.9291833 1.2256215 0.027016325 89
-0.91211098 1.2203628 0.080178685 96
-0.92377895 1.2239568 0.1349171 92
-0.90849358 1.2248287 0.026667276 88
-0.92197019 1.2290313 0.080806717 74
-0.9107731 1.2255396 0.13387123 66
-0.8992694 1.2275091 0.026527658 88
-0.91654974 1.2329643 0.080597371 68
-0.91297406 1.2318354 0.13421984 45
-0.9014731 1.2337825 0.026597468 83
-0.90160722 1.2338253 0.079864666 82
-0.91514868 1.2381521 0.13456847 43
-0.89984542 1.2388463 0.026597468 85
-0.89047748 1.235817 0.079341307 100
-0.91160995 1.2426506 0.13439415 47
-0.90200108 1.2451482 0.026667276 100
-0.89643556 1.2433269 0.07976 100
-0.91373831 1.248989 0.13474278 63
-0.88514692 1.2451853 0.026388038 100
-0.89667064 1.2490008 0.079864666 100
-0.89692611 1.2490854 0.13334829 88
-0.87210256 1.2463809 0.02617861 100
-0.89309591 1.2534133 0.07976 100
-0.89713424 1.2547661 0.1335226 90
-0.87421888 1.2526257 0.02624842 99
-0.88572496 1.2565247 0.07944598 100
-0.89165932 1.2585356 0.13317397 84
-0.87630886 1.258891 0.02631823 92
-0.87646049 1.258943 0.079027295 100
-0.90313846 1.2680873 0.13439415 91
-0.88215119 1.2664866 0.026457848 85
-0.87474507 1.2639192 0.079027295 100
-0.893861 1.2705462 0.13369691 84
-0.8690868 1.2675133 0.02624842 79
-0.87112743 1.2682288 0.078922622 78
-0.89774555 1.2775607 0.13421984 52
-0.85980254 1.2697911 0.0261088 81
-0.86749727 1.272519 0.078817949 46
-0.88845354 1.2799482 0.1335226 41
-0.85428447 1.2733598 0.026038991 93
-0.86197418 1.2761161 0.07860861 17
-0.90166897 1.2903445 0.1349171 36
-0.85627896 1.2796211 0.0261088 93
-0.8526879 1.2783198 0.078189917 57
-0.88298517 1.2892992 0.13334829 22
-0.85824686 1.2859026 0.02617861 99
-0.8527804 1.2839 0.07829459 93
-0.86619729 1.2888153 0.13195379 13
-0.84152538 1.285017 0.025899371 100
-0.85294157 1.2892423 0.078399263 100
-0.86446911 1.2935086 0.13195379 3
-0.8284815 1.2856674 0.025689943 100
-0.8492499 1.2934365 0.07829459 65
-0.87196356 1.3019333 0.13282534 1
-0.83406359 1.2935462 0.025829561 100
-0.83798164 1.2950282 0.077771232 51
-0.86068672 1.3036169 0.13195379 3
-0.84343487 1.3026584 0.026038991 77
-0.83614045 1.29987 0.077771232 55
-0.85323232 1.3064036 0.13143086 18
-0.84725744 1.3094369 0.026143705 72
-0.82505959 1.3008671 0.077247873 63
-0.84401113 1.3081837 0.13073361 58
-0.83046216 1.3084972 0.025864467 83
-0.83064097 1.308567 0.077666558 68
-0.85140485 1.3166667 0.13160518 100
-0.81927186 1.3096466 0.025689943 89
-0.83061069 1.3141154 0.077771232 63
-0.83280545 1.3149803 0.13003637 99
-0.81737977 1.314423 0.025689943 100
-0.82313627 1.3167149 0.077457212 95
-0.83459681 1.3212779 0.130385 99
-0.81547111 1.3191926 0.025689943 100
-0.81751353 1.3200142 0.077247873 95
-0.83636099 1.3275946 0.13073361 100
-0.81725103 1.325461 0.025759751 100
-0.82113642 1.3270395 0.077561885 97
-0.82886857 1.3301809 0.13021068 100
-0.79071444 1.3146803 0.1776855 13
-0.80800098 1.3269567 0.025620133 100
-0.8100422 1.327794 0.077038527 100
-0.81409973 1.329458 0.1289905 100
-0.80359381 1.3251493 0.17963541 15
-0.79865867 1.3286327 0.025480513 100
-0.80808693 1.332538 0.077038527 100
-0.80845708 1.3326913 0.12864187 100
-0.79431182 1.3268322 0.17866045 21
-0.79670042 1.3333371 0.025480513 100
-0.80611497 1.3372753 0.077038527 100
-0.81935102 1.3428119 0.12986206 100
-0.77404672 1.3238606 0.17622307 18
-0.80577832 1.3427032 0.025689943 100
-0.78388828 1.3334565 0.075887136 96
-0.81734318 1.3475883 0.12986206 100
-0.77210528 1.3284791 0.17622307 20
-0.80744976 1.3490014 0.025759751 81
-0.79477316 1.3435943 0.076619841 56
-0.8043229 1.3476677 0.12881619 91
-0.77562553 1.3354273 0.17695428 16
-0.81276685 1.3569001 0.025899371 52
-0.82394713 1.3617151 0.078399263 53
-0.80463821 1.3533994 0.18109785 5
-0.79970688 1.3568692 0.025689943 99
-0.80538887 1.3593398 0.077457212 100
-0.81304699 1.3626697 0.13003637 58
-0.77892762 1.3478341 0.17792924 18
-0.78666371 1.3567543 0.025480513 100
-0.80880982 1.3664758 0.077771232 100
-0.81644291 1.3698266 0.1305593 100
-0.78599089 1.356459 0.17914793 36
-0.79740506 1.3670877 0.025724847 100
-0.80489343 1.3704062 0.077666558 100
-0.81798393 1.3762071 0.13090792 100
-0.78938037 1.3635316 0.17987914 42
-0.79896337 1.3734205 0.025794657 100
-0.80825895 1.3775785 0.077980578 100
-0.8049472 1.3760972 0.12986206 100
-0.76193148 1.3568554 0.17646681 22
-0.7913813 1.3756568 0.025689943 100
-0.80795008 1.3831379 0.078085244 100
-0.80282325 1.3808231 0.12986206 100
-0.79425019 1.3769522 0.18109785 28
-0.78561968 1.3786769 0.025620133 100
-0.81125385 1.3903592 0.078399263 100
-0.80793494 1.3888466 0.1305593 100
-0.76322156 1.3684695 0.17719802 15
-0.79620403 1.3891847 0.025864467 100
-0.80726558 1.3942723 0.07829459 100
-0.8057664 1.3935828 0.1305593 100
-0.76473147 1.3747089 0.1776855 15
-0.79403454 1.39388 0.025864467 100
-0.79964334 1.3964837 0.077980578 100
-0.81081015 1.4016671 0.13125655 100
-0.76621383 1.3809661 0.17817298 12
-0.80101329 1.4025733 0.026038991 100
-0.80298489 1.4034965 0.07829459 100
-0.79427284 1.3994174 0.12986206 100
-0.77316946 1.3895363 0.17939167 7
-0.7969889 1.4064312 0.026004085 100
-0.8061828 1.4107752 0.07860861 100
-0.79927331 1.4075105 0.1305593 100
-0.79612654 1.4060236 0.18280402 3
-0.78392893 1.4059657 0.025794657 100
-0.80934638 1.4180837 0.078922622 100
-0.80423361 1.4156462 0.13125655 100
-0.79431504 1.4166862 0.026038991 100
-0.80347615 1.4210932 0.078713275 100
-0.81274432 1.4255517 0.13230242 100
-0.79564744 1.4231211 0.0261088 100
-0.79939836 1.4249417 0.07860861 100
-0.80686289 1.4285645 0.13195379 100
-0.80413502 1.4330909 0.02631823 100
-0.80069155 1.4314046 0.078817949 100
-0.81171328 1.4368018 0.13265105 100
-0.79105502 1.4324994 0.0261088 100
-0.79658383 1.4352307 0.078713275 100
-0.80580479 1.4397861 0.13230242 100
-0.78873438 1.4371766 0.0261088 100
-0.80140382 1.4434906 0.079131968 100
-0.80702502 1.4462919 0.13265105 100
-0.79723531 1.4469995 0.02631823 100
-0.79737848 1.4470716 0.079027295 100
-0.81189591 1.4543667 0.13334829 100
-0.79486388 1.4516982 0.02631823 100
-0.79678828 1.4526737 0.079131968 100
-0.81483001 1.4618189 0.13387123 100
-0.8032797 1.4616144 0.026527658 100
-0.80163091 1.4607717 0.079550654 100
-0.81075424 1.4654343 0.13369691 100
-0.79019254 1.4608365 0.02631823 100
-0.79921144 1.4654856 0.079550654 100
-0.79946369 1.4656155 0.13282534 100
-0.78398222 1.4641314 0.02624842 100
-0.80538982 1.4752706 0.080074012 100
-0.80738741 1.47631 0.13387123 100
-0.78863388 1.4725006 0.026388038 100
-0.79230851 1.4744289 0.07944598 100
-0.80844206 1.4828956 0.13421984 100
-0.7862969 1.4769356 0.026388038 79
-0.78290349 1.4751405 0.079027295 93
-0.81135398 1.4901915 0.13474278 98
-0.79489392 1.4872018 0.13334829 26
0.13224429 1.2881002 0.1293685 11
0.17015883 1.2446283 0.010611063 27
0.15315023 1.2658813 0.03328567 28
0.14415854 1.2771169 0.056825545 23
0.1377497 1.285125 0.10449822 11
0.15868017 1.2589715 0.12173614 37
0.18957889 1.2203622 0.13317102 7
0.15166149 1.2677417 0.17082056 7
0.15804762 1.2631049 0.010995016 100
0.16971016 1.2484325 0.032029606 91
0.1582399 1.2628629 0.055082429 75
0.16090992 1.2595038 0.076777689 29
0.16896003 1.2493763 0.096989371 25
0.1603038 1.2602664 0.12173614 93
0.17894843 1.2368101 0.13767004 22
0.14850593 1.2751091 0.17289113 28
0.16233468 1.2613982 0.010925206 100
0.17022923 1.2513912 0.032134276 100
0.15017679 1.2768093 0.056476921 100
0.16516566 1.2578096 0.076290213 29
0.18050748 1.2383627 0.094486415 39
0.15723944 1.2678568 0.12326261 100
0.19031778 1.2259274 0.13407083 38
0.14916342 1.2780938 0.17340876 42
0.16281927 1.2643228 0.010960111 100
0.17806968 1.2448522 0.031610917 100
0.15931964 1.2687907 0.055431053 100
0.16319862 1.2638384 0.077021427 29
0.17970851 1.2427598 0.095112152 38
0.16503263 1.2614969 0.12135452 100
0.18950817 1.2302483 0.13497064 30
0.15332189 1.2764482 0.17237349 42
0.16331959 1.2672498 0.010995016 100
0.16501677 1.2650673 0.032866981 87
0.16473234 1.2654331 0.054908119 100
0.17101774 1.2573503 0.075802729 30
0.17893574 1.2471683 0.095737889 25
0.18000767 1.2457898 0.11715672 100
0.18154672 1.2438107 0.13856985 29
0.15864986 1.2732548 0.17082056 36
0.17727807 1.252768 0.010645968 66
0.1813938 1.2474371 0.031610917 61
0.15794104 1.2778144 0.056128297 48
0.17636058 1.2539564 0.075071514 30
0.16611749 1.2672238 0.099492319 24
0.17605749 1.254349 0.14126927 21
0.14742255 1.2914383 0.1765146 41
0.17888102 1.2540014 0.010645968 66
0.17204136 1.2629215 0.032552965 29
0.1729629 1.2617196 0.054210871 51
0.18883857 1.2410151 0.072877869 47
0.18339428 1.2481153 0.095425025 51
0.1928117 1.2358334 0.11410378 20
0.19900969 1.2277502 0.13317102 23
0.15620694 1.2835722 0.17340876 57
0.17330533 1.2648406 0.010855397 52
0.19070095 1.2419891 0.031087559 31
0.16261351 1.2788858 0.055953987 48
0.18086579 1.254909 0.074827775 45
0.20181653 1.2273872 0.091044858 54
0.18730494 1.2464502 0.11639348 13
0.20297042 1.2258714 0.13227122 39
0.1732139 1.2649608 0.16667947 67
0.17744631 1.2629619 0.010785587 39
0.15381607 1.2942293 0.03443706 27
0.17280111 1.2691084 0.054733805 50
0.18854502 1.248276 0.073609084 62
0.19626915 1.2380555 0.092922069 53
0.19252139 1.2430146 0.11524864 13
0.2080887 1.2224159 0.13092151 48
0.17960301 1.2601081 0.16460891 69
0.18636993 1.254662 0.010576159 54
0.17242932 1.2732427 0.032971654 29
0.18769848 1.2528913 0.05281638 53
0.19259939 1.2463591 0.073121607 78
0.1884211 1.2519281 0.095425025 51
0.19888762 1.237978 0.11372216 13
0.20616144 1.228283 0.13227122 39
0.18363485 1.2583075 0.16357364 69
0.18806392 1.2559284 0.010576159 81
0.18373269 1.2617434 0.032134276 30
0.18343556 1.2621424 0.053687938 52
0.20256487 1.2364597 0.071415432 96
0.20190537 1.2373452 0.092296332 53
0.20990524 1.2266047 0.11066922 14
0.20776325 1.2294805 0.13227122 31
0.18418759 1.2611327 0.16409127 69
0.19095126 1.2555809 0.010541254 81
0.20563814 1.2357183 0.030354854 65
0.181602 1.268225 0.054210871 76
0.19829413 1.2456503 0.072634131 78
0.19884104 1.2449107 0.093547814 78
0.2068322 1.2341034 0.11219569 14
0.20936921 1.2306724 0.13227122 31
0.1859042 1.2624066 0.16409127 69
0.19028187 1.2600553 0.010611063 81
0.20490223 1.2401376 0.030564198 64
0.17509067 1.2807508 0.055431053 74
0.20465517 1.2404741 0.071659178 96
0.2051765 1.2397639 0.092296332 93
0.20496914 1.2400464 0.11334054 13
0.22597006 1.2114363 0.12642249 16
0.1807664 1.2730186 0.16719711 82
0.18963936 1.2645403 0.010680873 80
0.21242648 1.2332685 0.03004084 66
0.18743593 1.2675642 0.053862248 100
0.20162335 1.2480941 0.072634131 78
0.21612501 1.2281928 0.089793384 83
0.21008059 1.2364879 0.11219569 14
0.23095584 1.2078397 0.12507279 8
0.18593761 1.2696204 0.16564418 76
0.18902382 1.2690357 0.010750682 92
0.20468107 1.2473902 0.030878214 95
0.19384584 1.2623694 0.053165004 100
0.19631368 1.2589577 0.07409656 61
0.21425319 1.2341571 0.090731993 95
0.21861485 1.2281272 0.10990598 14
0.23705468 1.2026348 0.12327318 17
0.19674173 1.258366 0.16150309 70
0.20942938 1.2443035 0.010192205 85
0.20867941 1.245348 0.03066887 96
0.19324255 1.2668464 0.053513627 100
0.20728517 1.2472897 0.072146654 79
0.21011469 1.2433491 0.092296332 100
0.21678078 1.2340653 0.11105084 14
0.24765971 1.1910611 0.11967396 8
0.19732183 1.2611654 0.16202073 70
0.20412314 1.2552598 0.010401634 97
0.21497774 1.2400308 0.030250182 65
0.19266617 1.2713336 0.053862248 100
0.2112577 1.24525 0.071659178 80
0.21176904 1.2445326 0.092296332 100
0.2058681 1.2528116 0.11524864 20
0.22877178 1.2206781 0.1277722 16
0.19679591 1.2655396 0.163056 70
0.19888929 1.2662587 0.010611063 81
0.21546695 1.2428279 0.030354854 97
0.19441834 1.2725779 0.053862248 100
0.21406522 1.244809 0.071415432 48
0.221414 1.2344223 0.090106249 96
0.20868945 1.2524071 0.11486702 33
0.23259798 1.2186149 0.12687239 24
0.19629624 1.2699237 0.16409127 69
0.20053688 1.2674203 0.010611063 94
0.22048119 1.2390318 0.03004084 66
0.20066831 1.2672331 0.053165004 100
0.2053712 1.2605392 0.073609084 93
0.22749817 1.229044 0.088854775 98
0.19674784 1.2728136 0.11944643 82
0.23408738 1.2196651 0.12687239 49
0.20572984 1.2600287 0.1604678 72
0.21142599 1.2555151 0.010331824 98
0.21983555 1.2434558 0.030250182 65
0.20468542 1.2651811 0.05281638 100
0.21503395 1.2503412 0.071902916 48
0.22458282 1.2366481 0.090106249 96
0.20524305 1.2643814 0.11715672 100
0.22228274 1.2399465 0.13227122 86
0.21075752 1.2564735 0.15891489 73
0.215399 1.2534055 0.010262015 98
0.21808007 1.249532 0.030564198 97
0.20754996 1.2647451 0.05264207 100
0.21106374 1.2596687 0.073121607 100
0.22059241 1.2459024 0.091670595 100
0.22820067 1.2349106 0.10990598 85
0.22170696 1.2442923 0.13317102 93
0.21025872 1.2608317 0.15995017 72
0.22161785 1.2479777 0.010122396 85
0.23445863 1.2292873 0.029203463 68
0.2081508 1.2675797 0.05281638 100
0.22738814 1.2395787 0.069953002 49
0.22225562 1.2470493 0.091670595 100
0.2253786 1.2425036 0.11143246 98
0.22998554 1.2357981 0.13047162 96
0.21197411 1.2620146 0.15995017 72
0.22111931 1.2524828 0.010192205 85
0.22939453 1.2403426 0.029831495 66
0.20436588 1.2770607 0.053687938 100
0.22799334 1.2423983 0.07019674 66
0.22845674 1.2417184 0.090419121 100
0.22379526 1.248557 0.1125773 89
0.23718292 1.2289166 0.12822211 97
0.20833924 1.2712317 0.16253836 70
0.21720287 1.2619091 0.010366729 41
0.22879997 1.2447674 0.03004084 33
0.20948726 1.2733135 0.053165004 79
0.2207455 1.2566727 0.072146654 79
0.2312122 1.2412019 0.090106249 96
0.22656783 1.2480667 0.11219569 98
0.23332685 1.2380761 0.13047162 96
0.21766856 1.2612207 0.15891489 73
0.21660584 1.2663299 0.010436539 41
0.23260346 1.242514 0.029831495 33
0.21560201 1.2678244 0.052467756 53
0.2201474 1.2610576 0.072634131 78
0.23608091 1.2373371 0.089167647 100
0.22924966 1.2475069 0.11181407 91
0.23488081 1.2391237 0.13047162 96
0.22360814 1.2559055 0.15684435 74
0.22055885 1.264163 0.010366729 41
0.21874449 1.2668846 0.031296901 31
0.22397286 1.259042 0.051421888 55
0.23067257 1.2489924 0.070684217 65
0.23333117 1.2450044 0.090419121 100
0.23854154 1.2371889 0.10914274 92
0.23652026 1.2402208 0.13047162 96
0.21994826 1.2650789 0.15943253 73
0.21787217 1.2719808 0.010506349 40
0.21386853 1.2780318 0.031924933 30
0.2190856 1.2701467 0.052467756 53
0.2323465 1.2501042 0.070684217 81
0.23826116 1.2411647 0.089480512 97
0.23692429 1.2431852 0.1102876 92
0.23923886 1.239687 0.13002171 96
0.22061244 1.2678391 0.15995017 72
0.22173437 1.2697366 0.010436539 27
0.1892381 1.3192075 0.03443706 27
0.22293371 1.2679108 0.052119136 54
0.24265921 1.2378817 0.068734311 84
0.24524796 1.2339406 0.087916173 98
0.23741728 1.2458616 0.11066922 99
0.24507773 1.2341998 0.12822211 97
0.22226515 1.2689286 0.15995017 72
0.22348079 1.2708795 0.010436539 41
0.21297151 1.2870007 0.032343622 30
0.23120201 1.2590351 0.051073264 55
0.23345366 1.2555811 0.071171694 81
0.24902678 1.231692 0.087290429 85
0.23586386 1.2518839 0.11181407 84
0.24882835 1.2319963 0.1273223 89
0.22717369 1.2652146 0.15839726 73
0.23383537 1.2585292 0.0101573 42
0.22987995 1.2646409 0.030878214 31
0.23282546 1.2600896 0.051073264 55
0.23183003 1.2616277 0.071902916 64
0.25270599 1.2293707 0.086664692 86
0.2449303 1.2413855 0.10914274 85
0.24930325 1.2346286 0.1277722 89
0.23406574 1.2581732 0.15580906 75
0.24210992 1.249588 0.0099478718 58
0.23277405 1.2641302 0.030773543 64
0.23247114 1.2646021 0.051421888 55
0.24221349 1.2494267 0.069953002 66
0.24798861 1.2404311 0.08854191 84
0.24559945 1.2441525 0.10952436 85
0.24784985 1.2406472 0.1291219 96
0.23376977 1.2625792 0.15684435 74
0.24370199 1.2506064 0.0099478718 58
0.24836886 1.2432837 0.029412808 67
0.22982982 1.272373 0.052119136 81
0.24593878 1.2470968 0.069465525 49
0.24742696 1.2447617 0.089167647 70
0.25033888 1.2401927 0.10837951 79
0.25779098 1.2284997 0.12552269 90
0.22813708 1.2750289 0.1604678 72
0.23905432 1.2618674 0.0101573 57
0.25010556 1.2443861 0.029412808 100
0.24125502 1.2583863 0.05055033 84
0.25193241 1.2414963 0.068490572 50
0.24916908 1.2458675 0.089167647 84
0.23737729 1.2645203 0.11372216 96
0.25947344 1.2295675 0.12552269 82
0.23102257 1.2745724 0.15995017 72
0.23643538 1.2696711 0.010296919 70
0.25274196 1.2436862 0.029308135 100
0.2354629 1.2712207 0.051770512 81
0.24294591 1.2592964 0.070927955 48
0.2612488 1.2301304 0.086038955 58
0.24528024 1.2555766 0.11143246 84
0.26203486 1.2288778 0.12507279 100
0.23680502 1.2690821 0.15787962 65
0.24777931 1.2555379 0.0099827768 87
0.24814752 1.2549462 0.029936166 99
0.24467209 1.2605298 0.05055033 84
0.25313333 1.2469363 0.068978049 50
0.25667402 1.2412479 0.087916173 84
0.24809948 1.2550235 0.11105084 91
0.25959951 1.2365479 0.12687239 99
0.24884498 1.2538258 0.15270324 68
0.24834001 1.2582386 0.010017681 72
0.25395653 1.2491481 0.029517479 100
0.24106422 1.2700145 0.051421888 82
0.25680336 1.2445406 0.068490572 50
0.26031494 1.238857 0.087290429 57
0.25899687 1.2409904 0.10761628 72
0.26422113 1.2325349 0.12552269 82
0.24232772 1.2679695 0.15684435 66
0.2551879 1.2507129 0.0098431576 88
0.25763538 1.2467221 0.029308135 100
0.23751596 1.2795284 0.052293446 80
0.25318959 1.2539712 0.069709264 83
0.25774044 1.2465508 0.08854191 70
0.25234929 1.2553415 0.11066922 85
0.26881289 1.2284963 0.12417299 100
0.24398074 1.2689869 0.15684435 66
0.25054497 1.2619365 0.010052586 86
0.2654489 1.2374527 0.028680105 100
0.24542317 1.2703505 0.051247578 82
0.26202142 1.2430834 0.068003096 51
0.26753938 1.2340186 0.086038955 58
0.25804368 1.2496179 0.10914274 71
0.27134815 1.2277616 0.12372308 100
0.24362811 1.2732995 0.15787962 65
0.25346926 1.2613707 0.010017681 72
0.26105419 1.2488019 0.029308135 100
0.25352323 1.2612813 0.050201707 85
0.25871173 1.2526836 0.069221787 50
0.27136445 1.2317172 0.085413218 73
0.25684428 1.2557781 0.1102876 78
0.27310789 1.2288282 0.12372308 83
0.25656891 1.2562344 -0.0099129668 87
0.24755922 1.2711641 0.15684435 66
0.26126549 1.2520583 0.0098082526 89
0.26264355 1.2497575 0.029308135 100
0.25822532 1.257134 0.049678773 86
0.26337403 1.248538 0.068490572 50
0.27289709 1.2326386 0.085413218 58
0.26148319 1.2516948 0.10914274 85
0.26862288 1.2397747 0.12642249 90
0.25120813 1.2688496 0.15580906 67
0.26413953 1.2514439 0.0097733475 89
0.26652718 1.2474227 0.029098792 100
0.25704631 1.2633902 0.050201707 85
0.26115969 1.2564626 0.069465525 49
0.2726585 1.2370963 0.086038955 58
0.26533952 1.2494228 0.10837951 79
0.27241859 1.2375004 0.12552269 90
0.25707093 1.2633488 0.15373851 68
0.26573762 1.2523892 0.0097733475 89
0.26608396 1.2518015 0.029308135 100
0.25463802 1.2712251 0.050898954 83
0.26479006 1.2539972 0.068978049 50
0.26819173 1.2482246 0.087916173 56
0.26693094 1.2503642 0.10837951 79
0.28089589 1.2266659 0.12237337 76
0.25282389 1.2743037 0.15684435 74
0.26935786 1.2498769 0.0097035384 90
0.27574942 1.2389477 0.02847076 100
0.26032504 1.2653223 0.050201707 85
0.27040514 1.2480861 0.068003096 51
0.27476525 1.2406306 0.086351827 58
0.26852542 1.2513002 0.10837951 79
0.28241172 1.2275558 0.12237337 100
0.26128182 1.2636863 -0.0099827768 86
0.25449783 1.2752864 0.15684435 66
0.26292053 1.264641 0.0099827768 87
0.27530092 1.2433095 0.028680105 100
0.26396939 1.2628338 0.049853086 85
0.26999921 1.2524444 0.068490572 50
0.27731901 1.2398323 0.086038955 58
0.26618108 1.259023 0.10990598 85
0.28197411 1.2318115 0.12327318 85
0.26587224 1.2595551 0.15166797 69
0.27279893 1.2518728 0.0097035384 90
0.27512848 1.2478232 0.028889447 100
0.26785082 1.2604744 0.049504463 86
0.26789433 1.2603987 0.069465525 49
0.27912503 1.2408758 0.086038955 72
0.27197671 1.2533021 0.10837951 94
0.28277758 1.2345264 0.12372308 83
0.26681617 1.262273 -0.0099129668 87
0.26775411 1.2606425 0.15166797 69
0.27241567 1.2562627 0.0097733475 89
0.2747342 1.2522012 0.029098792 100
0.26849109 1.2631376 0.049678773 86
0.26853797 1.2630556 0.069709264 49
0.28068802 1.2417715 0.086038955 58
0.28039408 1.2422863 0.10570818 73
0.28528559 1.2337176 0.12327318 76
0.26938269 1.2615757 0.15166797 69
0.27510002 1.2554886 0.0097384425 75
0.27838728 1.2496831 0.028889447 100
0.26530564 1.272786 0.05055033 84
0.28101996 1.2450336 0.067028143 51
0.28525639 1.2375518 0.085100345 58
0.27720755 1.2517666 0.10761628 87
0.28978649 1.2295516 0.12192347 85
0.26158154 1.2793629 0.15684435 66
0.27867055 1.2529107 0.0096686333 90
0.28389278 1.2436162 0.02847076 100
0.26795045 1.2719903 0.05037602 84
0.27870721 1.2528455 0.068003096 51
0.28874356 1.2349828 0.084474608 59
0.27399826 1.2612264 0.10952436 85
0.2951301 1.2236161 0.12012386 86
0.26985478 1.2686011 -0.0099827768 86
0.26705742 1.2735797 0.15477379 67
0.28052679 1.253949 0.0096686333 75
0.28377002 1.2481245 0.028680105 100
0.27375713 1.2661067 0.049678773 86
0.28249463 1.250415 0.067515619 51
0.29437485 1.2290791 0.083223134 60
0.28257218 1.2502757 0.10685304 66
0.29497766 1.2279966 0.12102367 86
0.27371699 1.2661788 -0.0099129668 97
0.27087277 1.2712867 0.15373851 68
0.28600121 1.2478387 0.0095290141 76
0.27956191 1.2594938 0.029308135 100
0.27347681 1.2705078 0.050027397 85
0.27832943 1.2617246 0.068978049 50
0.29398808 1.2333825 0.083848871 59
0.28321689 1.2528783 0.10723466 81
0.29367068 1.2339569 0.12237337 68
0.27342984 1.2705929 -0.0099827768 86
0.27907616 1.2603731 0.15011504 78
0.29151443 1.2417426 0.0093893949 77
0.28511116 1.2534287 0.028889447 100
0.28288481 1.2574918 0.048632905 88
0.28958648 1.2452611 0.066540658 69
0.29465795 1.2360055 0.084161744 59
0.28867766 1.2469196 0.10570818 81
0.29622817 1.2331399 0.12192347 85
0.27800459 1.2663983 0.15166797 69
0.2931627 1.2426419 0.0093893949 93
0.29061475 1.2473308 0.02847076 100
0.2817342 1.2636731 0.049155839 87
0.29693392 1.235702 0.065078229 53
0.29251346 1.2438368 0.085413218 58
0.2922188 1.2443789 0.10494494 75
0.29970729 1.2305983 0.12102367 86
0.27604944 1.2741344 0.15373851 68
0.28731003 1.2576643 0.0096686333 75
0.29994348 1.2342112 0.027633386 100
0.27315179 1.2839479 0.051073264 83
0.28546271 1.2610937 0.068490572 50
0.28651077 1.2591481 0.10799789 79
0.28636169 1.2594248 -0.0097035384 89
0.27973136 1.2717335 0.15270324 76
0.29089826 1.2550507 0.0095988233 91
0.292155 1.2526979 0.028680105 100
0.28996742 1.2567933 0.048284281 88
0.28250203 1.2707689 0.069709264 83
0.29870293 1.24044 0.084474608 59
0.28914481 1.2583332 0.10761628 72
0.28807172 1.2603421 -0.0097035384 89
0.2869457 1.26245 0.14959741 70
0.293529 1.254185 0.0095639192 91
0.29384148 1.2535951 0.028680105 100
0.28700522 1.2665012 0.049155839 58
0.29168516 1.257666 0.067759357 51
0.29942194 1.2430599 0.084787481 59
0.29820275 1.2453616 0.10456333 75
0.29228336 1.2565367 0.14752686 71
0.2970804 1.2515366 0.0094941091 92
0.29553112 1.2544863 0.028680105 100
0.28966638 1.2656523 0.048981529 87
0.29615819 1.2532924 0.067028143 51
0.29039004 1.2642745 0.14959741 70
0.29599184 1.2577373 0.0095988233 76
0.28955752 1.2700922 0.049330149 87
0.2979002 1.2540729 0.1060898 73
0.29211697 1.2651777 0.14959741 70
0.29678947 1.2603765 0.048284281 59
0.29953837 1.2550528 0.067028143 51
0.29494348 1.2639514 -0.0097035384 100
0.28852898 1.276374 0.15270324 68
0.29850274 1.2612573 0.048284281 59
0.29029042 1.2772987 -0.0099478718 100
0.29910159 1.2600875 0.14752686 79
0.29480866 1.2727921 0.049330149 58
0.29115775 1.2799853 -0.0099827768 100
0.29993951 1.262683 0.1480445 79
0.29731834 1.2717469 0.068978049 67
0.299761 1.2712443 0.15011504 78
0.29812425 1.2834617 -0.0099827768 100
0.29406527 1.3013184 0.051596198 27
