# .PCD v0.7 - Point Cloud Data file format
VERSION 0.7
FIELDS x y z intensity
SIZE 4 4 4 4
TYPE F F F F
COUNT 1 1 1 1
WIDTH 724
HEIGHT 1
VIEWPOINT 0 0 0 1 0 0 0
POINTS 724
DATA ascii
0.056074768 0.0082581043 0.015846785 43
0.051244944 0.012735724 0.047521047 19
0.040873885 0.0028323531 0.048253752 100
0.042772293 0.011166751 0.047835063 75
0.031879663 0.0064629912 0.048358422 25
0.035980999 0.018168688 0.047730394 19
0.025295973 0.0085454583 0.048463095 8
0.020363152 0.0071004033 0.048672438 8
0.022413969 0.015408337 0.048253752 8
0.0082817078 0.00092601776 0.049300469 7
-1.0544686 1.1362936 0.028726662 3
-1.0038347 1.1247342 0.083528183 5
-1.0291824 1.1305209 0.14171524 6
-1.0355842 1.1381019 0.028412517 8
-0.9927966 1.1281686 0.083004825 16
-1.0394952 1.13901 0.14276111 29
-1.0051591 1.1364778 0.027888946 25
-0.99548846 1.1341989 0.083214171 82
-1.0208094 1.1401658 0.1411923 81
-0.9883123 1.1381805 0.027609708 37
-1.0019774 1.141451 0.083632857 100
-1.0078816 1.1428642 0.14014643 87
-0.97736686 1.1409202 0.027435184 42
-0.99491447 1.1451815 0.083318844 100
-1.0008283 1.1466177 0.13962349 87
-0.97399002 1.1463027 0.027400278 28
-0.97795027 1.1472806 0.082481466 100
-1.0013051 1.1530473 0.13979781 86
-0.98236567 1.1540508 0.027574802 23
-0.97662407 1.1526117 0.082481466 62
-0.99995846 1.15846 0.13979781 78
-0.97907776 1.1589046 0.027539898 33
-0.97915047 1.1589229 0.082690813 35
-0.9928003 1.1623946 0.13927488 78
-0.96996588 1.162241 0.027400278 57
-0.98745304 1.1667536 0.083214171 52
-0.97984606 1.1647906 0.13822901 91
-0.95311135 1.1634928 0.027121039 67
-0.97833019 1.1700947 0.082795486 99
-0.97460383 1.1691192 0.13788038 89
-0.95559412 1.1697636 0.027190849 74
-0.95955092 1.1708142 0.081853434 90
-0.97705263 1.1754613 0.13822901 98
-0.95812219 1.1757933 0.027260659 83
-0.94471282 1.1721852 0.081120729 100
-0.97185177 1.1794875 0.13788038 100
-0.96248406 1.1826341 0.027365373 93
-0.94715351 1.1784517 0.081330076 100
-0.96849102 1.1842729 0.13770607 99
-0.94568795 1.1833857 0.027086135 93
-0.94386572 1.1828821 0.081225403 100
-0.9594273 1.187183 0.13700883 92
-0.93268257 1.1853675 0.026876707 93
-0.94818503 1.1897104 0.081539422 90
-0.95220631 1.190837 0.13648589 98
-0.94076806 1.1935315 0.027051231 74
-0.93895179 1.1930155 0.081120729 82
-0.95640343 1.1979735 0.13700883 100
-0.95273215 1.202605 0.027295563 56
-0.9201923 1.1932375 0.080178685 48
-0.95872957 1.2043316 0.13735744 100
-0.94737345 1.2067281 0.027225753 44
-0.918706 1.1983669 0.080178685 22
-0.95146614 1.2079217 0.13683452 84
-0.93049794 1.2074194 0.026946515 68
-0.92677873 1.2063205 0.080702044 28
-0.93464249 1.2086439 0.13544002 87
-0.91179651 1.2071699 0.026632372 74
-0.93297786 1.2135044 0.081120729 26
-0.9331798 1.2135648 0.13544002 94
-0.91983086 1.215168 0.026806897 78
-0.9180401 1.2146257 0.080388032 74
-0.92971557 1.2181618 0.13526571 100
-0.91062075 1.2179507 0.026667276 85
-0.91075069 1.2179905 0.080074012 100
-0.93385667 1.2250768 0.13578865 98
-0.91668719 1.2254184 0.026806897 88
-0.91299289 1.2242713 0.080283359 90
-0.92655081 1.2284812 0.13526571 82
-0.89982718 1.2257382 0.026527658 85
-0.90949291 1.2287765 0.080178685 70
-0.90973574 1.2288527 0.13387123 52
-0.89822751 1.2307962 0.026527658 81
-0.91359228 1.235685 0.080492698 68
-0.90432805 1.2327373 0.1335226 46
-0.89661032 1.2358487 0.026527658 81
-0.89864999 1.2365055 0.07976 89
-0.91597921 1.2420859 0.13474278 45
-0.89497536 1.2408954 0.026527658 99
-0.88941687 1.239084 0.079341307 100
-0.91621679 1.2478178 0.1349171 57
-0.89712101 1.2471889 0.026597468 100
-0.89346117 1.2459821 0.079655327 100
-0.91643208 1.2535567 0.13509139 78
-0.88785881 1.249706 0.026457848 100
-0.89557999 1.2522819 0.079864666 100
-0.90339535 1.2548894 0.13404553 82
-0.87489134 1.2506366 0.02624842 99
-0.89965028 1.2589881 0.080178685 98
-0.89234 1.2565223 0.13317397 84
-0.87320501 1.2556075 0.02624842 99
-0.88281256 1.2588856 0.079341307 100
-0.90006119 1.264771 0.13404553 87
-0.87528175 1.2618772 0.02631823 93
-0.87543327 1.2619294 0.079027295 100
-0.89455849 1.2685297 0.13369691 98
-0.87355608 1.2668493 0.02631823 79
-0.86993605 1.2655858 0.078817949 97
-0.90597719 1.2781649 0.1349171 61
-0.86247164 1.2682412 0.026143705 75
-0.86640126 1.2696273 0.078713275 59
-0.89488953 1.2796764 0.13404553 38
-0.86072391 1.2731686 0.026143705 83
-0.86088628 1.2732265 0.078503937 25
-0.89873141 1.2867249 0.13456847 36
-0.85331553 1.2760549 0.026038991 93
-0.8647576 1.2801809 0.078817949 40
-0.87442786 1.2836683 0.13247673 26
-0.85905546 1.28369 0.02617861 96
-0.84983295 1.2803278 0.078085244 78
-0.88011366 1.2913669 0.13317397 16
-0.85341078 1.2874672 0.0261088 100
-0.85732275 1.2889097 0.07860861 100
-0.8781932 1.2966051 0.13317397 11
-0.83660561 1.2867762 0.025829561 100
-0.84053081 1.288239 0.077771232 95
-0.88381404 1.3043704 0.13387123 1
-0.83105057 1.2902035 0.025759751 100
-0.84618956 1.2959058 0.078189917 46
-0.87075299 1.3051583 0.13282534 1
-0.83296412 1.2964439 0.025829561 81
-0.8312791 1.2958025 0.077457212 48
-0.84280771 1.3001909 0.130385 9
-0.83671719 1.303422 0.025934275 72
-0.83502764 1.302772 0.077771232 63
-0.86140364 1.3129179 0.13230242 46
-0.83484668 1.3082592 0.025934275 75
-0.83315951 1.3076034 0.077771232 72
-0.85392874 1.315676 0.13177948 100
-0.82551414 1.3101661 0.025794657 90
-0.83127445 1.3124282 0.077771232 68
-0.83161575 1.3125622 0.12986206 100
-0.81432647 1.3112772 0.025620133 100
-0.83122915 1.317983 0.077875905 80
-0.8297134 1.3173816 0.12986206 93
-0.81252402 1.3157984 0.025620133 100
-0.82198817 1.3195896 0.077457212 97
-0.8408373 1.3271401 0.13108224 97
-0.81802529 1.3235514 0.025759751 100
-0.82006139 1.3243754 0.077457212 97
-0.83703703 1.3312443 0.13090792 100
-0.81608468 1.3283234 0.025759751 100
-0.81442028 1.3276432 0.077247873 97
-0.82584804 1.3323138 0.13003637 100
-0.80303699 1.3285105 0.025550323 100
-0.80692703 1.3301163 0.076933853 100
-0.80914348 1.3310313 0.12864187 100
-0.77664202 1.3176152 0.17622307 15
-0.79389173 1.3296833 0.025410704 100
-0.80516058 1.3343765 0.076933853 100
-0.80921358 1.3360643 0.12881619 100
-0.79690534 1.3309383 0.17914793 24
-0.79930311 1.337472 0.025550323 100
-0.79950017 1.3375548 0.076724514 100
-0.80171961 1.3384882 0.12829325 100
-0.78944951 1.3333278 0.17841671 22
-0.79353315 1.3408496 0.025480513 93
-0.78821987 1.3385921 0.076201156 74
-0.81429678 1.3496717 0.12968774 100
-0.78554887 1.3374572 0.17817298 19
-0.81358498 1.3549967 0.025899371 61
-0.81375915 1.3550715 0.077771232 40
-0.8122651 1.3544304 0.12968774 37
-0.80362719 1.3507247 0.18085411 10
-0.81153458 1.359753 0.025899371 86
-0.80987579 1.3590345 0.077666558 89
-0.81935793 1.3631417 0.1305593 43
-0.79430562 1.3522902 0.17987914 8
-0.78381735 1.3532851 0.025410704 100
-0.81879097 1.3685791 0.07829459 100
-0.82275552 1.3703129 0.13108224 100
-0.79226488 1.3569791 0.17987914 28
-0.79091996 1.3619754 0.025585229 100
-0.80207616 1.3669004 0.077457212 100
-0.82065171 1.3751011 0.13108224 100
-0.77931172 1.3568506 0.17841671 33
-0.80163115 1.3723505 0.025829561 100
-0.80910593 1.3756814 0.077980578 100
-0.80943185 1.3758268 0.13021068 100
-0.76818925 1.3574471 0.17719802 31
-0.80134398 1.3778851 0.025864467 100
-0.80516201 1.3796027 0.077875905 100
-0.80367488 1.3789337 0.12986206 100
-0.76069957 1.3596017 0.17646681 20
-0.79921383 1.3825985 0.025864467 100
-0.80848151 1.3868065 0.078189917 100
-0.7942844 1.3803604 0.12916481 100
-0.78213102 1.3748422 0.17963541 17
-0.78990275 1.3837383 0.025724847 100
-0.81550783 1.3954666 0.078713275 100
-0.80312151 1.389793 0.13021068 100
-0.77470368 1.3767763 0.17890419 15
-0.79138249 1.3900899 0.025794657 100
-0.80969042 1.3985531 0.078503937 100
-0.80818373 1.3978567 0.13090792 100
-0.75455874 1.3730671 0.17646681 11
-0.79827076 1.3989955 0.025969181 100
-0.80024809 1.399918 0.078085244 100
-0.81681722 1.4076478 0.13195379 100
-0.7776311 1.3893666 0.17987914 7
-0.80149466 1.4062533 0.026073895 100
-0.81069022 1.4105823 0.078817949 100
-0.80376738 1.4073231 0.13090792 100
-0.75570482 1.3846965 0.17719802 5
-0.79937738 1.4107316 0.026073895 100
-0.8139711 1.4176611 0.079131968 100
-0.80164653 1.411809 0.13090792 100
-0.79131657 1.406904 0.18231654 1
-0.78631228 1.4102535 0.025864467 100
-0.81350321 1.4232812 0.079236634 100
-0.80658513 1.4199667 0.13160518 100
-0.79295772 1.4195004 0.026038991 100
-0.80390757 1.4247961 0.078817949 100
-0.81136829 1.4284043 0.13230242 100
-0.79787093 1.4276918 0.02617861 100
-0.79981869 1.4286423 0.078713275 100
-0.81264299 1.4348998 0.13265105 100
-0.79209405 1.4303921 0.0261088 100
-0.80479544 1.4366419 0.079131968 100
-0.80327982 1.4358962 0.13195379 100
-0.79694527 1.4386294 0.02624842 100
-0.80961603 1.4449192 0.079550654 100
-0.80451638 1.4423878 0.13230242 100
-0.78733402 1.439979 0.0261088 100
-0.80891889 1.4507926 0.079655327 100
-0.80916828 1.4509175 0.13299966 100
-0.79569572 1.4500546 0.02631823 100
-0.80296904 1.4537302 0.07944598 100
-0.80678314 1.4556577 0.13299966 100
-0.79343313 1.4545133 0.02631823 100
-0.79001683 1.4527726 0.078817949 100
-0.80982763 1.4628668 0.1335226 100
-0.80170697 1.4646831 0.026527658 100
-0.80183655 1.4647496 0.079655327 100
-0.80562872 1.4666985 0.13334829 100
-0.79217237 1.4657161 0.026388038 100
-0.80117637 1.4703833 0.07976 100
-0.7978819 1.4686756 0.13282534 100
-0.78264719 1.466691 0.02624842 100
-0.80226332 1.4769461 0.079969339 100
-0.80956024 1.4807608 0.13421984 100
-0.78740579 1.4748358 0.026388038 92
-0.79637772 1.4795642 0.07976 100
-0.80895835 1.4861944 0.13439415 100
-0.80082935 1.4879463 0.026702182 30
-0.7921291 1.4833221 0.079655327 27
-0.80469078 1.4899986 0.13421984 61
0.12334123 1.2985752 0.13203983 5
0.15848723 1.2583383 0.010925206 13
0.13772586 1.2842343 0.03454173 27
0.13623852 1.2860894 0.057871412 23
0.1002315 1.3310015 0.11388429 9
0.14842924 1.2708838 0.12478908 18
0.19040495 1.2185271 0.13272113 7
0.15122727 1.2673938 0.17082056 7
0.16019425 1.259702 0.010925206 52
0.16191304 1.2575427 0.032657638 59
0.16161841 1.2579129 0.054559495 50
0.1407876 1.2840821 0.080677502 27
0.17108595 1.2460191 0.096363634 25
0.15384817 1.2676744 0.12364423 79
0.18833184 1.2243536 0.13407083 15
0.14695024 1.27634 0.17340876 14
0.161906 1.2610598 0.010925206 100
0.17228606 1.2479258 0.031924933 91
0.15097004 1.2748971 0.056302611 96
0.15858579 1.2652608 0.077508904 14
0.16050148 1.2628368 0.099492319 36
0.1604571 1.2628931 0.12211776 100
0.19354501 1.2210265 0.13272113 39
0.15111586 1.2747126 0.17237349 35
0.16609135 1.2592651 0.010855397 100
0.17272371 1.2508125 0.032029606 100
0.15396482 1.2747195 0.056128297 100
0.17134574 1.2525687 0.075315252 30
0.18661261 1.2331121 0.093234941 26
0.16217998 1.2642498 0.12211776 100
0.19512156 1.2222681 0.13272113 39
0.15168753 1.2776217 0.17289113 42
0.17140356 1.2558036 0.010750682 100
0.17554793 1.2504857 0.031924933 91
0.16053957 1.2697439 0.055431053 99
0.1668469 1.2616506 0.076533951 29
0.17843625 1.2467794 0.095737889 25
0.17226878 1.2546934 0.11944643 100
0.18943596 1.2326649 0.13542053 30
0.14387301 1.2911299 0.17703223 41
0.17065424 1.2602853 0.010820492 78
0.17478302 1.2549491 0.032134276 60
0.16472483 1.2679487 0.055082429 50
0.16613591 1.266125 0.077021427 29
0.16559702 1.2668215 0.099492319 24
0.17996994 1.2482452 0.11753834 33
0.18628311 1.2400857 0.13722014 22
0.14687672 1.2910166 0.1765146 34
0.17602247 1.2568491 0.010715778 66
0.17769477 1.2546719 0.032029606 60
0.16525164 1.2708707 0.055256739 49
0.17633495 1.2564422 0.075315252 90
0.18057048 1.2509283 0.096050762 51
0.18881741 1.2401924 0.11524864 13
0.19504899 1.23208 0.13452072 23
0.15222839 1.2878244 0.17496167 56
0.1752989 1.2613316 0.010785587 52
0.17212197 1.2654974 0.032657638 29
0.16941872 1.269042 0.054908119 50
0.19248044 1.2388021 0.072390392 47
0.18943876 1.2427906 0.094173551 52
0.1916514 1.2398891 0.11486702 13
0.20611793 1.2209198 0.13092151 48
0.16926765 1.2692401 0.16823238 67
0.18184453 1.2562594 0.010645968 40
0.18590987 1.2508899 0.031610917 30
0.16755506 1.2751329 0.055431053 49
0.19411907 1.2400472 0.072390392 47
0.1910913 1.2440462 0.094173551 52
0.19684902 1.2364415 0.11372216 13
0.19828355 1.2345468 0.13452072 46
0.17334488 1.2674857 0.16719711 67
0.17873815 1.2639356 0.010785587 39
0.16599014 1.2808957 0.033495013 28
0.17530617 1.2685015 0.054559495 50
0.18979838 1.2492207 0.073609084 77
0.20699081 1.2263474 0.090419121 55
0.19022217 1.2486569 0.11639348 13
0.20810342 1.2248673 0.13137141 31
0.17972666 1.2626204 0.16512655 68
0.18277052 1.261959 0.010715778 39
0.17246535 1.2757642 0.033076324 29
0.18172857 1.2633548 0.053862248 51
0.18782717 1.2551849 0.074340299 92
0.19787124 1.2417293 0.093234941 53
0.20238093 1.235688 0.11295892 13
0.20728227 1.2291218 0.13227122 39
0.1859847 1.2576531 0.163056 70
0.18806177 1.258418 0.010611063 81
0.18850273 1.2578229 0.03182026 30
0.17752177 1.2726412 0.054733805 50
0.19897813 1.2436869 0.072390392 47
0.20775276 1.2318459 0.091044858 68
0.21102193 1.2274344 0.11066922 14
0.20888698 1.2303153 0.13227122 31
0.18883932 1.2573687 0.16253836 78
0.1945931 1.2532973 0.010471444 82
0.20567533 1.2382271 0.030459527 65
0.1746451 1.2804234 0.055431053 74
0.20424473 1.2401726 0.071659178 80
0.19657472 1.2506026 0.094486415 91
0.19874358 1.2476532 0.11524864 13
0.21981242 1.219003 0.128672 24
0.18032759 1.2726961 0.16719711 82
0.18920794 1.2642256 0.010680873 93
0.21202233 1.2329737 0.03004084 66
0.17877859 1.2785121 0.055082429 100
0.20354715 1.2445832 0.072146654 79
0.20757225 1.2390696 0.091983467 93
0.20851606 1.2377768 0.1125773 13
0.240915 1.1933955 0.12102367 17
0.1786674 1.2786644 0.16875002 81
0.18850145 1.2686574 0.010750682 79
0.21004266 1.2389431 0.030354854 65
0.1898222 1.2668355 0.053687938 78
0.20512283 1.2457296 0.072146654 95
0.21840501 1.2274079 0.089480512 100
0.19508913 1.2595702 0.11753834 13
0.2366018 1.202307 0.12327318 17
0.191695 1.2642522 0.16357364 69
0.20192465 1.2536852 0.010401634 97
0.2081818 1.2449902 0.03066887 96
0.19504997 1.2632382 0.053165004 100
0.20446652 1.2501529 0.072634131 78
0.21077302 1.2413895 0.091983467 100
0.22202876 1.2257485 0.10914274 14
0.23811275 1.2033982 0.12327318 8
0.19567928 1.2623638 0.16253836 70
0.20593989 1.2516429 0.010331824 84
0.20868096 1.2478057 0.030773543 96
0.20140633 1.2579893 0.052467756 100
0.1957598 1.2658938 0.074827775 100
0.20897585 1.2473929 0.092922069 100
0.20308033 1.255646 0.11601187 19
0.22943276 1.2187557 0.1273223 16
0.19964597 1.2604537 0.16150309 70
0.20993659 1.2495785 0.010262015 84
0.21497199 1.2424773 0.030354854 65
0.19158733 1.2754557 0.054210871 100
0.21701288 1.2395991 0.070684217 81
0.20835912 1.2518032 0.093547814 100
0.21159127 1.247245 0.11372216 27
0.22198352 1.2325891 0.13092151 16
0.20024267 1.2632495 0.16202073 70
0.20462123 1.2605138 0.010471444 96
0.21769047 1.2419527 0.030250182 98
0.19097134 1.2798996 0.054559495 100
0.20485771 1.260178 0.073609084 93
0.21905681 1.2400122 0.091044858 100
0.19622147 1.2724433 0.11944643 57
0.2302509 1.2241141 0.12822211 32
0.20188025 1.2644067 0.16202073 70
0.20404443 1.2649946 0.010541254 95
0.22048408 1.2414727 0.030145511 65
0.19731888 1.2746176 0.053862248 100
0.21566829 1.2483631 0.071659178 80
0.21956784 1.2427835 0.09135773 94
0.19910216 1.272066 0.11906482 100
0.22625622 1.2332139 0.13047162 64
0.2080349 1.259285 0.15995017 72
0.21033368 1.259627 0.010401634 97
0.21530125 1.2524662 0.030773543 96
0.20362508 1.2692974 0.053165004 100
0.21507713 1.2527893 0.072146654 79
0.22572401 1.2374419 0.090106249 96
0.22435686 1.2394127 0.11105084 91
0.22454277 1.2391447 0.13182132 94
0.2097449 1.2604756 0.15995017 72
0.21658117 1.2542216 0.010262015 98
0.22718167 1.2388266 0.029831495 99
0.2098898 1.2639394 0.052467756 100
0.22126761 1.2474155 0.071171694 65
0.22399682 1.243452 0.091044858 100
0.224884 1.2421634 0.11143246 84
0.22286683 1.245093 0.13317102 93
0.20926785 1.2648426 0.16098544 72
0.21601683 1.2586844 0.010331824 98
0.22543931 1.2448974 0.030145511 65
0.20262244 1.2782831 0.053862248 100
0.22741643 1.2420045 0.07019674 66
0.22676605 1.2429562 0.090731993 95
0.22764188 1.2416747 0.11105084 91
0.23112464 1.2365787 0.13047162 96
0.21753749 1.2564594 0.15787962 73
0.21660212 1.2615021 0.010366729 55
0.23158371 1.239416 0.029726824 67
0.20775416 1.274546 0.053339314 78
0.2246086 1.2496989 0.071171694 81
0.23507234 1.234273 0.088854775 98
0.22047353 1.2557948 0.11410378 96
0.23931894 1.2280126 0.1277722 97
0.21489972 1.2640119 0.15995017 72
0.2116192 1.2726157 0.010576159 40
0.23099342 1.2438382 0.029936166 33
0.21396819 1.2691267 0.05264207 53
0.21963334 1.2607119 0.072634131 78
0.23779806 1.2337308 0.08854191 100
0.22546053 1.2520564 0.11295892 100
0.23983127 1.2307107 0.12822211 89
0.21878394 1.2619735 0.15891489 73
0.22004154 1.2638177 0.010366729 41
0.22377241 1.258234 0.030773543 32
0.22235399 1.2603569 0.051596198 54
0.22906828 1.2503083 0.070927955 97
0.23393139 1.2430301 0.090106249 96
0.23587102 1.2401272 0.10990598 85
0.23602802 1.2398922 0.13047162 100
0.22479638 1.2567016 0.15684435 82
0.22168094 1.2649091 0.010366729 27
0.21214399 1.2792852 0.032029606 30
0.21406916 1.2763832 0.053165004 52
0.23285756 1.2480614 0.070440479 98
0.23877779 1.2391373 0.089167647 98
0.23526111 1.2444384 0.11066922 100
0.23327884 1.2474265 0.13227122 94
0.22427624 1.2609971 0.15787962 73
0.21901196 1.272733 0.010506349 40
0.21392378 1.2804614 0.032029606 30
0.22789052 1.2592475 0.051247578 55
0.23780304 1.2441915 0.069709264 66
0.23281348 1.2517701 0.09135773 100
0.23907831 1.2422545 0.10990598 85
0.24887821 1.2273697 0.12642249 99
0.21643123 1.2766528 0.16253836 70
0.22951919 1.260493 0.01022711 42
0.20478308 1.2983514 0.033076324 29
0.22524109 1.2670406 0.051944822 54
0.24380338 1.2386312 0.068734311 84
0.24854347 1.2313765 0.087290429 99
0.2375071 1.2482677 0.11105084 91
0.24727881 1.2333121 0.1277722 97
0.21820182 1.2778141 0.16253836 70
0.22252974 1.2750316 0.010506349 40
0.23053503 1.2626855 0.030773543 32
0.23564979 1.2547975 0.05055033 56
0.2346411 1.2563531 0.071171694 65
0.24693167 1.2373984 0.088229038 98
0.23811036 1.2510028 0.11143246 91
0.24995813 1.2327309 0.1273223 97
0.22733366 1.2676228 0.15891489 73
0.23727956 1.2559919 0.010087491 43
0.2344183 1.2604386 0.030564198 32
0.24273461 1.2475144 0.049678773 57
0.24171162 1.2491041 0.069953002 49
0.24749613 1.2401146 0.08854191 84
0.24722779 1.2405316 0.10876112 87
0.24841166 1.2386918 0.128672 89
0.23220876 1.2638724 0.15736198 74
0.24543512 1.2469682 0.0098780617 73
0.25010574 1.2396536 0.029203463 68
0.227247 1.2754519 0.052467756 80
0.24124917 1.2535236 0.070440479 49
0.24913898 1.2411677 0.08854191 70
0.25521162 1.2316575 0.10647142 81
0.25319588 1.2348143 0.1273223 89
0.23289493 1.2666068 0.15787962 73
0.24068001 1.2581632 0.010087491 71
0.25067794 1.2423847 0.029308135 68
0.23647812 1.2647946 0.051247578 55
0.24293888 1.2545984 0.070440479 98
0.2507855 1.2422149 0.08854191 70
0.24211362 1.2559007 0.11181407 98
0.2548202 1.2358475 0.1273223 81
0.23463035 1.2677107 0.15787962 65
0.24238592 1.25924 0.010087491 86
0.25126559 1.2451174 0.029412808 100
0.22123888 1.2928729 0.054036561 51
0.24674559 1.2523062 0.069953002 49
0.2545386 1.239912 0.087916173 56
0.25426173 1.2403523 0.10799789 79
0.25852266 1.2335756 0.12642249 99
0.23225641 1.2753503 0.15995017 64
0.23659846 1.2721322 0.010331824 84
0.24861279 1.2528828 0.029831495 99
0.23879841 1.2686074 0.051421888 82
0.24414241 1.2600453 0.070927955 48
0.26237398 1.2308346 0.086038955 58
0.24230966 1.2629817 0.11295892 100
0.25696611 1.2394991 0.1277722 97
0.24007118 1.2665682 0.15684435 66
0.25204033 1.251122 0.0098780617 73
0.2545065 1.2471399 0.029412808 100
0.2426388 1.2663029 0.051073264 83
0.24794519 1.2577345 0.070440479 49
0.26190421 1.2351947 0.086664692 57
0.25747013 1.2423544 0.10799789 79
0.26373693 1.2322353 0.12552269 90
0.24994352 1.2545078 0.15270324 68
0.25677907 1.2469968 0.0097733475 89
0.2519066 1.2549231 0.029831495 99
0.2411561 1.2724115 0.051596198 82
0.24852467 1.2604246 0.070684217 81
0.25931051 1.2428788 0.087916173 70
0.25801 1.2449944 0.10837951 87
0.25914812 1.243143 0.12822211 89
0.24548173 1.2653748 0.15580906 67
0.25428084 1.2548462 0.0099129668 87
0.2588011 1.2474351 0.029308135 100
0.24498665 1.2700845 0.051247578 100
0.2585077 1.2479161 0.068734311 50
0.25890574 1.2472634 0.08854191 56
0.26069209 1.2443347 0.10799789 87
0.26790461 1.2325094 0.12507279 92
0.24721277 1.2664347 0.15580906 67
0.25924879 1.2508446 0.0098082526 74
0.2616699 1.2468405 0.029203463 100
0.24897093 1.2678421 0.050898954 83
0.26753491 1.237141 0.067028143 51
0.26891738 1.2348547 0.086038955 58
0.25337294 1.2605621 0.11143246 84
0.27573261 1.2235837 0.12237337 85
0.24412319 1.2758594 0.15839726 73
0.24961308 1.2707193 0.010192205 85
0.26744604 1.2409933 0.028784776 100
0.25583538 1.2603472 0.050027397 85
0.26304001 1.2483377 0.068490572 50
0.27054176 1.2358329 0.086038955 72
0.25508711 1.2615945 0.11143246 77
0.26929751 1.2379071 0.12597258 82
0.24688464 1.2752674 0.15787962 65
0.2667037 1.2459892 0.0096686333 90
0.25887698 1.2591395 0.029831495 99
0.25958678 1.2579468 0.049678773 100
0.26775727 1.2442191 0.067759357 34
0.2741901 1.2334107 0.085413218 73
0.25981718 1.2575598 0.1102876 78
0.27691254 1.2288365 0.12327318 85
0.26248264 1.2530813 0.15063268 78
0.2704004 1.2435313 0.0095988233 76
0.26058617 1.2601527 0.029831495 100
0.25521374 1.2692515 0.05072464 84
0.26638642 1.2503294 0.068490572 50
0.27078757 1.2428756 0.086977564 57
0.26850823 1.2467358 0.10761628 79
0.2765342 1.2331431 0.12417299 75
0.25631282 1.26739 0.15477379 67
0.26489514 1.2565329 0.0098431576 88
0.27231094 1.2438779 0.028784776 100
0.25183436 1.2788212 0.051596198 82
0.26998806 1.2478418 0.068003096 51
0.27335593 1.2420945 0.086664692 71
0.26711294 1.2527483 0.10876112 87
0.28004202 1.2306848 0.12327318 93
0.25601041 1.2716948 0.15580906 67
0.25855535 1.2713556 0.010122396 85
0.26995176 1.2517511 0.029203463 100
0.25561491 1.2764139 0.051247578 82
0.27165774 1.2488164 0.068003096 51
0.27401277 1.2447652 0.086977564 57
0.26485309 1.260522 0.1102876 78
0.28165177 1.2316242 0.12327318 85
0.25776345 1.272718 0.15580906 67
0.26530188 1.2637084 0.0099478718 73
0.26963964 1.2561861 0.029412808 100
0.26534677 1.2636306 0.049853086 85
0.264406 1.265262 0.07019674 82
0.28060567 1.2371694 0.085413218 73
0.26656708 1.2615144 0.1102876 92
0.27937081 1.2393107 0.12507279 83
0.26430294 1.2654407 -0.0099827768 86
0.26627541 1.2620202 0.1521856 69
0.27199143 1.2560203 0.0097733475 89
0.27332181 1.2536944 0.029203463 100
0.26905009 1.2611623 0.049504463 86
0.27205035 1.2559173 0.068734311 33
0.2871421 1.2295336 0.083848871 59
0.27315849 1.2539799 0.10837951 79
0.28681621 1.2301033 0.12237337 85
0.26702699 1.2646992 -0.0099478718 75
0.26703539 1.2646844 0.15270324 68
0.28051454 1.244766 0.0095290141 61
0.27887103 1.2476615 0.028784776 100
0.2706804 1.2620913 0.049504463 86
0.27954274 1.2464781 0.067271881 34
0.28769228 1.2321206 0.084161744 59
0.27573407 1.253188 0.10799789 94
0.28738144 1.2326683 0.12282328 76
0.26677012 1.2689803 0.15373851 68
0.28119236 1.2474463 0.0095639192 91
0.28445944 1.2416434 0.028366089 100
0.2675125 1.271744 0.05037602 84
0.28705093 1.2370405 0.065809444 70
0.28349227 1.2433612 0.086038955 58
0.28223825 1.2455887 0.1060898 81
0.28612989 1.2386764 0.12417299 83
0.26377478 1.2783828 0.1563267 74
0.27319753 1.2658892 0.0099129668 87
0.282296 1.2495894 0.028784776 100
0.27129558 1.2692966 0.050027397 85
0.28005663 1.2536012 0.068003096 51
0.28811744 1.2391603 0.085100345 58
0.28015557 1.2534239 0.10761628 79
0.29354838 1.2294309 0.12147357 86
0.27223113 1.2676206 0.15270324 68
0.27589875 1.2651029 0.0098780617 88
0.2878412 1.2435315 0.028366089 100
0.28172529 1.2545786 0.048458595 88
0.28174636 1.2545406 0.068003096 51
0.29836771 1.2245178 0.082284525 61
0.28089377 1.2560805 0.10799789 87
0.29515365 1.2303233 0.12147357 86
0.27493021 1.2668524 -0.0099129668 97
0.27864835 1.2601364 0.15011504 78
0.28821552 1.2467754 0.0094941091 92
0.27988306 1.261951 0.029412808 100
0.28054163 1.2607515 0.048981529 87
0.27484062 1.2711344 0.07019674 82
0.29139915 1.2409772 0.085100345 58
0.28448197 1.2535751 0.10723466 81
0.2948862 1.2346264 0.12237337 85
0.28686941 1.2492269 0.14649157 72
0.2803182 1.2652483 0.0098431576 88
0.27778131 1.269907 0.029831495 99
0.28225631 1.2616891 0.048981529 87
0.2851356 1.2564015 0.068003096 68
0.29398942 1.2401421 0.084787481 59
0.29462159 1.2389812 0.1038001 83
0.29837349 1.2320912 0.12147357 77
0.27745736 1.270502 0.15270324 68
0.28766492 1.2555836 0.0096337283 90
0.29462984 1.2426915 0.028156744 100
0.28104725 1.267833 0.049504463 86
0.28486294 1.2607701 0.068490572 50
0.2927331 1.2462025 0.08572609 58
0.28684652 1.2570984 0.10761628 79
0.29898095 1.2346376 0.12192347 76
0.27728209 1.2748023 0.15373851 68
0.28747284 1.2600217 0.0097035384 90
0.29062226 1.2541431 0.028784776 100
0.288432 1.2582314 0.048458595 88
0.28470275 1.2651923 0.068978049 50
0.29040268 1.2545531 0.10685304 73
0.28369546 1.2670724 -0.0098431576 87
0.27722123 1.2791569 0.15477379 67
0.29199949 1.2556373 0.0095988233 76
0.29231381 1.2550457 0.028784776 100
0.29481161 1.250344 0.047587037 90
0.29202092 1.255597 0.067515619 51
0.29025349 1.2589238 0.10761628 72
0.29106131 1.2574033 -0.0096337283 89
0.29168913 1.2562214 0.14752686 71
0.29742429 1.2494581 0.009459204 77
0.29214674 1.2594763 0.028994121 100
0.29834709 1.2477063 0.047238413 91
0.29001671 1.2635198 0.068490572 50
0.29562184 1.2528796 0.1060898 73
0.2909002 1.2618426 -0.0097035384 89
0.29248753 1.2588294 0.1480445 79
0.29764009 1.2533362 0.028575432 100
0.28257897 1.2821822 0.05055033 84
0.29550233 1.2574306 0.067515619 51
0.29921073 1.2503281 0.10532656 82
0.28715149 1.2734246 -0.0099129668 97
0.28712794 1.2734697 0.1521856 77
0.29932877 1.2542142 0.028575432 100
0.29719207 1.2583417 0.048109971 59
0.29903057 1.2547902 0.067028143 51
0.29155141 1.2692375 0.15063268 70
0.29608256 1.2644944 0.048632905 59
0.28614879 1.2838401 0.15477379 67
0.29779264 1.2654122 0.0097035384 100
0.29600239 1.2689289 0.048981529 58
0.29416376 1.2725405 -0.0098431576 100
0.29846132 1.2640988 0.14856213 71
0.29510671 1.2752602 -0.0098780617 100
0.29952973 1.2796963 -0.0099129668 100
0.29695123 1.2849435 0.15373851 76
