# .PCD v0.7 - Point Cloud Data file format
VERSION 0.7
FIELDS x y z intensity
SIZE 4 4 4 4
TYPE F F F F
COUNT 1 1 1 1
WIDTH 713
HEIGHT 1
VIEWPOINT 0 0 0 1 0 0 0
POINTS 713
DATA ascii
0.055368662 0.0039513707 0.015916595 123
0.048451722 0.0050116777 0.047939736 29
0.044067144 0.0041675568 0.016021309 8
0.046885371 0.0084335208 0.047835063 100
0.03473115 0.0069445968 0.048253752 26
0.037556767 0.017093778 0.047730394 19
0.028154492 0.0090041161 0.048358422 17
0.020960212 0.004257381 0.048777111 8
-1.0259411 1.1265991 0.084679574 3
-1.0415313 1.1301267 0.14276111 4
-1.0422621 1.1358469 0.028517231 6
-0.99749833 1.1255616 0.083214171 5
-1.0306194 1.1331717 0.14188954 9
-1.029227 1.1389507 0.028307803 11
-1.0020194 1.1325942 0.083528183 43
-1.019577 1.1366961 0.14101799 43
-0.98713428 1.1344965 0.027574802 32
-0.99303502 1.1358956 0.083109498 100
-1.0144751 1.1409796 0.14066938 86
-0.97619611 1.1372526 0.027400278 42
-1.0112314 1.1456832 0.084156215 100
-1.0035508 1.1438349 0.13979781 86
-0.97885519 1.1432601 0.027470088 36
-0.98087305 1.1437528 0.082586139 100
-1.0042381 1.1494572 0.13997212 87
-0.98912221 1.1517496 0.027679516 22
-0.97173887 1.1474379 0.082167454 94
-0.99703544 1.1537123 0.13944919 91
-0.98009068 1.1549001 0.027539898 25
-0.98597413 1.1563801 0.083004825 41
-0.99382228 1.1583543 0.13927488 78
-0.96898228 1.1580309 0.027365373 45
-0.98454767 1.1620071 0.083004825 31
-0.98080617 1.1610513 0.13822901 82
-0.96187967 1.1615617 0.027260659 63
-0.98710626 1.1680951 0.083214171 73
-0.98142976 1.166625 0.13840333 91
-0.95836192 1.1671185 0.027225753 70
-0.96424991 1.1686687 0.082062781 98
-0.9875322 1.1747985 0.13910057 91
-0.9531725 1.1710871 0.027155945 78
-0.96098989 1.1731731 0.081958108 90
-0.97848123 1.1778402 0.13840333 100
-0.9634164 1.1792014 0.027365373 89
-0.9500044 1.1755749 0.081434749 98
-0.9655804 1.1797864 0.13735744 100
-0.94662207 1.179991 0.027086135 93
-0.95443016 1.18213 0.081748761 100
-0.95460528 1.182178 0.13648589 98
-0.93740255 1.1833321 0.026946515 93
-0.95098513 1.1871065 0.081644088 96
-0.96460229 1.1908906 0.13753176 94
-0.93980032 1.1896058 0.027016325 92
-0.93990773 1.189636 0.081120729 84
-0.95737058 1.1945544 0.13700883 99
-0.95563275 1.1997432 0.027330469 67
-0.9230693 1.1904488 0.080283359 72
-0.96354288 1.202001 0.13770607 99
-0.97141224 1.2099962 0.027644612 43
-0.92734867 1.1972529 0.080597371 34
-0.95245594 1.204514 0.13683452 98
-0.92772406 1.2026768 0.026876707 56
-0.93359083 1.2043946 0.081016064 24
-0.9471826 1.2083741 0.13648589 84
-0.92237049 1.2066951 0.026806897 75
-0.92440623 1.2072989 0.080597371 26
-0.94373304 1.2130311 0.13631158 91
-0.91892201 1.2112566 0.026771991 74
-0.92287081 1.2124429 0.080597371 36
-0.9326368 1.2153765 0.13544002 98
-0.91545957 1.2157995 0.026737086 81
-0.90794176 1.2135125 0.079864666 99
-0.93297917 1.2211291 0.13561434 99
-0.91763777 1.2223456 0.026806897 88
-0.90439779 1.2182648 0.07976 97
-0.92179579 1.2236272 0.13474278 98
-0.90459639 1.223892 0.026597468 88
-0.91998357 1.2286934 0.080702044 82
-0.90688974 1.2246076 0.1335226 71
-0.89529616 1.2268096 0.026457848 81
-0.91448361 1.2328742 0.080492698 66
-0.90901321 1.2311451 0.13387123 45
-0.90512043 1.2355077 0.026667276 83
-0.90334755 1.2349405 0.079969339 78
-0.91118997 1.2374494 0.13421984 43
-0.89984542 1.2388463 0.026597468 88
-0.89047748 1.235817 0.079341307 97
-0.91919285 1.2451028 0.13509139 45
-0.89819998 1.2439044 0.026597468 100
-0.89643556 1.2433269 0.07976 100
-0.90995115 1.2477497 0.13439415 63
-0.88514692 1.2451853 0.026388038 100
-0.89667064 1.2490008 0.079864666 100
-0.90260035 1.2509642 0.13387123 80
-0.87589484 1.2476512 0.02624842 99
-0.89688355 1.2546821 0.079969339 100
-0.89713424 1.2547661 0.1335226 86
-0.87800676 1.2539092 0.02631823 100
-0.88194174 1.2552427 0.079236634 100
-0.89354628 1.2591751 0.13334829 84
-0.87630886 1.258891 0.02631823 93
-0.87834984 1.2595905 0.079131968 100
-0.90313846 1.2680873 0.13439415 100
-0.88223773 1.2662368 0.026457848 88
-0.87671846 1.2643244 0.079131968 100
-0.89771348 1.2715988 0.13404553 85
-0.8616249 1.2646205 0.0261088 79
-0.87309927 1.2686411 0.079027295 80
-0.9015947 1.2786257 0.13456847 52
-0.8674292 1.2722164 0.02624842 78
-0.86570233 1.2716045 0.078713275 48
-0.88854247 1.2796972 0.1335226 39
-0.85625488 1.273789 0.026073895 90
-0.85266131 1.2725017 0.078085244 17
-0.89425713 1.2874033 0.13421984 40
-0.85619003 1.2798666 0.0261088 99
-0.85823208 1.280607 0.078503937 57
-0.88289458 1.2895494 0.13334829 22
-0.85440165 1.2847719 0.0261088 96
-0.85269064 1.2841449 0.07829459 97
-0.86049467 1.2870054 0.13143086 15
-0.84527606 1.2864051 0.025969181 100
-0.85668772 1.2906287 0.07860861 100
-0.84952098 1.2879763 0.1305593 3
-0.8359732 1.2884698 0.025829561 100
-0.85299116 1.294836 0.078503937 70
-0.87196356 1.3019333 0.13282534 1
-0.83415502 1.2933047 0.025829561 99
-0.83246857 1.2926672 0.077457212 44
-0.85146159 1.2998478 0.13108224 3
-0.83418792 1.2988467 0.025864467 75
-0.83063573 1.2974896 0.077457212 53
-0.85146481 1.3054476 0.13125655 16
-0.83419889 1.3043954 0.025899371 71
-0.83623892 1.3051831 0.077875905 68
-0.84215242 1.307466 0.1305593 56
-0.82859915 1.3077705 0.025829561 81
-0.83436233 1.3100187 0.077875905 63
-0.84583634 1.3144945 0.13108224 100
-0.82299274 1.3111131 0.025759751 99
-0.83246893 1.3148477 0.077875905 61
-0.83651274 1.3164414 0.130385 99
-0.81737977 1.314423 0.025689943 100
-0.82313627 1.3167149 0.077457212 89
-0.83459681 1.3212779 0.130385 97
-0.8192777 1.320446 0.025759751 100
-0.81575638 1.3190305 0.0771432 91
-0.83460969 1.3266095 0.1305593 100
-0.81734794 1.3252225 0.025759751 100
-0.81938308 1.3260489 0.077457212 97
-0.82896632 1.3299401 0.13021068 100
-0.78345245 1.3114588 0.17671055 15
-0.80800098 1.3269567 0.025620133 100
-0.82297748 1.3330991 0.077771232 100
-0.81041294 1.3279459 0.12864187 100
-0.78155428 1.3161101 0.17671055 15
-0.79496366 1.3271022 0.025410704 100
-0.81546777 1.3355953 0.077457212 100
-0.8121385 1.3342162 0.1289905 100
-0.7796399 1.3207549 0.17671055 18
-0.79670042 1.3333371 0.025480513 100
-0.79137462 1.3311092 0.076201156 99
-0.81016082 1.3389676 0.1289905 100
-0.76855272 1.3215625 0.17549185 18
-0.80209416 1.3411469 0.025620133 100
-0.80044693 1.340451 0.07682918 100
-0.80816644 1.3437119 0.1289905 100
-0.78856307 1.3354311 0.17841671 22
-0.80377096 1.3474323 0.025689943 81
-0.78926176 1.3412435 0.076305822 54
-0.80249017 1.3468859 0.12864187 90
-0.7737996 1.3346484 0.17671055 15
-0.80542034 1.3537362 0.025759751 56
-0.82394713 1.3617151 0.078399263 53
-0.80412811 1.3531797 0.1289905 20
-0.80099183 1.3518291 0.18061037 5
-0.79237145 1.3536797 0.025550323 99
-0.8108837 1.361729 0.077771232 100
-0.81304699 1.3626697 0.13003637 60
-0.77346629 1.3454595 0.17719802 13
-0.78849477 1.3575581 0.025515418 100
-0.80698103 1.3656731 0.077666558 100
-0.81644291 1.3698266 0.1305593 100
-0.7805379 1.3540653 0.17841671 35
-0.79740506 1.3670877 0.025724847 100
-0.79758948 1.3671694 0.077247873 100
-0.82162708 1.3778214 0.13125655 100
-0.76760179 1.3538806 0.17695428 33
-0.80626494 1.3766866 0.025934275 100
-0.81190521 1.3792096 0.078189917 100
-0.8049472 1.3760972 0.12986206 100
-0.77461594 1.3625293 0.17817298 29
-0.79330963 1.3762453 0.025724847 100
-0.80987757 1.3837225 0.078189917 100
-0.80656189 1.3822262 0.13021068 100
-0.7744531 1.3677351 0.17841671 21
-0.78390616 1.3776149 0.025585229 100
-0.81136209 1.3901215 0.078399263 100
-0.8044166 1.3869576 0.13021068 100
-0.7669391 1.3698862 0.1776855 15
-0.78893703 1.3858423 0.025724847 100
-0.8054511 1.3934379 0.078189917 100
-0.81300682 1.3969131 0.13125655 100
-0.76473147 1.3747089 0.1776855 15
-0.79584831 1.394722 0.025899371 100
-0.79964334 1.3964837 0.077980578 100
-0.81442457 1.4033449 0.13160518 100
-0.78421944 1.3893241 0.18061037 12
-0.80112368 1.4023376 0.026038991 100
-0.8049044 1.4041069 0.078399263 100
-0.79799181 1.4008718 0.13021068 100
-0.77147967 1.3884639 0.17914793 5
-0.79529184 1.4053421 0.025969181 100
-0.80810064 1.4113913 0.078713275 100
-0.79938465 1.407275 0.1305593 100
-0.78187758 1.399007 0.18085411 3
-0.7840398 1.4057329 0.025794657 100
-0.80765647 1.4169873 0.078817949 100
-0.80074912 1.4136956 0.13090792 100
-0.79042596 1.408776 0.18231654 1
-0.79262573 1.415585 0.026004085 100
-0.79998988 1.4191259 0.078503937 100
-0.81465429 1.4261771 0.13247673 100
-0.79204947 1.4213748 0.026038991 100
-0.79400796 1.4223254 0.07829459 100
-0.81761736 1.4337844 0.13299966 100
-0.79695135 1.4295732 0.02617861 100
-0.79710406 1.4296479 0.07860861 100
-0.80455583 1.4332969 0.13195379 100
-0.79117066 1.4322654 0.0261088 100
-0.80386323 1.4385329 0.079131968 100
-0.80234879 1.4377851 0.13195379 100
-0.78885072 1.4369429 0.0261088 100
-0.80867237 1.4468169 0.079550654 100
-0.81070977 1.4478319 0.13299966 100
-0.78639728 1.4418457 0.0261088 100
-0.80618256 1.4517922 0.079550654 100
-0.80999631 1.4537095 0.13317397 100
-0.79474491 1.4519329 0.02631823 100
-0.79132515 1.4501988 0.078817949 100
-0.81115538 1.4602549 0.1335226 100
-0.80303818 1.4620867 0.026527658 100
-0.79783338 1.4594244 0.079341307 100
-0.80873758 1.4650019 0.1335226 100
-0.78639716 1.4594706 0.02624842 99
-0.79896861 1.4659564 0.079550654 100
-0.80276209 1.4679136 0.13317397 100
-0.78398222 1.4641314 0.02624842 100
-0.80007452 1.4725049 0.07976 100
-0.8003177 1.4726313 0.13317397 100
-0.78509253 1.4706421 0.02631823 100
-0.79230851 1.4744289 0.07944598 100
-0.80667788 1.4819698 0.13404553 100
-0.78617352 1.4771689 0.026388038 77
-0.7810151 1.4744388 0.078922622 95
-0.8077063 1.4885651 0.13439415 98
-0.80518979 1.4933 0.13439415 24
0.12512651 1.2974927 0.13165821 5
0.15408841 1.2650632 0.011064826 25
0.15332335 1.2660198 0.03328567 28
0.16673422 1.2492504 0.053687938 26
0.13792953 1.2852689 0.10449822 11
0.15394619 1.265241 0.12326261 49
0.19095322 1.218966 0.13272113 15
0.1385631 1.2844766 0.1765146 6
0.15946352 1.2616758 0.010960111 90
0.16863495 1.2501292 0.032134276 90
0.14849833 1.2754807 0.056476921 72
0.16478479 1.2549765 0.076046467 29
0.16667017 1.2526028 0.097615108 24
0.16658038 1.2527158 0.11982805 100
0.18759578 1.226258 0.13452072 31
0.14387608 1.2813001 0.17496167 28
0.16250622 1.2615335 0.010925206 100
0.17163375 1.2499553 0.032029606 100
0.14788675 1.2800782 0.056825545 100
0.16902283 1.2532673 0.07555899 30
0.18067101 1.2384915 0.094486415 39
0.15741324 1.2679939 0.12326261 100
0.1940963 1.2214617 0.13272113 39
0.1541248 1.2721653 0.1713382 43
0.16413835 1.2628157 0.010925206 100
0.17569 1.2480621 0.03182026 100
0.15940669 1.2688589 0.055431053 100
0.17919397 1.243587 0.073852822 31
0.18953335 1.2303817 0.092609204 26
0.16753906 1.2584724 0.12059128 100
0.19078988 1.2287769 0.13452072 38
0.15936509 1.2689121 0.16978529 36
0.1696282 1.2594898 0.010820492 100
0.1786702 1.2478538 0.031715591 92
0.16246027 1.268714 0.055256739 99
0.16266158 1.2684549 0.077508904 29
0.18637484 1.237939 0.093860678 26
0.18499234 1.2397181 0.11563025 100
0.18051639 1.245478 0.13901976 29
0.15171328 1.2825439 0.1739264 35
0.17614055 1.2544162 0.010680873 80
0.18635824 1.241177 0.03119223 31
0.16898537 1.2636873 0.054559495 50
0.169168 1.2634506 0.076533951 59
0.1734457 1.2579079 0.097615108 24
0.18923897 1.2374444 0.13632034 22
0.14987421 1.28845 0.17547931 42
0.17427069 1.2605457 0.010785587 52
0.17837188 1.2551913 0.032029606 30
0.15625927 1.2840612 0.056651235 47
0.18063572 1.2522357 0.074584037 91
0.19085166 1.2388979 0.093547814 52
0.18828046 1.2422547 0.11563025 13
0.19924942 1.2279339 0.13317102 31
0.15882531 1.2807109 0.17237349 57
0.17589948 1.2617891 0.010785587 65
0.1848197 1.2500626 0.031610917 30
0.16640994 1.2742639 0.055431053 49
0.18464059 1.250298 0.07409656 61
0.19480047 1.2369419 0.092922069 53
0.18390542 1.2512645 0.11753834 13
0.20312959 1.2259926 0.13227122 47
0.16987789 1.2697049 0.16823238 67
0.17529479 1.2663488 0.010855397 39
0.1673277 1.2769023 0.03328567 28
0.17426291 1.2677157 0.054559495 50
0.18401134 1.2548025 0.074584037 76
0.20246524 1.2303579 0.09135773 54
0.19276911 1.2432017 0.11524864 13
0.21302217 1.2163737 0.1291219 40
0.17869571 1.2618438 0.16512655 68
0.1769428 1.2675886 0.010855397 52
0.16661459 1.2813646 0.033495013 28
0.17830577 1.2657707 0.054210871 51
0.19038415 1.2496604 0.073609084 77
0.19806898 1.2394103 0.092922069 66
0.19551796 1.2428129 0.11486702 13
0.20047656 1.236199 0.13452072 38
0.18612298 1.2553439 0.16253836 70
0.18473741 1.2609309 0.010680873 80
0.1923357 1.2507184 0.031401575 31
0.18012539 1.2671297 0.054210871 51
0.18858975 1.2557532 0.074340299 46
0.20686671 1.2311881 0.091044858 68
0.20780051 1.2299329 0.11143246 14
0.20684063 1.2312231 0.13272113 39
0.18790433 1.2566744 0.16253836 70
0.1887441 1.2589228 0.010611063 81
0.20342696 1.2390511 0.030564198 32
0.18177596 1.2683535 0.054210871 76
0.20081952 1.2425799 0.072146654 63
0.19078961 1.2561544 0.095737889 89
0.20816091 1.2326442 0.11181407 14
0.21300423 1.2260892 0.13092151 32
0.18263203 1.2671949 0.16564418 68
0.1915504 1.2585058 0.010576159 81
0.20262116 1.2434183 0.030773543 64
0.18460926 1.2679656 0.054036561 100
0.20003983 1.2469362 0.072634131 78
0.20642713 1.2382314 0.091983467 93
0.20156687 1.2448552 0.1144854 13
0.22028282 1.2193484 0.128672 16
0.18656853 1.2652953 0.16460891 69
0.19208041 1.2613704 0.010611063 81
0.21368328 1.2317129 0.029936166 66
0.1898689 1.2644066 0.053513627 100
0.19936925 1.251364 0.073121607 62
0.21620497 1.228251 0.089793384 83
0.20207062 1.2476554 0.11486702 13
0.24021119 1.1952941 0.12147357 17
0.18943709 1.2649994 0.16409127 69
0.19614124 1.2593759 0.010541254 95
0.20125353 1.2523059 0.03119223 94
0.19393176 1.2624316 0.053165004 100
0.21035695 1.2397161 0.071171694 65
0.2108618 1.2390178 0.091670595 100
0.22214592 1.2234123 0.10876112 14
0.2337046 1.207427 0.12462288 8
0.19682696 1.2584276 0.16150309 70
0.19785163 1.2606082 0.010541254 95
0.20992702 1.2437849 0.030564198 64
0.19332924 1.2669086 0.053513627 100
0.20389587 1.2521875 0.072877869 94
0.21250105 1.2401989 0.091670595 100
0.21342736 1.2389083 0.11219569 14
0.2261427 1.2211934 0.12822211 16
0.19966054 1.258088 0.16098544 72
0.20188707 1.2585772 0.010471444 96
0.21274185 1.2433425 0.030459527 97
0.18581688 1.2811317 0.054908119 100
0.21364444 1.2420757 0.071171694 81
0.21414441 1.241374 0.091670595 100
0.2070916 1.2512727 0.11486702 20
0.22885045 1.2207341 0.1277722 16
0.1968824 1.2656013 0.163056 70
0.20128527 1.2630546 0.010541254 81
0.21670276 1.2412556 0.030250182 98
0.18990421 1.2791467 0.054559495 100
0.21070933 1.2497299 0.072146654 79
0.21351057 1.245769 0.092296332 100
0.19630358 1.2700984 0.11906482 45
0.23830259 1.2107152 0.12462288 25
0.19973001 1.2652537 0.16253836 78
0.20300847 1.2642689 0.010541254 81
0.21720219 1.2440507 0.030354854 65
0.19855234 1.2706164 0.053513627 100
0.21238598 1.2509112 0.072146654 79
0.22765842 1.2291565 0.088854775 98
0.19917944 1.2697232 0.1186832 91
0.23536408 1.2181803 0.12642249 41
0.20035091 1.2680545 0.163056 70
0.21845502 1.2457893 0.010122396 85
0.21771708 1.2468482 0.030459527 97
0.2037192 1.2669362 0.05299069 100
0.21633655 1.2488295 0.071659178 80
0.22474572 1.2367617 0.090106249 96
0.21888474 1.2451726 0.1125773 96
0.22467503 1.2368631 0.13137141 78
0.21534523 1.250252 0.15684435 74
0.21775898 1.250175 0.010192205 99
0.21930021 1.2479475 0.030459527 97
0.19970074 1.276274 0.053862248 100
0.22018525 1.2466685 0.071171694 65
0.22404739 1.2410866 0.090731993 100
0.22493058 1.2398101 0.11105084 91
0.22289854 1.2427469 0.13272113 94
0.20594755 1.2672455 0.16202073 78
0.21038061 1.264519 0.010471444 96
0.22662401 1.240867 0.029936166 99
0.20147008 1.2774936 0.053862248 100
0.22185114 1.2478168 0.071171694 81
0.22569379 1.2422215 0.090731993 95
0.22101533 1.2490338 0.11295892 100
0.22896361 1.2374604 0.13092151 96
0.20440438 1.273221 0.16357364 69
0.21436149 1.2623968 0.010401634 83
0.22826961 1.241993 0.029936166 66
0.19651055 1.2885849 0.054908119 100
0.21569449 1.2604413 0.072877869 47
0.22623152 1.244983 0.091044858 100
0.21494904 1.2615348 0.11563025 100
0.23718292 1.2289166 0.12822211 97
0.20833924 1.2712317 0.16253836 70
0.2149618 1.2652216 0.010436539 41
0.23663411 1.2331877 0.029308135 68
0.20837083 1.2749637 0.053339314 52
0.22297019 1.2533844 0.071659178 80
0.23563981 1.2346574 0.088854775 98
0.22656783 1.2480667 0.11219569 91
0.2322349 1.2396902 0.13092151 96
0.21983358 1.2580206 0.15787962 81
0.22355074 1.2565411 0.01022711 42
0.23173809 1.2443386 0.029936166 33
0.2180829 1.2646904 0.052119136 54
0.22261661 1.2579334 0.072146654 63
0.23302382 1.2424225 0.090106249 100
0.23387516 1.2411536 0.1102876 99
0.23946956 1.2328156 0.128672 97
0.22170988 1.2592847 0.15787962 73
0.22081766 1.2643354 0.010366729 41
0.23118177 1.2487715 0.030145511 32
0.21870741 1.2675043 0.052293446 53
0.22872287 1.2524641 0.071171694 65
0.23576969 1.2418818 0.089793384 100
0.23987436 1.2357178 0.10876112 87
0.23676652 1.2403848 0.13047162 96
0.22234905 1.2620357 0.15839726 73
0.21795979 1.2720387 0.010506349 27
0.21946609 1.2697612 0.031401575 31
0.22137108 1.2668809 0.052119136 54
0.23462042 1.2468481 0.07019674 82
0.23289487 1.2494571 0.091044858 100
0.23592389 1.2448773 0.11066922 92
0.23717082 1.2429919 0.13092151 96
0.22283074 1.2646739 0.15891489 73
0.21971425 1.2731948 0.010506349 27
0.21025303 1.287609 0.032448292 29
0.21982768 1.2730219 0.05264207 53
0.2341083 1.2512652 0.070684217 81
0.24215809 1.2390013 0.088854775 98
0.23650613 1.247612 0.11105084 91
0.24844778 1.2294188 0.12687239 90
0.22667959 1.2625829 0.15787962 73
0.23893598 1.2475355 0.0099478718 29
0.23604459 1.2519743 0.030145511 32
0.23463514 1.254138 0.05055033 56
0.23253971 1.2573549 0.071415432 96
0.24918798 1.231797 0.087290429 100
0.23924676 1.2470584 0.11066922 85
0.24686235 1.2353672 0.12822211 97
0.22734657 1.2653272 0.15839726 73
0.23192 1.2620534 0.01022711 42
0.24315029 1.2446806 0.029622151 33
0.23524538 1.2569091 0.05072464 56
0.24394184 1.2434561 0.069221787 67
0.24865699 1.2361621 0.087916173 84
0.24624297 1.2398964 0.10876112 94
0.25166243 1.2315128 0.12687239 90
0.23222384 1.2615833 0.15684435 74
0.24011791 1.2530618 0.010017681 72
0.23941702 1.2541543 0.030145511 65
0.23694694 1.2580049 0.05072464 56
0.24238086 1.2495341 0.069953002 49
0.25028601 1.2372111 0.087916173 84
0.25106522 1.2359965 0.10761628 87
0.25222301 1.2341917 0.1273223 81
0.23498484 1.2610636 0.1563267 74
0.23751059 1.2608881 0.0101573 57
0.25076178 1.2400719 0.029203463 68
0.23116285 1.2708598 0.051944822 81
0.25045264 1.2405576 0.068490572 50
0.25191873 1.2382545 0.087916173 84
0.24953085 1.2420056 0.10876112 72
0.2580311 1.2286526 0.12552269 90
0.2315138 1.2703085 0.15891489 65
0.24136192 1.2585946 0.010087491 57
0.25667107 1.2343593 0.028784776 100
0.22759286 1.2803921 0.05281638 79
0.25209704 1.2416003 0.068490572 50
0.25777492 1.2326119 0.086664692 57
0.24069539 1.2596499 0.1125773 82
0.25651166 1.2346116 0.12687239 99
0.22294495 1.28775 0.16409127 62
0.24306932 1.2596691 0.010087491 86
0.25299001 1.2438419 0.029308135 100
0.24313253 1.2595682 0.05055033 84
0.2474193 1.2527292 0.069953002 49
0.26148975 1.2302816 0.086038955 72
0.24136376 1.26239 0.11295892 89
0.26227519 1.2290286 0.12507279 100
0.24117044 1.2626985 0.15580906 67
0.25014526 1.2522995 0.0099129668 87
0.24840149 1.2551043 0.029936166 99
0.24598092 1.2589976 0.05037602 84
0.24499816 1.2605783 0.070927955 48
0.26317871 1.2313359 0.086038955 58
0.25664616 1.2418432 0.10799789 79
0.25675708 1.2416648 0.12822211 97
0.24195832 1.2654678 0.1563267 74
0.25393039 1.2499394 0.0098431576 88
0.25009665 1.2561541 0.029936166 99
0.2455976 1.2634473 0.05072464 84
0.25296581 1.2515031 0.069465525 49
0.25856808 1.2424216 0.087916173 56
0.25520271 1.247877 0.10914274 78
0.26659039 1.2294171 0.12462288 83
0.24673253 1.2616074 0.15477379 75
0.25126147 1.257688 0.0099827768 100
0.25997159 1.2434689 0.029098792 100
0.24402714 1.269498 0.051247578 82
0.2482585 1.2625904 0.070927955 97
0.26418102 1.2365969 0.086664692 71
0.25875649 1.2454525 0.10837951 87
0.27007094 1.2269818 0.12372308 92
0.24222383 1.2724419 0.15787962 65
0.25815853 1.2501836 0.0098082526 89
0.25747678 1.2513053 0.029517479 100
0.24887693 1.2654552 0.05072464 84
0.25822777 1.2500697 0.068978049 50
0.26888934 1.2325276 0.08572609 58
0.25531963 1.2548547 0.1102876 85
0.27369204 1.2246255 0.12282328 93
0.24197286 1.2768149 0.15891489 65
0.25467342 1.2597617 0.0099827768 87
0.26740947 1.2386405 0.028680105 100
0.24340636 1.2784467 0.051944822 81
0.25785515 1.2544851 0.069465525 49
0.27152562 1.2318144 0.085413218 73
0.26106903 1.2491554 0.10876112 87
0.27326807 1.2289249 0.12372308 83
0.24773416 1.2712696 0.15684435 66
0.25843805 1.2573575 0.0099129668 87
0.26289478 1.249908 0.029308135 100
0.26154906 1.2521573 0.049155839 100
0.26362464 1.248688 0.068490572 50
0.27111107 1.2361741 0.086038955 58
0.26677504 1.2434219 0.10723466 73
0.27287078 1.2332327 0.12462288 83
0.25543654 1.2623746 0.15373851 68
0.27034733 1.2411761 0.0095639192 91
0.26049417 1.2577772 0.029726824 100
0.25408173 1.2685814 0.05072464 84
0.26935002 1.2428564 0.067515619 51
0.27072358 1.2405422 0.086664692 57
0.26742727 1.2460959 0.10761628 87
0.27250019 1.2375488 0.12552269 90
0.25518504 1.2667224 0.15477379 75
0.26387677 1.2559347 0.0098431576 88
0.27233246 1.2415742 0.028680105 100
0.25076935 1.2781956 0.051596198 82
0.26898786 1.2472544 0.068003096 51
0.26835868 1.248323 0.087916173 70
0.26809475 1.2487712 0.10799789 79
0.2810553 1.2267598 0.12237337 85
0.25299993 1.2744074 0.15684435 66
0.26154035 1.2638373 0.0099827768 87
0.2719655 1.2459897 0.028889447 100
0.25053528 1.2826779 0.051944822 81
0.27265799 1.2448041 0.067515619 51
0.28098971 1.2305404 0.084474608 59
0.26877749 1.2514476 0.10837951 79
0.28461713 1.2243304 0.12147357 77
0.26355755 1.260384 -0.0099129668 87
0.2528137 1.2787772 0.15787962 65
0.26627362 1.2596506 0.0098780617 73
0.26762065 1.2573259 0.029517479 100
0.26431352 1.2630334 0.049853086 85
0.2663551 1.25951 0.069465525 49
0.28457969 1.2280583 0.083848871 59
0.26553828 1.2609197 0.1102876 85
0.28620467 1.2252539 0.12147357 86
0.26326594 1.2648413 -0.0099827768 86
0.26233989 1.2664394 0.15373851 68
0.27296716 1.2519696 0.0097035384 90
0.2772859 1.2444559 0.028680105 100
0.26603627 1.2640276 0.049853086 57
0.270044 1.257055 0.068978049 50
0.27928942 1.2409704 0.086038955 58
0.27116707 1.2551012 0.10876112 87
0.28488201 1.2312405 0.12282328 85
0.27177623 1.2540414 0.14959741 70
0.27762261 1.2477221 0.0095988233 91
0.2730082 1.2558153 0.029308135 100
0.26973617 1.2615541 0.049504463 86
0.27174586 1.2580293 0.068978049 50
0.28387031 1.2367643 0.085100345 58
0.28064141 1.2424275 0.10570818 88
0.2874589 1.2304703 0.12237337 76
0.26676953 1.2667572 0.15322088 76
0.28126064 1.2451887 0.0095290141 92
0.27863845 1.2498252 0.028889447 100
0.27145371 1.2625294 0.049504463 86
0.2773599 1.252086 0.068003096 51
0.28550124 1.2376904 0.085100345 58
0.27552694 1.2553271 0.10837951 79
0.28906783 1.2313839 0.12237337 85
0.26565227 1.2727876 0.15477379 67
0.27509448 1.2600763 0.0098082526 74
0.28617772 1.2403181 0.028261416 100
0.26732624 1.2739248 0.05055033 84
0.27904436 1.2530348 0.068003096 51
0.29486671 1.2248281 0.082597397 60
0.27434129 1.2614191 0.10952436 85
0.29449347 1.2254936 0.12057377 86
0.27411619 1.2618203 -0.0098431576 87
0.26551881 1.2771468 0.15580906 67
0.27689257 1.2610805 0.0098082526 89
0.28207895 1.2517548 0.028889447 100
0.27014348 1.2732162 0.05037602 84
0.27888697 1.2574943 0.068490572 50
0.29557535 1.2274866 0.082910269 60
0.27996108 1.255563 0.10799789 79
0.29237607 1.2332393 0.12237337 85
0.28175211 1.2523425 -0.0096337283 89
0.27864677 1.2579262 0.14959741 70
0.28247163 1.2550268 0.0096686333 90
0.28376222 1.2526871 0.028889447 100
0.28056222 1.2584887 0.048807215 88
0.27963153 1.2601759 0.068734311 84
0.29431164 1.233561 0.083848871 59
0.28355405 1.2530644 0.10723466 81
0.29493585 1.2324294 0.12192347 85
0.275711 1.2672839 -0.0099129668 87
0.28035161 1.2588705 0.14959741 70
0.28216153 1.2594197 0.0097384425 90
0.28344667 1.2570714 0.029098792 100
0.28792253 1.2488927 0.047761347 90
0.28983536 1.2453973 0.066540658 52
0.29395366 1.2378721 0.084474608 59
0.28892744 1.2470565 0.10570818 81
0.29553518 1.2349821 0.12237337 76
0.27640969 1.26993 0.15270324 68
0.28864089 1.251564 0.0095639192 91
0.28705391 1.2544881 0.028889447 100
0.27534005 1.2760713 0.05037602 84
0.29054949 1.2480474 0.066784397 34
0.29653066 1.2370268 0.084161744 59
0.28778481 1.2531414 0.10685304 88
0.27815646 1.270882 0.15270324 76
0.29308334 1.247146 0.009459204 77
0.29244947 1.2483232 0.02847076 100
0.2817426 1.268208 0.049504463 86
0.29401842 1.2454095 0.06629692 35
0.29901725 1.2361255 0.083848871 59
0.28752691 1.2574655 0.10761628 72
0.282655 1.2665136 -0.0098431576 87
0.27432373 1.2819865 0.15580906 67
0.28909919 1.2586238 0.0096686333 90
0.29223925 1.252743 0.028680105 100
0.28723708 1.2621112 0.048807215 88
0.29006943 1.2568066 0.067759357 34
0.29662779 1.244524 0.10456333 75
0.28438976 1.2674438 -0.0098431576 87
0.28339195 1.2693125 0.15166797 69
0.29369804 1.2542745 0.0095639192 91
0.29214177 1.257215 0.028889447 100
0.29836243 1.2454613 0.047064099 61
0.29092684 1.2595106 0.068003096 51
0.29561362 1.2506552 0.10570818 81
0.28434396 1.2719488 -0.0099129668 87
0.29064587 1.2600415 0.14856213 71
0.29817775 1.2498542 0.009459204 77
0.29384404 1.2581122 0.028889447 100
0.29354274 1.2586863 0.048284281 88
0.29448202 1.2568965 0.067515619 51
0.29415342 1.2575226 0.14752686 79
0.29893124 1.2525042 0.0094941091 92
0.29923713 1.2519164 0.02847076 100
0.29249114 1.2648808 0.048807215 58
0.28693944 1.2755501 0.15270324 68
0.29239315 1.2693179 0.049155839 58
0.28778112 1.2782574 -0.0099827768 100
0.28427702 1.2850494 0.15529142 75
0.29675561 1.2648829 0.0097035384 100
0.2931118 1.2720035 -0.0098431576 100
0.29918712 1.2601314 0.14752686 79
