# .PCD v0.7 - Point Cloud Data file format
VERSION 0.7
FIELDS x y z intensity
SIZE 4 4 4 4
TYPE F F F F
COUNT 1 1 1 1
WIDTH 721
HEIGHT 1
VIEWPOINT 0 0 0 1 0 0 0
POINTS 721
DATA ascii
0.05588007 0.0097031593 0.047521047 42
0.045217693 0.0047480464 0.04804441 100
0.03923285 0.0015246272 0.048358422 94
0.039754629 0.0083797574 0.04804441 63
0.039334059 0.013476312 0.047835063 37
0.039073944 0.018477321 0.047625721 28
0.03532511 0.01861757 0.047730394 19
0.031702101 0.018684387 0.047835063 9
0.026802957 0.017218113 0.04804441 9
0.017172217 0.0093256235 0.048672438 8
-1.0560975 1.1381404 0.028761566 7
-1.0054715 1.1265363 0.083632857 5
-1.0210991 1.1301184 0.14101799 6
-1.0139036 1.1342195 0.028028565 10
-1.0022721 1.1315106 0.083528183 30
-1.0120707 1.1337926 0.14032075 37
-0.98537904 1.1332312 0.027539898 28
-1.0029445 1.1373867 0.083632857 88
-1.016608 1.1406192 0.14084367 81
-0.97632426 1.1367198 0.027400278 42
-0.99971062 1.1423386 0.083528183 100
-1.0211165 1.1474817 0.14136662 95
-0.98863393 1.145363 0.027644612 43
-0.9731769 1.1415921 0.082167454 100
-1.0139823 1.151547 0.14084367 86
-1.0009017 1.1540966 0.027888946 22
-0.98544127 1.1502677 0.082900152 97
-0.99330145 1.1522143 0.13910057 92
-0.97240037 1.152683 0.027400278 27
-0.98797852 1.1565988 0.083109498 46
-0.9880932 1.1566277 0.13875194 84
-0.96717995 1.1570063 0.027330469 41
-0.98274916 1.1609777 0.082900152 35
-0.98673433 1.1619943 0.13875194 84
-0.96775573 1.1628009 0.027365373 61
-0.97944146 1.1658252 0.082795486 65
-0.98921436 1.1683545 0.13910057 91
-0.96637541 1.1680965 0.027365373 68
-0.9645279 1.1676115 0.082062781 100
-0.98396021 1.172713 0.13875194 92
-0.96497649 1.1733872 0.027365373 78
-0.95734066 1.1713541 0.081748761 90
-0.96714264 1.173964 0.13735744 100
-0.95004529 1.1750242 0.027121039 83
-0.96171516 1.1781751 0.082062781 98
-0.95995289 1.1776993 0.13683452 100
-0.94283611 1.1786737 0.027016325 93
-0.95642835 1.1823947 0.081853434 100
-0.96044213 1.1834936 0.13700883 99
-0.94532663 1.1846907 0.027086135 92
-0.93773097 1.1825843 0.08091139 100
-0.97058231 1.1916947 0.1380547 92
-0.95157033 1.1920724 0.027225753 93
-0.93435901 1.1872345 0.080806717 88
-0.96142882 1.1948434 0.13735744 99
-0.95201117 1.197859 0.027260659 71
-0.93097264 1.1918662 0.080702044 72
-0.95418805 1.1984792 0.13683452 100
-0.95242971 1.2036541 0.027295563 50
-0.93716675 1.1992486 0.081120729 36
-0.94694048 1.2020696 0.13631158 99
-0.93171364 1.2032833 0.026946515 48
-0.93565935 1.2044373 0.081120729 24
-0.95116013 1.20897 0.13683452 85
-0.92252284 1.206181 0.026806897 75
-0.91881377 1.2050824 0.080283359 26
-0.94579798 1.2130755 0.13648589 87
-0.93056804 1.2141917 0.026981421 74
-0.90772098 1.2073373 0.07976 34
-0.93660885 1.216004 0.13578865 98
-0.92135519 1.2170318 0.026841801 75
-0.91382951 1.2147454 0.080178685 84
-0.93123025 1.2200321 0.13544002 100
-0.91221911 1.219558 0.026702182 83
-0.91616482 1.2207711 0.080388032 92
-0.92020768 1.2220141 0.13456847 99
-0.90109426 1.2216877 0.026527658 83
-0.91267532 1.2252926 0.080283359 80
-0.92052323 1.2277354 0.13474278 77
-0.90705758 1.2294085 0.026667276 88
-0.8995679 1.227047 0.079655327 72
-0.9169355 1.232523 0.13456847 47
-0.90544504 1.2344917 0.026667276 83
-0.896061 1.2314969 0.079550654 80
-0.91151589 1.2364292 0.13421984 43
-0.90778488 1.2402898 0.026737086 83
-0.9003064 1.2378771 0.079864666 95
-0.90435487 1.2391832 0.13369691 45
-0.89092666 1.2404108 0.026457848 96
-0.90056294 1.2435567 0.079969339 100
-0.91028434 1.2467303 0.13439415 63
-0.88539547 1.2444338 0.026388038 100
-0.90450662 1.2507504 0.080283359 100
-0.9085272 1.2520794 0.13439415 82
-0.87993771 1.248173 0.02631823 100
-0.88387805 1.2494906 0.079236634 100
-0.90494603 1.2565358 0.13421984 82
-0.87825984 1.2531614 0.02631823 93
-0.87651974 1.2525728 0.078922622 100
-0.90135151 1.2609731 0.13404553 78
-0.88034862 1.2594389 0.026388038 92
-0.88049561 1.2594892 0.079236634 100
-0.89774376 1.2653911 0.13387123 94
-0.87493807 1.262872 0.02631823 89
-0.88452715 1.2661889 0.079550654 100
-0.8866784 1.266933 0.13299966 95
-0.8656587 1.2652019 0.02617861 77
-0.87713069 1.2692149 0.079236634 91
-0.89809948 1.2765498 0.13421984 59
-0.86571938 1.2710545 0.026213514 75
-0.86399454 1.2704439 0.07860861 53
-0.894355 1.2811892 0.13404553 36
-0.86396176 1.2759931 0.026213514 90
-0.84907562 1.2706661 0.077875905 19
-0.89631361 1.2875705 0.13439415 38
-0.86406726 1.2816061 0.02624842 96
-0.86422259 1.2816622 0.078817949 53
-0.87014216 1.2838039 0.1321281 24
-0.84724861 1.2810439 0.025969181 93
-0.86055213 1.2859097 0.078713275 89
-0.85711294 1.2846518 0.13108224 15
-0.84170502 1.2845311 0.025899371 100
-0.8624894 1.2922153 0.078922622 100
-0.8739956 1.2964694 0.13282534 5
-0.83990043 1.289386 0.025899371 100
-0.8363362 1.2880541 0.077561885 85
-0.89454526 1.309806 0.1349171 1
-0.8382619 1.2937499 0.025899371 100
-0.82535833 1.2888818 0.077038527 51
-0.8592878 1.3016824 0.13177948 1
-0.84950477 1.3035793 0.026143705 75
-0.83846849 1.2993717 0.077875905 53
-0.84811491 1.3030496 0.13090792 13
-0.8287881 1.3017535 0.025794657 72
-0.83642572 1.3046992 0.077875905 68
-0.84233993 1.3069801 0.1305593 56
-0.82878679 1.3072894 0.025829561 78
-0.83641177 1.3102605 0.077980578 70
-0.85159558 1.3161775 0.13160518 100
-0.82327586 1.310394 0.025759751 96
-0.82160276 1.3097357 0.077247873 63
-0.84236068 1.317904 0.13090792 100
-0.82138115 1.3151844 0.025759751 100
-0.81599838 1.3130445 0.077038527 94
-0.84229106 1.3234971 0.13108224 99
-0.82327729 1.3212188 0.025829561 100
-0.82345766 1.3212912 0.077561885 95
-0.82935399 1.323658 0.13003637 100
-0.81032211 1.3212636 0.025620133 100
-0.82717508 1.3280932 0.077875905 97
-0.82381731 1.3267324 0.12968774 100
-0.78015071 1.3090367 0.17622307 13
-0.80468816 1.3244936 0.025550323 100
-0.82337016 1.3321404 0.077771232 100
-0.81449002 1.3285055 0.1289905 100
-0.79112107 1.3189404 0.17792924 18
-0.80653828 1.3305101 0.025620133 100
-0.79565603 1.3260137 0.076305822 100
-0.81999594 1.3360708 0.12968774 100
-0.78378934 1.3211105 0.17719802 22
-0.80796736 1.3374932 0.025689943 100
-0.79341322 1.331411 0.076305822 100
-0.8177126 1.3415656 0.12968774 100
-0.75958723 1.3172752 0.17427316 16
-0.80239302 1.3404388 0.025620133 100
-0.79338437 1.336639 0.076410495 99
-0.80846661 1.3430007 0.1289905 100
-0.77788466 1.3301013 0.17695428 18
-0.79671413 1.3435891 0.025550323 88
-0.79323584 1.3421075 0.076515168 69
-0.80279213 1.3461777 0.12864187 99
-0.76861614 1.3316216 0.17597933 16
-0.80582756 1.3527899 0.025759751 59
-0.83169955 1.3639107 0.078817949 53
-0.81917852 1.3585286 0.130385 28
-0.79045516 1.3461821 0.17914793 7
-0.80745381 1.3591112 0.025829561 94
-0.8057999 1.3583934 0.077457212 97
-0.83356506 1.3704431 0.13195379 61
-0.77386779 1.3445354 0.17719802 15
-0.79816574 1.3604007 0.025689943 100
-0.8075003 1.3644886 0.077666558 100
-0.82244104 1.3710315 0.13108224 100
-0.78286546 1.3537003 0.17866045 33
-0.80330795 1.3685735 0.025829561 100
-0.80348569 1.3686521 0.077561885 100
-0.81294054 1.3728341 0.130385 100
-0.77527088 1.3561726 0.17792924 30
-0.79218513 1.3689833 0.025655037 100
-0.8106125 1.377207 0.078085244 100
-0.80183679 1.3732905 0.12951343 100
-0.77331978 1.3605642 0.17792924 24
-0.78268832 1.3706121 0.025515418 100
-0.81566137 1.3854723 0.078503937 100
-0.80324942 1.3798785 0.12986206 100
-0.77657562 1.3678572 0.17866045 19
-0.79525214 1.3816495 0.025794657 100
-0.80270392 1.3850377 0.077875905 100
-0.80847436 1.3876612 0.1305593 100
-0.75832218 1.3648584 0.17646681 16
-0.79845327 1.3890791 0.025899371 100
-0.80225581 1.3908248 0.077980578 100
-0.80982286 1.3942988 0.13090792 100
-0.77958578 1.3804169 0.17963541 14
-0.80183655 1.3960683 0.026004085 100
-0.80200189 1.3961449 0.078085244 100
-0.80774504 1.3988047 0.13090792 100
-0.77395159 1.3831542 0.17914793 12
-0.79409856 1.3984778 0.025899371 100
-0.80331641 1.4027879 0.07829459 100
-0.79821199 1.4004012 0.13021068 100
-0.76989716 1.3871617 0.17890419 7
-0.79019839 1.4020786 0.025864467 100
-0.81204909 1.412384 0.078922622 100
-0.80332214 1.4082682 0.13090792 100
-0.75707084 1.3864546 0.17744176 3
-0.79509467 1.4104249 0.026004085 100
-0.80247241 1.4139376 0.078503937 100
-0.80816931 1.4166501 0.13160518 100
-0.76914114 1.398068 0.17939167 3
-0.79656881 1.4166131 0.026073895 100
-0.80212992 1.4192836 0.07860861 100
-0.81320161 1.4246001 0.13230242 100
-0.79958814 1.4241608 0.02617861 100
-0.80513293 1.4268484 0.078922622 100
-0.80003601 1.4243779 0.13125655 100
-0.79022533 1.4251199 0.026038991 100
-0.80474168 1.4322157 0.079027295 100
-0.80143851 1.4306011 0.13160518 100
-0.78434342 1.4280252 0.025969181 100
-0.81316954 1.4422408 0.079655327 100
-0.80984586 1.4406018 0.13265105 100
-0.79647821 1.4395696 0.02624842 100
-0.79662603 1.4396431 0.078817949 100
-0.81118256 1.4468818 0.13299966 100
-0.79401499 1.4445002 0.02624842 100
-0.79773277 1.4463661 0.079027295 100
-0.80691189 1.4509726 0.13282534 100
-0.80235714 1.4546067 0.026457848 100
-0.80249137 1.4546746 0.07944598 100
-0.80274898 1.454805 0.13265105 100
-0.7928353 1.4556855 0.02631823 100
-0.80365068 1.4612081 0.079655327 100
-0.80035025 1.4595228 0.13265105 100
-0.78687817 1.4585375 0.02624842 100
-0.80655652 1.4686725 0.079969339 100
-0.80856282 1.4697058 0.13369691 100
-0.79511386 1.4687307 0.026457848 100
-0.80233699 1.4724828 0.079864666 100
-0.81495243 1.4790361 0.13456847 100
-0.79620928 1.4752778 0.026527658 99
-0.79280001 1.4734917 0.07944598 100
-0.81246918 1.4837962 0.13456847 100
-0.80434769 1.4855776 0.026737086 88
-0.79563397 1.4809737 0.07976 100
-0.80468434 1.4857556 0.13404553 100
-0.78986913 1.4839215 0.13282534 37
0.13110265 1.2897017 0.12975012 5
0.15008 1.269539 0.01116954 25
0.12685093 1.2985544 0.035483778 25
0.14407003 1.277046 0.056825545 23
0.11049965 1.3189788 0.11138134 9
0.15245995 1.2665663 0.12364423 24
0.19315401 1.2157354 0.13182132 7
0.15278196 1.2661641 0.17030293 7
0.15680334 1.2646703 0.011029921 89
0.17468128 1.2421786 0.031610917 92
0.1396437 1.2862585 0.057697102 69
0.14732265 1.2765977 0.07945881 28
0.1701892 1.2478299 0.096676499 25
0.15419573 1.2679509 0.12364423 91
0.19228691 1.2200294 0.13272113 23
0.15571839 1.2660352 0.16978529 22
0.16464135 1.2581239 0.010855397 100
0.1700612 1.2512586 0.032134276 100
0.15123448 1.275106 0.056302611 96
0.15761513 1.2670238 0.077752642 28
0.18034402 1.2382337 0.094486415 39
0.15828219 1.2661788 0.122881 100
0.19136617 1.2242721 0.13362093 38
0.14778903 1.2794702 0.1739264 42
0.16511396 1.2610399 0.010890301 100
0.17667183 1.2462943 0.031715591 100
0.15914556 1.2686543 0.055431053 100
0.16792464 1.2574539 0.076046467 29
0.1819807 1.2395211 0.094486415 26
0.17333898 1.2505463 0.1186832 100
0.18574101 1.2347237 0.13632034 38
0.1591039 1.2687075 0.16978529 44
0.1717428 1.2560678 0.010750682 100
0.15993753 1.2712379 0.03328567 86
0.15844133 1.2731605 0.055779677 98
0.17084765 1.257218 0.075802729 30
0.16663748 1.2626282 0.098866582 24
0.17984161 1.2456607 0.11715672 100
0.18497181 1.2390683 0.13722014 30
0.15135556 1.2822657 0.1739264 42
0.18199992 1.2463082 0.010506349 54
0.17267945 1.2583718 0.032343622 60
0.16020006 1.2745242 0.055779677 49
0.18104631 1.2475425 0.07409656 30
0.1683594 1.2639633 0.098866582 24
0.18899426 1.2372553 0.13632034 22
0.14369723 1.295884 0.17806751 40
0.16175771 1.2761501 0.011134636 63
0.16830862 1.2676097 0.032866981 29
0.1583257 1.2806244 0.056302611 48
0.19117272 1.2378018 0.072390392 47
0.18932214 1.2402145 0.093860678 39
0.18556109 1.2451177 0.11639348 19
0.20248795 1.2230502 0.13182132 23
0.15023845 1.2911677 0.17599694 55
0.173219 1.2647749 0.010855397 52
0.17972824 1.2562273 0.032029606 30
0.16735303 1.2724779 0.055256739 49
0.1831865 1.251686 0.074340299 46
0.20173672 1.2273264 0.091044858 54
0.18960068 1.243263 0.11563025 13
0.20171022 1.2273612 0.13272113 39
0.17195711 1.2664319 0.16719711 67
0.184596 1.2533259 0.010576159 40
0.17660978 1.2638896 0.032448292 29
0.17752019 1.2626853 0.054036561 51
0.18487012 1.2529634 0.074340299 61
0.1926136 1.242721 0.093860678 52
0.19717476 1.2366879 0.11372216 13
0.2056593 1.2254653 0.13182132 47
0.17835245 1.2615845 0.16512655 68
0.1886861 1.2513999 0.010506349 40
0.16634691 1.2811637 0.033495013 28
0.17924225 1.2639825 0.054036561 51
0.19609112 1.2415338 0.072390392 63
0.19189432 1.2471254 0.094486415 52
0.20351994 1.2316358 0.11219569 14
0.20959082 1.2235472 0.13092151 32
0.18007067 1.2628788 0.16512655 68
0.19036871 1.2526581 0.010506349 68
0.18961352 1.2536716 0.031610917 30
0.18096882 1.2652737 0.054036561 51
0.18825072 1.2555007 0.074340299 100
0.19710276 1.2436204 0.093547814 65
0.21569061 1.2186738 0.10876112 14
0.2111761 1.2247328 0.13092151 32
0.17948487 1.2672653 0.16616182 68
0.1908665 1.2555182 0.010541254 81
0.20674461 1.2340524 0.030250182 65
0.17796054 1.272966 0.054733805 75
0.19585013 1.2487808 0.073121607 78
0.20345706 1.2384969 0.092296332 80
0.19741109 1.2466705 0.11524864 13
0.22087765 1.2149458 0.1277722 32
0.18122292 1.2685556 0.16616182 68
0.18537542 1.2663763 0.010750682 79
0.20592055 1.2384074 0.030459527 65
0.17963049 1.274197 0.054733805 75
0.19979018 1.246753 0.072634131 78
0.206182 1.2380515 0.091983467 93
0.20945418 1.2335969 0.11181407 14
0.22581598 1.211323 0.12642249 24
0.18745294 1.263548 0.16409127 69
0.19417962 1.2579515 0.010541254 95
0.19932023 1.2509019 0.03119223 63
0.18491444 1.2706573 0.054210871 100
0.19794765 1.2527843 0.073365346 93
0.20549014 1.2424409 0.092609204 93
0.2110745 1.2347828 0.11181407 14
0.2468777 1.1856844 0.11877415 17
0.19145444 1.2616887 0.163056 70
0.20526558 1.2462319 0.010262015 84
0.21271241 1.2359445 0.030145511 98
0.18783256 1.2703147 0.054036561 77
0.20312706 1.2491862 0.072634131 78
0.20482475 1.246841 0.093234941 92
0.22190857 1.2232406 0.10876112 14
0.23233294 1.2088399 0.12507279 16
0.19657129 1.2582426 0.16150309 70
0.19292718 1.2669194 0.010680873 80
0.21434093 1.2371191 0.030145511 65
0.19306913 1.2667218 0.053513627 100
0.2071186 1.24717 0.072146654 79
0.20879677 1.2448345 0.092609204 100
0.20859933 1.2451093 0.11372216 13
0.23045519 1.2146937 0.12642249 8
0.1903865 1.2704551 0.16512655 68
0.19930884 1.2616508 0.010541254 95
0.21365389 1.2415398 0.030354854 65
0.19017723 1.2744529 0.054210871 100
0.21339732 1.2418995 0.071171694 81
0.21160343 1.2444146 0.092296332 100
0.20797974 1.2494948 0.1144854 20
0.23427269 1.2126334 0.12552269 16
0.1876483 1.2779984 0.16719711 67
0.20333824 1.2596079 0.010471444 82
0.22568908 1.2280407 0.029412808 100
0.19194031 1.2757058 0.054210871 100
0.19898719 1.2657531 0.074584037 91
0.22239339 1.2326953 0.089793384 97
0.20284867 1.2602994 0.1167751 33
0.2324414 1.2185041 0.12687239 16
0.20281976 1.2603402 0.16098544 72
0.20734909 1.257543 0.010401634 97
0.21695402 1.2438765 0.030354854 65
0.195999 1.2736925 0.053862248 100
0.21327564 1.2491102 0.071902916 64
0.22287464 1.2354523 0.090106249 100
0.20004672 1.2679331 0.11830158 78
0.2306473 1.2243929 0.12822211 40
0.20453349 1.2615491 0.16098544 72
0.20905301 1.258736 0.010401634 83
0.22089565 1.24176 0.030145511 65
0.20687887 1.2618526 0.052467756 100
0.21835741 1.2453985 0.071171694 65
0.22450137 1.2365913 0.090106249 96
0.21301964 1.25305 0.1144854 100
0.22554559 1.2350945 0.13092151 80
0.2051461 1.2643365 0.16150309 70
0.21531463 1.253347 0.010262015 98
0.21913341 1.2478321 0.030459527 97
0.1983898 1.2777896 0.054036561 100
0.22453916 1.2400252 0.07019674 82
0.22275844 1.2425969 0.091044858 100
0.22253135 1.2429248 0.11181407 91
0.23160857 1.2298156 0.1291219 88
0.20577401 1.2671255 0.16202073 70
0.21020803 1.2644004 0.010471444 96
0.22872218 1.2374622 0.029726824 100
0.20354995 1.2740879 0.053513627 100
0.21943563 1.2509742 0.071659178 80
0.23000443 1.2355964 0.089480512 100
0.21862414 1.2521548 0.11372216 100
0.23211178 1.2325302 0.12957181 96
0.20422876 1.2731003 0.16357364 69
0.21193588 1.2655835 0.010471444 82
0.22810486 1.2418807 0.029936166 66
0.20980272 1.2687106 0.05281638 100
0.22782847 1.2422858 0.07019674 82
0.23051843 1.2383425 0.089793384 100
0.21699017 1.2581742 0.11486702 100
0.23153192 1.2368567 0.13047162 96
0.21578485 1.2599411 0.15891489 73
0.21254674 1.2684164 0.010506349 40
0.23647246 1.2330782 0.029308135 34
0.21489665 1.2649455 0.052293446 80
0.21055937 1.2713517 0.074340299 100
0.23104772 1.2410905 0.090106249 100
0.2308037 1.241451 0.11066922 92
0.23207095 1.2395792 0.13092151 96
0.21966323 1.2579054 0.15787962 73
0.22089505 1.2595752 0.010296919 42
0.21349627 1.2705816 0.031610917 30
0.21987441 1.2610936 0.051770512 54
0.22883573 1.2477627 0.070684217 65
0.23371372 1.2405062 0.089793384 100
0.23894051 1.2327309 0.10837951 94
0.22928116 1.2471001 0.13272113 100
0.21589422 1.2670145 0.1604678 72
0.222606 1.260721 0.010296919 42
0.21524566 1.2717532 0.031610917 30
0.21937913 1.2655576 0.052119136 54
0.23270878 1.2455783 0.07019674 99
0.23206908 1.2465371 0.090731993 95
0.23619929 1.2403464 0.10990598 85
0.23960075 1.2352481 0.1291219 96
0.21655899 1.2697847 0.16098544 72
0.21981794 1.2684726 0.010436539 41
0.21249962 1.279521 0.032029606 30
0.21772352 1.2716345 0.05264207 53
0.22661406 1.2582126 0.071902916 64
0.24019623 1.2377076 0.088854775 98
0.23450825 1.2462947 0.11105084 84
0.24222142 1.2346503 0.128672 97
0.21928498 1.2692771 0.1604678 72
0.22375688 1.2662801 0.010366729 27
0.22963998 1.2573308 0.030564198 32
0.22604325 1.262802 0.051596198 54
0.23704371 1.2460682 0.069953002 99
0.24183074 1.2387862 0.088854775 98
0.22970209 1.2572362 0.11334054 100
0.24384522 1.2357217 0.128672 97
0.22951937 1.2575142 0.1563267 74
0.22986168 1.2607167 0.01022711 28
0.2335256 1.2551005 0.030354854 32
0.22449955 1.2689359 0.052119136 54
0.23328421 1.2554705 0.071171694 81
0.24346897 1.2398591 0.088854775 100
0.24213192 1.2419086 0.10952436 92
0.24653754 1.2351555 0.12822211 89
0.23227862 1.2570119 0.15580906 75
0.22505593 1.2719028 0.010436539 41
0.23956263 1.249496 0.029936166 33
0.22624314 1.2700691 0.052119136 54
0.24145374 1.2465751 0.069709264 66
0.2461845 1.2392681 0.08854191 98
0.24164715 1.2462764 0.1102876 92
0.24710402 1.2378478 0.128672 89
0.22978094 1.2646047 0.15787962 73
0.24202624 1.2495344 0.0099478718 43
0.23808429 1.2556722 0.030250182 65
0.23884478 1.254488 0.05037602 56
0.24642068 1.2426919 0.068978049 50
0.2447041 1.2453647 0.089480512 100
0.24551669 1.2440995 0.10952436 85
0.2530331 1.2323959 0.12687239 90
0.22637618 1.2739024 0.1604678 72
0.23510414 1.2640972 0.01022711 70
0.24836886 1.2432837 0.029412808 67
0.23090062 1.2706928 0.051944822 81
0.24380502 1.2504448 0.069953002 49
0.24955025 1.24143 0.08854191 70
0.24928376 1.2418482 0.10876112 79
0.26198038 1.2219262 0.12372308 83
0.22502229 1.2799164 0.16202073 63
0.23567525 1.2668285 0.010262015 84
0.24993998 1.2442814 0.029412808 100
0.23788887 1.2633296 0.051073264 83
0.24327728 1.2548126 0.070440479 49
0.26167655 1.2257303 0.085413218 73
0.24035361 1.2594337 0.1125773 82
0.25722927 1.2327598 0.12642249 99
0.2349779 1.2679307 0.15787962 65
0.244854 1.2560674 0.010017681 72
0.25265929 1.2436343 0.029308135 100
0.24067214 1.2627287 0.050898954 83
0.24708238 1.2525178 0.069953002 49
0.25276613 1.2434642 0.08854191 70
0.25250247 1.2438842 0.10876112 79
0.25988251 1.2321285 0.12597258 90
0.24288085 1.2592105 0.15477379 67
0.25297964 1.2469976 0.0098082526 74
0.24911863 1.2531981 0.029831495 99
0.23826757 1.2706243 0.051596198 82
0.25514868 1.2435142 0.068490572 50
0.25450346 1.2445505 0.08854191 70
0.24801484 1.2549708 0.11105084 100
0.2553978 1.2431142 0.128672 97
0.23650676 1.273452 0.15891489 65
0.24518678 1.2633421 0.010122396 85
0.25605613 1.24575 0.029308135 100
0.24525318 1.2632346 0.05072464 84
0.25680336 1.2445406 0.068490572 50
0.26342982 1.2338156 0.086351827 58
0.26106071 1.2376499 0.10685304 66
0.26524544 1.230877 0.12507279 92
0.24232772 1.2679695 0.15684435 66
0.2446467 1.2677062 0.010192205 85
0.26486337 1.2347543 0.028575432 100
0.23534322 1.2828703 0.05264207 79
0.25206703 1.2556114 0.069953002 49
0.26488835 1.2347136 0.086351827 58
0.25021124 1.2586364 0.11143246 84
0.26975197 1.2267861 0.12372308 92
0.23985264 1.2755201 0.15891489 65
0.25054497 1.2619365 0.010052586 86
0.25402531 1.2562191 0.029831495 100
0.24749514 1.2669468 0.050898954 83
0.2578927 1.249866 0.068978049 50
0.26959363 1.230644 0.085413218 58
0.2519187 1.2596798 0.11143246 91
0.27438799 1.2227678 0.12237337 85
0.2496551 1.2633984 0.15477379 67
0.25639918 1.2561319 0.0099129668 87
0.25778943 1.25383 0.029622151 100
0.25232172 1.2628832 0.05037602 100
0.25649074 1.2559804 0.069709264 33
0.26711836 1.2383835 0.086664692 71
0.26479447 1.2422314 0.10723466 73
0.27093282 1.2320678 0.12462288 83
0.25137922 1.2644439 0.15477379 67
0.25604224 1.2605845 0.0099827768 87
0.26461297 1.2462809 0.029098792 100
0.25097182 1.2690465 0.050898954 83
0.26124987 1.2518935 0.068978049 50
0.2626631 1.249535 0.08854191 70
0.26543549 1.2449081 0.10761628 87
0.26954255 1.2380539 0.12597258 90
0.25509286 1.2621689 0.15373851 68
0.26286566 1.2530131 0.0098082526 74
0.26831841 1.2438406 0.028889447 100
0.24864325 1.2769377 0.051596198 82
0.27104869 1.2392477 0.067028143 51
0.27241397 1.236951 0.086038955 58
0.26107571 1.2560241 0.10990598 78
0.27715281 1.2289795 0.12327318 76
0.252864 1.2698376 0.15580906 67
0.255411 1.2695146 0.010122396 85
0.27809083 1.231058 0.028052073 100
0.25243884 1.2745543 0.051247578 100
0.26462114 1.2538977 0.068978049 50
0.2720387 1.2413201 0.086664692 57
0.26277402 1.2570297 0.10990598 85
0.28469625 1.2198576 0.12057377 77
0.25461057 1.2708719 0.15580906 67
0.26733884 1.2533293 0.0097733475 89
0.26969978 1.2492921 0.029098792 100
0.25630176 1.2722018 0.050898954 83
0.26940301 1.2497996 0.068246834 34
0.28074861 1.2303995 0.084474608 59
0.26753432 1.252995 0.10876112 79
0.28142795 1.2292379 0.12282328 85
0.26034936 1.2652807 0.15373851 68
0.26501381 1.2612317 0.0099129668 87
0.26937002 1.2537229 0.029308135 100
0.27005425 1.2525434 0.048807215 88
0.26609883 1.2593615 0.069465525 49
0.277401 1.2398798 0.086038955 58
0.27217758 1.2488835 0.10761628 79
0.28009892 1.2352295 0.12417299 83
0.26401883 1.2629467 0.15270324 68
0.26972255 1.2570239 0.0098082526 74
0.26906782 1.2581617 0.029517479 100
0.26776519 1.2604251 0.049504463 86
0.27572989 1.2465852 0.067515619 51
0.28002816 1.2391164 0.08572609 58
0.27580938 1.2464472 0.10685304 81
0.28561255 1.2294127 0.12237337 76
0.26573282 1.2639567 -0.0099478718 86
0.26766846 1.2605932 0.15166797 69
0.27538979 1.2510527 0.0096686333 90
0.2747342 1.2522012 0.029098792 100
0.25663808 1.2839013 0.051770512 81
0.27739516 1.2475398 0.067515619 51
0.27970868 1.243487 0.086351827 58
0.27358094 1.2542214 0.10837951 79
0.28915003 1.226948 0.12147357 86
0.25980529 1.2783531 0.15684435 66
0.27214411 1.2607088 0.0098431576 88
0.2862601 1.2357793 0.028052073 100
0.26236051 1.2779872 0.051073264 83
0.27906376 1.2484884 0.067515619 51
0.29109633 1.2272382 0.083223134 60
0.27333817 1.2586001 0.10914274 78
0.29170686 1.2261599 0.12102367 86
0.26158154 1.2793629 0.15684435 74
0.27092102 1.2669064 0.0099478718 73
0.27810726 1.2541111 0.029098792 100
0.26901373 1.2703023 0.050201707 100
0.27879149 1.2528929 0.068003096 51
0.28979203 1.2333062 0.084161744 74
0.27119985 1.2664099 0.11066922 92
0.29139221 1.2304571 0.12192347 85
0.27092934 1.2668916 0.15270324 68
0.27654979 1.2608898 0.0098082526 89
0.28368658 1.248078 0.028680105 100
0.27657926 1.2608368 0.049155839 87
0.27951273 1.2555708 0.068246834 34
0.28948826 1.237663 0.084787481 73
0.28439915 1.2467988 0.1060898 73
0.29300106 1.2313569 0.12192347 76
0.27557665 1.2626367 -0.0098431576 87
0.27548584 1.2627997 0.15115032 77
0.28600121 1.2478387 0.0095290141 76
0.28922039 1.2420119 0.028261416 100
0.27925777 1.2600443 0.048981529 87
0.28120932 1.2565119 0.068246834 34
0.29303282 1.2351115 0.084161744 59
0.28511569 1.2494415 0.10647142 81
0.28707397 1.2458969 0.12552269 82
0.27536389 1.2670922 -0.0099129668 87
0.27440506 1.2688277 0.15270324 76
0.28758723 1.2487115 0.0095290141 92
0.288867 1.2463769 0.02847076 100
0.27705348 1.2679279 0.049678773 86
0.28091574 1.2608821 0.068734311 67
0.28982896 1.244622 0.08572609 58
0.28859445 1.2468741 0.10570818 81
0.29802081 1.2296779 0.12102367 86
0.27701381 1.2680002 -0.0099129668 87
0.27420354 1.273127 0.15373851 68
0.27875382 1.2689501 0.0099129668 87
0.29053146 1.2472855 0.02847076 100
0.27689004 1.2723784 0.050027397 85
0.28926769 1.2496102 0.067028143 51
0.29337424 1.2420563 0.085100345 58
0.28182146 1.2633073 0.10914274 92
0.27688414 1.2723894 0.15322088 76
0.2824817 1.2664202 0.0098431576 88
0.2941775 1.2447169 0.028261416 100
0.27873316 1.2733762 0.050027397 85
0.29102731 1.2505625 0.067028143 51
0.29108217 1.2504607 0.1060898 66
0.29946765 1.2349002 0.12192347 85
0.28817356 1.2558581 -0.0096337283 89
0.28147671 1.268285 0.15166797 77
0.29458359 1.2479508 0.009459204 77
0.29018804 1.256176 0.028889447 100
0.29739487 1.2426901 0.046889789 91
0.28896391 1.2584667 0.068003096 51
0.29862082 1.2403961 0.084474608 59
0.29646218 1.2444355 0.10456333 75
0.28610113 1.2638237 -0.0097733475 88
0.28868079 1.2589965 0.14856213 71
0.29531717 1.2506064 0.0094941091 92
0.29562747 1.2500209 0.02847076 100
0.29531476 1.2506109 0.047587037 90
0.29438856 1.2523588 0.067028143 51
0.29841444 1.2447617 0.085100345 58
0.28782651 1.2647419 -0.0097733475 88
0.29310301 1.2547847 0.14700922 81
0.29420587 1.256803 0.0095988233 91
0.29544654 1.254442 0.028680105 100
0.29699397 1.251497 0.047587037 90
0.29607385 1.2532481 0.067028143 51
0.29886729 1.247932 0.10494494 75
0.28491217 1.27449 0.15270324 68
0.29775465 1.2541461 0.0095290141 92
0.28578785 1.2771146 0.050027397 85
0.29592779 1.2576525 0.067515619 51
0.28759092 1.2736537 -0.0099129668 87
0.29203054 1.2651327 0.14959741 70
0.29302171 1.2674601 0.0097733475 89
0.2939606 1.2656426 0.048807215 58
0.29489833 1.2638273 0.068246834 51
0.29026839 1.2727901 -0.0098780617 100
0.29553375 1.2625973 0.14856213 71
0.29933843 1.2594143 0.067515619 51
0.29901606 1.2600437 0.14752686 79
0.29895109 1.2726471 0.049155839 29
0.29624349 1.2780683 -0.0099129668 100
0.29979303 1.2753668 -0.0098431576 100
0.29979664 1.2798274 -0.0099129668 100
0.29982835 1.2842941 -0.0099827768 100
