# .PCD v0.7 - Point Cloud Data file format
VERSION 0.7
FIELDS x y z intensity
SIZE 4 4 4 4
TYPE F F F F
COUNT 1 1 1 1
WIDTH 724
HEIGHT 1
VIEWPOINT 0 0 0 1 0 0 0
POINTS 724
DATA ascii
0.056764811 0.010194063 0.015811881 100
0.050840765 0.0010684133 0.04804441 51
0.04645294 0.00020617247 0.016056214 25
0.053626418 0.011172593 0.047521047 31
0.044385672 0.0029042959 0.048149079 100
0.036513507 0.008151412 0.048149079 35
0.040458679 0.019951105 0.047521047 19
0.029946923 0.010197163 0.048253752 17
0.023896337 0.0070844293 0.048567768 8
0.030165672 0.027047753 0.047521047 9
-1.056226 1.1375798 0.028761566 5
-1.0055957 1.1259933 0.083632857 5
-1.0445309 1.1349034 0.14310972 6
-1.0296125 1.1372967 0.028307803 10
-0.9887808 1.1278024 0.082795486 16
-1.0199602 1.1350523 0.14101799 32
-0.99329025 1.1345339 0.027679516 27
-1.0069602 1.1377628 0.083842203 84
-1.0186763 1.1405302 0.14101799 84
-0.98034126 1.1371199 0.027470088 38
-1.0153778 1.145525 0.084365562 100
-1.0076861 1.1436799 0.14014643 87
-0.98487908 1.1438794 0.027574802 42
-0.98106855 1.1429511 0.082586139 100
-1.0083082 1.1495864 0.14032075 87
-0.99340385 1.1510963 0.027749326 25
-0.97795027 1.1472806 0.082481466 100
-1.0013051 1.1530473 0.13979781 86
-0.9862451 1.1550231 0.027644612 23
-0.98049873 1.1535828 0.082690813 52
-0.99222809 1.1565225 0.13910057 84
-0.96537715 1.1559831 0.027295563 39
-0.97901458 1.1594567 0.082690813 35
-0.98494035 1.160966 0.13857763 78
-0.96014839 1.1602697 0.027225753 61
-0.99118191 1.1682898 0.083423518 58
-0.98356622 1.1663216 0.13857763 91
-0.95877689 1.1655388 0.027225753 67
-0.9704625 1.1686022 0.082376793 100
-0.98410076 1.1721776 0.13875194 91
-0.95931953 1.1713169 0.027260659 75
-0.95748073 1.1708279 0.081748761 90
-0.98076206 1.1770182 0.13857763 94
-0.96177107 1.177624 0.027330469 75
-0.95028716 1.1745276 0.081434749 96
-0.96778983 1.1792469 0.13753176 100
-0.94490761 1.1786799 0.027051231 88
-0.94886595 1.1797621 0.081434749 100
-0.9567427 1.1819155 0.1366602 100
-0.94168907 1.1828411 0.027016325 89
-0.95334595 1.1860671 0.081748761 100
-0.9669624 1.1898357 0.13770607 91
-0.94408971 1.1891257 0.027086135 93
-0.93457729 1.1864572 0.080806717 88
-0.95589596 1.1924376 0.13683452 98
-0.94831365 1.1962404 0.027190849 74
-0.93496197 1.1924422 0.08091139 78
-0.95242125 1.1974089 0.1366602 100
-0.96410972 1.2064528 0.027504992 48
-0.93539745 1.1981763 0.081016064 44
-0.94709128 1.2015471 0.13631158 99
-0.94345802 1.205869 0.027155945 48
-0.93780392 1.2042189 0.081225403 22
-0.94756454 1.2070675 0.13648589 84
-0.92083329 1.204843 0.026771991 71
-0.92478722 1.206012 0.080597371 26
-0.94602972 1.2122923 0.13648589 85
-0.91746753 1.2091448 0.026737086 78
-0.91567963 1.2086098 0.080178685 32
-0.93310231 1.2138237 0.13544002 98
-0.91592568 1.2142646 0.026737086 81
-0.91605109 1.2143027 0.080283359 78
-0.93345076 1.2195758 0.13561434 99
-0.92201275 1.2217256 0.026876707 85
-0.91067249 1.2182455 0.080074012 100
-0.92806298 1.2235823 0.13526571 100
-0.9089691 1.2233012 0.026667276 88
-0.91482085 1.2251192 0.080388032 86
-0.92076272 1.2269654 0.13474278 77
-0.89966804 1.2262442 0.026527658 88
-0.91504806 1.2310846 0.080492698 70
-0.91337651 1.2305586 0.13421984 56
-0.89806658 1.2313017 0.026527658 88
-0.9001084 1.2319522 0.07976 76
-0.91175991 1.2356639 0.13421984 42
-0.8964476 1.2363536 0.026527658 85
-0.89088351 1.2345597 0.079341307 95
-0.90822929 1.2401521 0.13404553 45
-0.89861304 1.2426403 0.026597468 96
-0.89115185 1.240206 0.07944598 100
-0.90847343 1.2458575 0.13421984 59
-0.88564366 1.2436821 0.026388038 100
-0.8952747 1.2468598 0.07976 100
-0.90310329 1.2494428 0.13387123 80
-0.87639433 1.2461578 0.02624842 100
-0.89170688 1.2512695 0.079655327 100
-0.89953095 1.2538812 0.13369691 84
-0.87851268 1.2524135 0.02631823 100
-0.88812584 1.2556599 0.079550654 100
-0.90538365 1.261488 0.13439415 75
-0.87303537 1.2561042 0.02624842 96
-0.86941153 1.2548664 0.07860861 100
-0.90177375 1.2659211 0.13421984 89
-0.88267022 1.2649868 0.026457848 93
-0.87337369 1.2617748 0.078922622 100
-0.88685173 1.2664313 0.13299966 100
-0.86960703 1.266027 0.02624842 81
-0.86599201 1.2647638 0.07860861 93
-0.8945145 1.27473 0.13387123 59
-0.85655421 1.2669821 0.026038991 77
-0.87178904 1.2723651 0.079027295 59
-0.88898677 1.2784417 0.1335226 43
-0.8642264 1.2752528 0.026213514 88
-0.84745675 1.2692616 0.077771232 23
-0.8947081 1.2861428 0.13421984 40
-0.86433488 1.2808657 0.02624842 96
-0.85697633 1.2782077 0.078399263 46
-0.88540214 1.2884752 0.1335226 26
-0.87005657 1.288543 0.026388038 99
-0.85706991 1.2838008 0.078503937 85
-0.86673981 1.2873319 0.13195379 15
-0.84206384 1.2835594 0.025899371 99
-0.8553583 1.2884641 0.078503937 100
-0.85567027 1.2885792 0.13108224 9
-0.83276802 1.2856209 0.025759751 100
-0.8329547 1.2856905 0.077352546 91
-0.89492172 1.3087974 0.1349171 1
-0.83461112 1.2920966 0.025829561 100
-0.83666188 1.2928698 0.077666558 48
-0.87056607 1.305654 0.13282534 1
-0.84772927 1.302623 0.0261088 88
-0.82736284 1.2948623 0.077247873 51
-0.83889896 1.2992582 0.13003637 11
-0.84035653 1.3051004 0.026004085 74
-0.83679861 1.3037311 0.077875905 68
-0.85387105 1.3103018 0.13160518 50
-0.8310253 1.3070514 0.025864467 75
-0.83865005 1.3100164 0.078085244 74
-0.85011965 1.3144767 0.13143086 100
-0.82169741 1.3089437 0.025724847 90
-0.83303875 1.3133997 0.077875905 61
-0.83337539 1.313532 0.13003637 99
-0.81794924 1.3129908 0.025689943 100
-0.82742077 1.3167503 0.077666558 89
-0.83887702 1.3212979 0.13073361 99
-0.81604546 1.3177625 0.025689943 100
-0.82179624 1.3200685 0.077457212 97
-0.83879346 1.326884 0.13090792 100
-0.82524568 1.3270319 0.025899371 100
-0.82171899 1.3256034 0.077561885 95
-0.82945448 1.3287365 0.13021068 100
-0.79128414 1.3132761 0.1776855 15
-0.80848652 1.3257716 0.025620133 100
-0.81792265 1.3296319 0.077457212 97
-0.81089932 1.3267586 0.12864187 100
-0.80591506 1.3247194 0.17987914 15
-0.80284196 1.3289828 0.025550323 100
-0.81411499 1.3336408 0.077352546 99
-0.81263036 1.3330274 0.1289905 100
-0.7874586 1.3226266 0.1776855 16
-0.79728967 1.3319263 0.025480513 100
-0.80117828 1.3335483 0.076724514 100
-0.81075579 1.3375429 0.1289905 100
-0.78928298 1.3285871 0.17817298 22
-0.79900581 1.3381784 0.025550323 100
-0.78631824 1.3328345 0.075991809 99
-0.81611115 1.3453828 0.12968774 100
-0.78366607 1.3317175 0.1776855 24
-0.80437499 1.3460143 0.025689943 96
-0.79353517 1.3414042 0.076515168 72
-0.80309361 1.3454692 0.12864187 99
-0.76525646 1.3293772 0.17549185 16
-0.80235606 1.3507384 0.025689943 61
-0.81906039 1.3579117 0.078085244 42
-0.79924589 1.3494029 0.12846756 33
-0.80524844 1.3519804 0.18109785 5
-0.8058247 1.3578418 0.025794657 90
-0.813335 1.3610981 0.077875905 89
-0.83377463 1.3699601 0.13195379 52
-0.77771074 1.3456526 0.1776855 11
-0.79643697 1.3593636 0.025655037 100
-0.80760401 1.3642516 0.077666558 100
-0.82254595 1.370792 0.13108224 100
-0.78842288 1.3558557 0.17939167 33
-0.79985863 1.3664846 0.025759751 100
-0.80734831 1.3697942 0.077771232 100
-0.82226282 1.3763847 0.13125655 100
-0.77184397 1.3541052 0.17744176 35
-0.79959458 1.3720076 0.025794657 100
-0.80707043 1.3753422 0.077875905 100
-0.80558115 1.3746779 0.12986206 100
-0.78248733 1.3643765 0.17914793 29
-0.79201478 1.3742518 0.025689943 100
-0.81405491 1.3841755 0.078399263 100
-0.79619533 1.3761342 0.12916481 100
-0.78402454 1.3706541 0.17963541 21
-0.78989738 1.3789327 0.025689943 100
-0.8155393 1.3905859 0.07860861 100
-0.80858225 1.3874242 0.1305593 100
-0.76926929 1.369558 0.17792924 18
-0.79321653 1.3861072 0.025794657 100
-0.80973393 1.3936834 0.078399263 100
-0.81366259 1.3954854 0.13125655 100
-0.77077705 1.3758147 0.17841671 17
-0.79468709 1.3924723 0.025864467 100
-0.80029875 1.3950698 0.077980578 100
-0.81147093 1.4002416 0.13125655 100
-0.77225715 1.3820891 0.17890419 10
-0.79431778 1.3980086 0.025899371 100
-0.80715626 1.4040062 0.078503937 100
-0.80204219 1.4016171 0.1305593 100
-0.78090364 1.3917421 0.18036664 7
-0.79211742 1.4026973 0.025899371 100
-0.81396776 1.412998 0.079027295 100
-0.79982919 1.4063327 0.1305593 100
-0.77154297 1.3929982 0.17939167 3
-0.78990072 1.4073784 0.025899371 100
-0.81171507 1.4177551 0.079027295 100
-0.80119818 1.4127524 0.13090792 100
-0.77294546 1.399313 0.17987914 3
-0.78947049 1.4129169 0.025934275 100
-0.80404383 1.4199119 0.078713275 100
-0.80972344 1.4226379 0.13195379 100
-0.80173045 1.4243255 0.026213514 100
-0.79648811 1.4217877 0.078399263 100
-0.8147251 1.4306157 0.13265105 100
-0.79764134 1.4281623 0.02617861 100
-0.80497271 1.4317428 0.079027295 100
-0.79808849 1.4283807 0.13125655 100
-0.7918635 1.4308605 0.0261088 100
-0.80993789 1.4397621 0.07944598 100
-0.80304736 1.4363686 0.13195379 100
-0.7931301 1.43732 0.02617861 100
-0.81116897 1.4462824 0.079655327 100
-0.80785018 1.4446335 0.13265105 100
-0.79425043 1.444031 0.02624842 100
-0.803325 1.4485812 0.079341307 100
-0.81249255 1.4531779 0.13334829 100
-0.79200786 1.448485 0.02624842 100
-0.79928488 1.4521642 0.079236634 100
-0.81199771 1.4585913 0.1335226 100
-0.79675704 1.4567993 0.026388038 100
-0.80401248 1.4604993 0.079655327 100
-0.80958575 1.4633415 0.1335226 100
-0.79447204 1.4612615 0.026388038 100
-0.80526775 1.466812 0.079864666 100
-0.8037352 1.4660242 0.13317397 100
-0.78470844 1.462734 0.02624842 100
-0.8025822 1.4720107 0.079864666 100
-0.80458945 1.4730525 0.1335226 100
-0.79303473 1.4727187 0.026457848 100
-0.79670745 1.4746404 0.079655327 100
-0.80931205 1.4812355 0.13421984 100
-0.79057366 1.4774024 0.026457848 92
-0.78894037 1.4765406 0.079341307 100
-0.8085832 1.4869058 0.13439415 99
-0.80764049 1.4921741 0.026841801 23
-0.7936433 1.4847286 0.07976 19
-0.80795735 1.4923427 0.13456847 52
0.12836489 1.2925382 0.13051336 5
0.16615948 1.2491113 0.010715778 13
0.13915417 1.2828195 0.03443706 27
0.14389306 1.2769043 0.056825545 23
0.13748002 1.284909 0.10449822 11
0.15596917 1.2618308 0.12249938 18
0.18325093 1.2277777 0.13542053 7
0.14777729 1.272056 0.17237349 7
0.15787551 1.2629681 0.010995016 64
0.17327315 1.2436106 0.031715591 61
0.14690524 1.2767596 0.056651235 47
0.15208882 1.2702429 0.078483857 14
0.15280661 1.2693405 0.10105667 23
0.16013271 1.2601304 0.12173614 87
0.19212982 1.2199044 0.13272113 23
0.14953223 1.2734571 0.17237349 14
0.16323134 1.2595583 0.010890301 100
0.18103641 1.2370213 0.03119223 100
0.14982307 1.27653 0.056476921 96
0.1660558 1.2559834 0.076046467 29
0.17038405 1.2505047 0.096989371 37
0.15932608 1.2645016 0.12249938 100
0.18879151 1.2272052 0.13452072 38
0.14641362 1.2808456 0.17444403 42
0.15136683 1.278213 0.011274255 100
0.1765056 1.2461638 0.031715591 100
0.15651223 1.2716532 0.055779677 100
0.1640791 1.2620063 0.076777689 29
0.17937854 1.2425013 0.095112152 25
0.16953626 1.255049 0.11982805 100
0.1939978 1.2238632 0.13317102 46
0.15058383 1.2792113 0.17340876 42
0.16780153 1.2606021 0.010855397 100
0.17440438 1.2521266 0.032029606 91
0.15328014 1.2792423 0.056476921 100
0.16815269 1.2601514 0.076290213 29
0.18337542 1.240611 0.094486415 26
0.17476645 1.2516618 0.1186832 100
0.19191197 1.2296532 0.13452072 31
0.15227464 1.280533 0.17340876 42
0.17563349 1.2540244 0.010680873 80
0.17364573 1.2565944 0.032238949 60
0.16724965 1.264864 0.054733805 75
0.17350942 1.2567706 0.07555899 30
0.17293498 1.2575133 0.097615108 24
0.18125454 1.2467568 0.11715672 19
0.18874964 1.2370663 0.13632034 22
0.14814958 1.2895588 0.17599694 27
0.18106288 1.2506344 0.010576159 67
0.17178333 1.2627234 0.032552965 29
0.16663966 1.2694244 0.055082429 50
0.18617454 1.2439753 0.073365346 46
0.17953557 1.2526243 0.096363634 50
0.18300444 1.2481052 0.11715672 13
0.19995666 1.2260206 0.13272113 23
0.15358549 1.2864308 0.17444403 56
0.17304629 1.2646433 0.010855397 52
0.17108437 1.2672179 0.032762308 29
0.15993181 1.2818522 0.056302611 48
0.18903446 1.2436634 0.073121607 78
0.19199845 1.2397741 0.093547814 52
0.19419542 1.2368913 0.11410378 13
0.20627534 1.2210398 0.13092151 48
0.16944194 1.2693731 0.16823238 67
0.16753617 1.2755244 0.011064826 38
0.18728277 1.2494242 0.031506244 31
0.17133772 1.2704997 0.054908119 50
0.19308546 1.2417544 0.072634131 78
0.1948323 1.2394456 0.093234941 53
0.19227377 1.2428273 0.11524864 13
0.20785186 1.2222369 0.13092151 40
0.17934644 1.2599142 0.16460891 69
0.17650872 1.2672629 0.010855397 39
0.15537325 1.2954025 0.03443706 27
0.18505257 1.2558877 0.053165004 52
0.18519703 1.2556953 0.074584037 61
0.20359114 1.2312057 0.09135773 54
0.19864264 1.237794 0.11372216 13
0.20709187 1.2265447 0.13182132 39
0.18221903 1.2596602 0.16409127 69
0.18294227 1.2620871 0.010715778 66
0.20966125 1.226267 0.029831495 33
0.1819008 1.2634833 0.053862248 51
0.19393104 1.2473553 0.073121607 78
0.19331157 1.2481858 0.094486415 52
0.20723885 1.2295145 0.11143246 14
0.20394707 1.2339276 0.13362093 31
0.17922455 1.2670712 0.16616182 76
0.19299239 1.2521161 0.010471444 82
0.20055881 1.2418981 0.030773543 64
0.18006861 1.2695688 0.054385185 51
0.20150617 1.2406187 0.071902916 96
0.19145626 1.2541904 0.095425025 63
0.20300326 1.238597 0.11334054 13
0.21832532 1.2179055 0.128672 32
0.18556052 1.2621523 0.16409127 69
0.17800745 1.2758511 0.010960111 90
0.20685858 1.2366182 0.030354854 65
0.17700583 1.2772132 0.055082429 75
0.19483644 1.2529664 0.073609084 77
0.20593697 1.2378714 0.091983467 93
0.20572218 1.2381635 0.11295892 13
0.21634892 1.2237128 0.13002171 24
0.18605006 1.2649145 0.16460891 69
0.1868498 1.2674558 0.010750682 79
0.20966709 1.2362 0.030250182 65
0.18582711 1.2688568 0.054036561 77
0.20237672 1.2461866 0.072390392 47
0.20873696 1.2374741 0.091670595 94
0.20851606 1.2377768 0.1125773 13
0.24206403 1.1918216 0.12057377 17
0.19005796 1.2630613 0.16357364 69
0.19345397 1.2623681 0.010611063 81
0.20208833 1.2504447 0.031087559 63
0.19358808 1.262183 0.053165004 100
0.19838628 1.2555568 0.073609084 62
0.21053445 1.238781 0.091670595 81
0.2057088 1.2454449 0.11410378 13
0.23797116 1.2008926 0.12282328 8
0.19875219 1.2550516 0.1604678 88
0.20217797 1.2538674 0.010401634 97
0.20843056 1.2451692 0.03066887 64
0.19298244 1.2666595 0.053513627 100
0.20240065 1.2535576 0.073121607 62
0.20294893 1.2527949 0.094173551 100
0.22226745 1.2259202 0.10914274 14
0.2554014 1.1798264 0.11652464 17
0.19142675 1.2688237 0.16460891 69
0.19922304 1.2615896 0.010541254 95
0.21705189 1.2366037 0.03004084 99
0.19240373 1.2711464 0.053862248 100
0.21562102 1.2386091 0.070684217 81
0.21496278 1.2395315 0.09135773 94
0.2067557 1.2510332 0.11486702 20
0.23985502 1.2046467 0.12327318 17
0.19653648 1.2653546 0.163056 70
0.20094115 1.2628111 0.010541254 95
0.21637383 1.2410228 0.030250182 98
0.19185203 1.2756433 0.054210871 100
0.21266928 1.246253 0.071659178 96
0.22231263 1.2326382 0.089793384 100
0.20276311 1.2602388 0.1167751 26
0.23461589 1.2152681 0.12597258 16
0.19826776 1.2665855 0.163056 70
0.20257729 1.2639658 0.010541254 95
0.22023565 1.2388592 0.03004084 66
0.20040801 1.2670501 0.053165004 100
0.2096824 1.2538638 0.072634131 63
0.21930295 1.2401854 0.091044858 100
0.20100239 1.2662051 0.11791996 65
0.23048872 1.2242814 0.12822211 40
0.19769368 1.2709094 0.16409127 69
0.20888242 1.258617 0.010401634 97
0.22187427 1.2400075 0.03004084 66
0.20442617 1.2650001 0.05281638 100
0.21478248 1.2501657 0.071902916 64
0.22433853 1.2364777 0.090106249 96
0.2038604 1.2658105 0.11753834 100
0.22538328 1.2349812 0.13092151 80
0.20829114 1.259464 0.15995017 72
0.21286801 1.2565174 0.010331824 84
0.22010419 1.2460749 0.030354854 97
0.20615616 1.2662034 0.05281638 100
0.21532997 1.2529646 0.072146654 79
0.22484371 1.2392353 0.090419121 100
0.22012988 1.2460378 0.1125773 100
0.22256857 1.2425185 0.13272113 94
0.20339987 1.2701809 0.163056 70
0.21230191 1.2609866 0.010401634 97
0.22516352 1.2422867 0.03004084 99
0.20563218 1.2706838 0.053165004 100
0.21926776 1.2508588 0.071659178 64
0.22312531 1.2452501 0.09135773 94
0.22290614 1.2455688 0.11219569 91
0.22753298 1.2388418 0.13137141 94
0.20952702 1.265021 0.16098544 72
0.21176291 1.2654655 0.010471444 82
0.22343582 1.2483664 0.030354854 65
0.20288864 1.2784648 0.053862248 100
0.21870983 1.2552893 0.072146654 63
0.22812748 1.2414938 0.090419121 100
0.23231655 1.2353575 0.10952436 92
0.23576388 1.2303077 0.128672 97
0.20907861 1.2693975 0.16202073 70
0.21237278 1.2682986 0.010506349 54
0.22734827 1.2461965 0.030145511 65
0.21472391 1.2648286 0.052293446 80
0.2237463 1.2515125 0.071415432 64
0.23531547 1.2344378 0.088854775 98
0.22182921 1.254342 0.11372216 100
0.23190707 1.2394682 0.13092151 96
0.21732569 1.2609886 0.15891489 73
0.21617284 1.2660388 0.010436539 41
0.21992493 1.2604635 0.030982886 31
0.22184211 1.2576147 0.051421888 55
0.23080227 1.2443007 0.07019674 82
0.2389819 1.2321465 0.088229038 98
0.22773695 1.2488556 0.11219569 91
0.23555955 1.2372317 0.13002171 96
0.22749862 1.2492096 0.15477379 75
0.21568501 1.2705269 0.010506349 40
0.21276435 1.2748995 0.03182026 30
0.2191197 1.2653844 0.052119136 54
0.23025468 1.2487135 0.070684217 98
0.23401394 1.2430853 0.090106249 96
0.23377219 1.2434472 0.11066922 85
0.23394528 1.243188 0.13137141 94
0.22273535 1.2599713 0.15787962 73
0.22406346 1.2616903 0.010296919 28
0.21673587 1.2727442 0.031610917 30
0.22525427 1.2598939 0.051421888 55
0.23521805 1.244863 0.069953002 99
0.23675868 1.2425389 0.089793384 100
0.23868096 1.239639 0.10952436 92
0.2399058 1.2377913 0.12957181 96
0.22017813 1.2675514 0.15995017 72
0.23017794 1.2561426 0.0101573 28
0.20971116 1.2872529 0.032448292 29
0.22039613 1.2710114 0.052467756 53
0.23360449 1.2509341 0.070684217 65
0.24166709 1.2386786 0.088854775 100
0.23924318 1.2423631 0.10990598 85
0.24903786 1.2274747 0.12642249 99
0.2144846 1.2799971 0.16357364 69
0.22313118 1.2706513 0.010436539 41
0.22243753 1.2717137 0.031401575 31
0.22759303 1.2638173 0.051596198 54
0.23311475 1.25536 0.071171694 65
0.24654472 1.2347898 0.087916173 84
0.23982066 1.2450888 0.1102876 85
0.24957123 1.2301543 0.12687239 99
0.22894028 1.2617538 0.15736198 74
0.24227846 1.2449377 0.0098780617 44
0.2328791 1.2594447 0.030564198 32
0.23690245 1.2532351 0.05037602 56
0.23265207 1.2597951 0.071659178 80
0.2449466 1.2408197 0.088854775 98
0.24361598 1.2428734 0.10952436 85
0.24694073 1.2377419 0.128672 89
0.23486063 1.2563864 0.15529142 75
0.24185887 1.2494268 0.0099478718 43
0.23899466 1.2538831 0.030145511 65
0.23652118 1.2577314 0.05072464 56
0.23981589 1.2526054 0.070440479 49
0.24560621 1.2435963 0.089167647 84
0.24853569 1.2390385 0.10837951 87
0.2507644 1.2355709 0.1277722 97
0.23246738 1.2640387 0.15736198 74
0.24353424 1.2504995 0.0099478718 73
0.24712965 1.2448623 0.029517479 67
0.23072588 1.2705815 0.051944822 54
0.24897465 1.2419696 0.068734311 84
0.24726126 1.2446561 0.089167647 70
0.24806333 1.2433984 0.10914274 71
0.25343931 1.2349696 0.1273223 97
0.23211616 1.2684016 0.15839726 73
0.24512932 1.2515131 0.0099478718 73
0.24977443 1.2441766 0.029412808 100
0.22705856 1.2800541 0.05281638 79
0.2494795 1.2446425 0.068978049 67
0.2551772 1.2356435 0.087290429 71
0.24228325 1.2560081 0.11181407 98
0.25811023 1.2310112 0.12597258 99
0.23067039 1.2743496 0.15995017 64
0.23404616 1.2728933 0.010366729 69
0.24505633 1.2553688 0.03004084 99
0.23838031 1.2659948 0.051247578 82
0.24691397 1.2524121 0.069953002 49
0.26100791 1.2299792 0.086038955 58
0.25233707 1.2437803 0.10876112 79
0.25868452 1.2336773 0.12642249 99
0.23448828 1.2721896 0.15891489 65
0.24638253 1.2570237 0.010017681 58
0.25309211 1.246261 0.029412808 100
0.24327567 1.2620072 0.05072464 84
0.25280043 1.2467289 0.068978049 50
0.26261529 1.2309852 0.086038955 87
0.24672231 1.2564785 0.11143246 100
0.25927389 1.2363451 0.12687239 99
0.24441925 1.2601728 0.15477379 67
0.24703243 1.2597811 0.010052586 86
0.24845225 1.2574859 0.03004084 99
0.2428987 1.2664638 0.051073264 83
0.24611205 1.2612691 0.070927955 48
0.26110867 1.2370254 0.086977564 57
0.26184869 1.235829 0.10647142 81
0.25475252 1.2473007 0.12957181 88
0.24003446 1.2710941 0.15787962 65
0.25502011 1.25061 0.0098431576 88
0.26060325 1.2415134 0.028994121 100
0.24254915 1.2709289 0.051421888 82
0.25821263 1.2454084 0.068490572 50
0.25344089 1.253183 0.089793384 69
0.25526077 1.2502179 0.10952436 85
0.26559475 1.2333807 0.12552269 99
0.24380657 1.2688801 0.15684435 66
0.24213853 1.2755477 0.010331824 98
0.26536733 1.2374032 0.028680105 100
0.24119076 1.2771041 0.051944822 81
0.2598739 1.246424 0.068490572 50
0.26540354 1.2373437 0.086664692 71
0.24876988 1.2646582 0.1125773 96
0.27228186 1.2260486 0.12327318 93
0.24354029 1.2732459 0.15787962 65
0.24907562 1.2680615 0.0101573 71
0.25873783 1.2520696 0.029517479 100
0.25635701 1.2560101 0.049678773 86
0.25743249 1.25423 0.069465525 49
0.27214426 1.2298806 0.085100345 58
0.26471204 1.2421817 0.10723466 81
0.27589095 1.2236793 0.12237337 85
0.24729684 1.2710056 0.15684435 66
0.25801286 1.2571028 0.0099129668 87
0.26350299 1.2479441 0.029203463 100
0.25703093 1.258741 0.049853086 85
0.26422763 1.2467352 0.068246834 34
0.26461065 1.2460963 0.087916173 56
0.25828689 1.2566457 0.1102876 85
0.27146471 1.2346621 0.12507279 83
0.25699347 1.2588035 0.15270324 68
0.26576436 1.2477572 0.0097035384 90
0.26406828 1.250608 0.029308135 100
0.25457847 1.2665589 0.05055033 84
0.2627652 1.2527983 0.068978049 50
0.26821101 1.2436447 0.087290429 57
0.27194786 1.2373636 0.10570818 81
0.27101436 1.2389327 0.12597258 90
0.25664052 1.263093 0.15373851 68
0.26540092 1.2521906 0.0097733475 89
0.26879323 1.2464432 0.028994121 100
0.25327545 1.2727346 0.051073264 83
0.27050626 1.2435408 0.067515619 51
0.2658498 1.2514302 0.08854191 56
0.26659563 1.2501664 0.10837951 87
0.27661502 1.2331908 0.12417299 92
0.25247186 1.274096 0.15684435 66
0.26413983 1.258408 0.0098780617 73
0.27962124 1.2319572 0.028052073 100
0.25210083 1.2789773 0.051596198 82
0.26823282 1.2514149 0.068490572 50
0.27360317 1.2422394 0.086664692 71
0.26240724 1.2613682 0.11066922 78
0.27929893 1.2325078 0.12372308 100
0.25432149 1.2751832 0.15684435 66
0.26283419 1.2645909 0.0099827768 87
0.27120689 1.2501705 0.029098792 100
0.26088214 1.2679529 0.05037602 84
0.26293778 1.2644124 0.07019674 82
0.277237 1.2397847 0.086038955 58
0.26708153 1.2572756 0.10952436 85
0.28482899 1.2267089 0.12192347 76
0.25996673 1.2695296 0.15477379 67
0.26946759 1.2568772 0.0098082526 59
0.27280071 1.2510923 0.029098792 100
0.26154032 1.2706352 0.05055033 84
0.26556996 1.2636416 0.069953002 49
0.27879637 1.2406867 0.086038955 58
0.27261952 1.2514068 0.10799789 79
0.27856177 1.2410938 0.12552269 82
0.26741162 1.2604454 0.15166797 69
0.27414566 1.252645 0.0097035384 90
0.27448174 1.252057 0.029098792 100
0.26230097 1.2733688 0.05072464 84
0.27714515 1.2473969 0.067515619 51
0.28142124 1.2399154 0.08572609 58
0.27430165 1.252372 0.10799789 87
0.28310883 1.2369627 0.12417299 83
0.27104256 1.2580743 0.15063268 70
0.27681831 1.2518654 0.0096686333 90
0.28207621 1.2425909 0.02847076 100
0.2630772 1.2761033 0.050898954 83
0.28077129 1.2448927 0.067028143 51
0.28403741 1.2391316 0.085413218 73
0.28760603 1.232837 0.10341848 83
0.2885848 1.2311105 0.12237337 85
0.2632204 1.2758508 0.15580906 67
0.27850199 1.252816 0.0096686333 60
0.28568536 1.2400415 0.028261416 100
0.26191589 1.2823117 0.051421888 82
0.28243059 1.2458296 0.067028143 51
0.28470838 1.241779 0.08572609 58
0.27286455 1.2628413 0.10990598 92
0.29401663 1.2252257 0.12057377 86
0.26309413 1.2802165 0.15684435 66
0.27239659 1.2677323 0.0099478718 73
0.28927344 1.2374727 0.028052073 100
0.27535182 1.2624336 0.049330149 87
0.27635771 1.2606301 0.068978049 50
0.29116783 1.2340761 0.084161744 59
0.28414953 1.2466598 0.1060898 73
0.29370877 1.2295203 0.12147357 86
0.27824089 1.2572536 -0.0097384425 88
0.27240485 1.2677174 0.15270324 68
0.27897543 1.2599491 0.0097733475 89
0.28123915 1.2558568 0.029098792 100
0.27321479 1.2703631 0.050027397 85
0.278072 1.2615824 0.068978049 50
0.29278934 1.2349768 0.084161744 59
0.28106347 1.2561744 0.10799789 79
0.29437107 1.2321174 0.12192347 76
0.27607161 1.2651986 -0.0098780617 87
0.27975455 1.2585406 0.14959741 78
0.29030564 1.2433603 0.0094242999 93
0.2867794 1.2497878 0.028680105 100
0.28167129 1.2590986 0.048807215 88
0.28360882 1.255567 0.068003096 51
0.28966329 1.2445312 0.08572609 58
0.28653941 1.2502253 0.10647142 73
0.29598573 1.233007 0.12192347 76
0.27960312 1.2628684 0.15063268 70
0.29004815 1.247777 0.0094941091 92
0.29036486 1.2471949 0.02847076 100
0.27861911 1.2687829 0.049678773 86
0.28340796 1.2599814 0.068490572 50
0.29320946 1.2419667 0.085100345 58
0.29009387 1.2476929 0.10570818 73
0.29946616 1.2304672 0.12102367 77
0.28224847 1.2621124 0.15011504 78
0.28981835 1.2522012 0.0095639192 91
0.29582581 1.2410674 0.028052073 100
0.27846965 1.2732341 0.050027397 85
0.29548889 1.2416918 0.065809444 52
0.29673454 1.2393832 0.084474608 59
0.28896612 1.2537806 0.10685304 81
0.27937308 1.2715597 -0.0099478718 86
0.27938116 1.2715447 0.15270324 68
0.2858426 1.2636855 0.0097733475 89
0.29558715 1.2454739 0.028261416 100
0.28586775 1.2636385 0.048981529 87
0.28870818 1.25833 0.068003096 51
0.28417283 1.2668061 0.10952436 85
0.28867286 1.2583959 -0.0096686333 89
0.28660199 1.2622663 0.14959741 70
0.29319105 1.2540059 0.0095639192 91
0.29724839 1.246359 0.028261416 100
0.28852633 1.2627975 0.048807215 88
0.29413602 1.2522249 0.067028143 51
0.29511043 1.2503884 0.10570818 73
0.28569299 1.2681375 -0.0098431576 76
0.29194376 1.2563566 0.14752686 79
0.29674429 1.2513599 0.0094941091 92
0.29705283 1.2507734 0.02847076 100
0.28932041 1.2654704 0.048981529 87
0.29582086 1.2531151 0.067028143 51
0.29953119 1.2460629 0.10456333 75
0.2883645 1.2672873 -0.0098082526 88
0.28824604 1.2675124 0.15063268 70
0.29472649 1.2593328 0.0096337283 90
0.28920847 1.2699103 0.049330149 87
0.29934511 1.2504793 0.066540658 52
0.28641018 1.2752743 0.15270324 68
0.29643613 1.2602209 0.0096337283 90
0.29003972 1.2725873 0.049504463 57
0.28816774 1.2762064 -0.0099478718 96
0.29083815 1.2710435 0.15115032 77
0.29814887 1.261103 0.0096337283 90
0.29455301 1.2681148 0.068734311 84
0.29267383 1.2717792 -0.0098431576 100
0.29875952 1.2599123 0.14752686 71
0.29897261 1.2637337 0.048458595 59
0.29539362 1.2707729 0.068978049 50
0.29249379 1.2806612 -0.0099827768 100
0.29517204 1.2797682 -0.0099478718 100
0.29872876 1.2770712 -0.0098780617 100
0.29696053 1.2806395 0.15270324 76
