# .PCD v0.7 - Point Cloud Data file format
VERSION 0.7
FIELDS x y z intensity
SIZE 4 4 4 4
TYPE F F F F
COUNT 1 1 1 1
WIDTH 773
HEIGHT 1
VIEWPOINT 0 0 0 1 0 0 0
POINTS 773
DATA ascii
0.056304961 0.0033476353 0.015916595 123
0.054720372 0.006753087 0.015881689 100
0.05047974 0.0060711503 0.047835063 31
0.048915029 0.0094872117 0.047730394 100
0.04441005 0.0087376833 0.015951499 4
0.040606081 0.0030101538 0.048253752 100
0.038746059 0.011463761 0.047939736 36
0.033857286 0.0099484324 0.048149079 26
0.025702059 0.0034214258 0.048672438 16
0.030962288 0.016768515 0.047939736 9
0.030614197 0.021866202 0.047730394 9
-1.0565462 1.136178 0.028761566 2
-1.0175898 1.1272987 0.084260888 5
-1.0467913 1.1339545 0.14328404 4
-1.0396731 1.1381741 0.028482327 8
-0.9988212 1.1287127 0.083318844 11
-1.0125141 1.131884 0.14032075 19
-0.99756438 1.1338329 0.027749326 15
-1.0092888 1.1365893 0.083946876 78
-1.0113053 1.1370635 0.14032075 65
-0.97683483 1.1345882 0.027400278 38
-1.0118849 1.1429577 0.084156215 100
-1.0138903 1.1434367 0.14066938 100
-0.98922163 1.1429456 0.027644612 42
-0.98540527 1.1420209 0.082795486 100
-1.0087707 1.1476823 0.14032075 87
-0.99956125 1.1511823 0.02785404 30
-0.97633952 1.1454699 0.082376793 100
-1.007443 1.1531211 0.14032075 87
-0.98263341 1.1529809 0.027574802 23
-0.97882849 1.1520301 0.082586139 66
-0.99443048 1.1559289 0.13927488 85
-0.97159559 1.1558707 0.027400278 34
-0.98910147 1.1603101 0.083214171 35
-0.98921138 1.1603379 0.13892625 77
-0.96055633 1.1586881 0.027225753 53
-0.98192686 1.1641871 0.082900152 41
-0.98205084 1.1642189 0.13840333 89
-0.96499485 1.1654738 0.027330469 63
-0.96701413 1.1660008 0.082167454 94
-0.98452109 1.1705709 0.13875194 91
-0.9713375 1.172807 0.027470088 65
-0.96755332 1.171805 0.08227212 98
-0.98503941 1.1764349 0.13892625 94
-0.96412832 1.1765593 0.027365373 78
-0.95071 1.1729563 0.081434749 96
-0.96244484 1.1761073 0.13700883 100
-0.94533473 1.1771144 0.027051231 83
-0.9570027 1.1802909 0.081853434 100
-0.95717329 1.1803374 0.1366602 100
-0.93812174 1.1807353 0.026946515 93
-0.94593507 1.182892 0.081330076 100
-0.96725518 1.1887765 0.13770607 91
-0.93675154 1.185668 0.026946515 92
-0.9368636 1.1856992 0.08091139 90
-0.96393925 1.1932691 0.13753176 94
-0.95068306 1.1952163 0.027225753 88
-0.92771703 1.1887089 0.080492698 86
-0.96053571 1.1980081 0.13735744 99
-0.97233039 1.2068088 0.027644612 48
-0.93591946 1.1963612 0.081016064 54
-0.94570225 1.1991682 0.13613728 100
-0.94583386 1.2048631 0.027190849 41
-0.93442208 1.2015455 0.081016064 22
-0.94610828 1.2049428 0.13631158 92
-0.92696661 1.2052552 0.026876707 66
-0.93666202 1.2081124 0.081225403 24
-0.94641513 1.2109866 0.13648589 84
-0.91976637 1.2084358 0.026771991 75
-0.92180353 1.2090434 0.080492698 28
-0.94112605 1.2148074 0.13613728 89
-0.91631275 1.2129852 0.026737086 78
-0.91835016 1.2136006 0.080388032 58
-0.94147164 1.2205858 0.13631158 99
-0.92248505 1.2201838 0.026876707 81
-0.91496104 1.2178836 0.080283359 100
-0.92472655 1.2208691 0.1349171 100
-0.90554386 1.2208445 0.026597468 92
-0.91712528 1.2244318 0.080492698 90
-0.91354817 1.2233238 0.13404553 84
-0.89640802 1.2232767 0.026457848 83
-0.91561025 1.2292944 0.080492698 76
-0.91013569 1.2275788 0.13387123 56
-0.90236086 1.2309949 0.026597468 83
-0.90630239 1.232246 0.080074012 66
-0.91604477 1.2353384 0.13456847 43
-0.90463215 1.2370312 0.026667276 88
-0.89905661 1.2352412 0.07976 89
-0.90880257 1.2383703 0.13404553 45
-0.89530379 1.2398865 0.026527658 88
-0.89924103 1.2411666 0.079864666 100
-0.90707618 1.2437139 0.13404553 54
-0.88613898 1.2421784 0.026388038 100
-0.89767069 1.2459699 0.079864666 100
-0.90171176 1.2472985 0.13369691 73
-0.8768093 1.2449129 0.02624842 99
-0.89781147 1.2519034 0.079969339 100
-0.90184313 1.2532454 0.13387123 85
-0.88280755 1.252193 0.026388038 96
-0.88674074 1.2535167 0.07944598 100
-0.90589756 1.2599636 0.13439415 73
-0.87732965 1.2559026 0.02631823 93
-0.87559062 1.2553107 0.078922622 100
-0.90795058 1.2663269 0.13474278 82
-0.8832739 1.263236 0.026457848 99
-0.88152772 1.262635 0.079341307 100
-0.88368922 1.2633789 0.13265105 100
-0.87012571 1.2645401 0.02624842 77
-0.87971252 1.2678785 0.079341307 100
-0.89316064 1.2725618 0.13369691 77
-0.85527402 1.2645994 0.026004085 75
-0.87428564 1.2712908 0.079131968 72
-0.89524502 1.2786676 0.13404553 38
-0.86287099 1.2731006 0.02617861 81
-0.85550493 1.2704778 0.078189917 29
-0.88961703 1.2826245 0.13369691 35
-0.86119479 1.2777832 0.02617861 96
-0.86135477 1.2778407 0.07860861 23
-0.88603443 1.2867211 0.1335226 30
-0.85932428 1.2829521 0.02617861 96
-0.86136085 1.2836933 0.078713275 68
-0.88038641 1.2906181 0.13317397 16
-0.85010821 1.284862 0.026038991 100
-0.85215145 1.2856134 0.07829459 100
-0.86369246 1.2898574 0.13177948 11
-0.82964796 1.2825384 0.025689943 100
-0.85417837 1.2916514 0.078503937 100
-0.87316686 1.2987056 0.13282534 1
-0.83542949 1.289921 0.025829561 100
-0.83561152 1.2899892 0.077561885 44
-0.87140578 1.303422 0.13282534 1
-0.83707005 1.2968984 0.025899371 92
-0.83164591 1.294838 0.077457212 51
-0.85994035 1.3055861 0.13195379 7
-0.84465009 1.3050768 0.026073895 72
-0.842951 1.3044248 0.078189917 55
-0.86373705 1.3123996 0.13247673 35
-0.83168036 1.3053637 0.025864467 72
-0.83744639 1.3075979 0.077980578 72
-0.84335262 1.3098863 0.13073361 90
-0.81863075 1.3058095 0.025655037 83
-0.83370155 1.3117096 0.077875905 61
-0.84888059 1.3176521 0.13143086 100
-0.82233065 1.31279 0.025759751 99
-0.82437319 1.3135979 0.077457212 80
-0.83954948 1.3196006 0.13073361 99
-0.8204276 1.3175771 0.025759751 100
-0.82246727 1.318392 0.077457212 89
-0.83947271 1.325187 0.13090792 100
-0.81860417 1.3221185 0.025759751 100
-0.81878895 1.3221931 0.077352546 95
-0.82838553 1.3260646 0.13003637 100
-0.80926114 1.3238741 0.025620133 100
-0.82610112 1.3307362 0.077875905 100
-0.82090086 1.3286171 0.12951343 100
-0.80484992 1.3220767 0.17963541 22
-0.7962243 1.3240491 0.025410704 100
-0.80751282 1.3286951 0.076933853 100
-0.81710011 1.3326408 0.12933913 100
-0.76252908 1.3101816 0.17427316 15
-0.80536133 1.3333499 0.025620133 100
-0.79817718 1.330364 0.076515168 100
-0.82248694 1.3404682 0.13003637 100
-0.76980084 1.3185694 0.17549185 16
-0.79960006 1.3367653 0.025550323 100
-0.78874832 1.3322082 0.076096483 100
-0.81671292 1.3439519 0.12968774 100
-0.78974432 1.3326265 0.17841671 26
-0.80129546 1.3430343 0.025620133 100
-0.79413277 1.3399968 0.076515168 92
-0.79819268 1.3417184 0.12811895 100
-0.78046197 1.3341997 0.17744176 18
-0.80663997 1.3508961 0.025759751 61
-0.79580694 1.3462577 0.076724514 40
-0.80168337 1.3487738 0.12864187 52
-0.79308325 1.3450913 0.17939167 12
-0.80460399 1.3556283 0.025759751 75
-0.82128638 1.3628404 0.07829459 68
-0.82342929 1.3637668 0.13090792 31
-0.78924555 1.3489883 0.17914793 5
-0.80448741 1.3609166 0.025794657 100
-0.8010065 1.359398 0.077247873 100
-0.81232184 1.3643346 0.13003637 93
-0.77276224 1.3470759 0.17719802 20
-0.7987563 1.364029 0.025724847 100
-0.79528528 1.3625002 0.077038527 100
-0.82664937 1.3763139 0.13160518 100
-0.78527349 1.3580909 0.17914793 36
-0.80408853 1.3717468 0.025864467 100
-0.8060891 1.3726357 0.077771232 100
-0.80278271 1.3711665 0.12951343 100
-0.7742458 1.3584847 0.17792924 33
-0.79650623 1.3740144 0.025759751 100
-0.81308883 1.3814529 0.07829459 100
-0.80067605 1.3758848 0.12951343 100
-0.77580589 1.3647287 0.17841671 19
-0.78881878 1.3764701 0.025655037 100
-0.80720001 1.3847966 0.078085244 100
-0.80570573 1.3841197 0.13021068 100
-0.77361721 1.3695838 0.17841671 19
-0.7921496 1.3836342 0.025759751 100
-0.80322927 1.3886998 0.077980578 100
-0.8108018 1.3921621 0.13090792 100
-0.76971084 1.3733752 0.17817298 15
-0.8027094 1.3941802 0.026004085 100
-0.80468839 1.3950933 0.078189917 100
-0.81585807 1.4002473 0.13160518 100
-0.77120155 1.3796415 0.17866045 12
-0.79870957 1.3980541 0.025969181 100
-0.79706639 1.3972889 0.077875905 100
-0.79920048 1.3982826 0.13021068 100
-0.76006776 1.3800597 0.17744176 9
-0.78937966 1.3991225 0.025829561 100
-0.81124872 1.4093946 0.078817949 100
-0.80071634 1.4044474 0.1305593 100
-0.77780181 1.3936841 0.18012288 7
-0.78717536 1.4037939 0.025829561 100
-0.81081337 1.4149978 0.078922622 100
-0.80029386 1.4100118 0.13073361 100
-0.7720291 1.3966148 0.17963541 3
-0.79217082 1.4119089 0.025969181 100
-0.80134636 1.4162971 0.078503937 100
-0.81063336 1.4207387 0.13195379 100
-0.79712588 1.4200662 0.0261088 100
-0.80447847 1.4236143 0.078817949 100
-0.81553119 1.4289479 0.13265105 100
-0.79832977 1.4267507 0.02617861 100
-0.80207378 1.4285743 0.078817949 100
-0.80952448 1.4322034 0.13230242 100
-0.78896505 1.4276917 0.026038991 100
-0.80705315 1.4365766 0.079236634 100
-0.80374438 1.4349513 0.13195379 100
-0.78666109 1.4323616 0.026038991 100
-0.80829722 1.443083 0.07944598 100
-0.80498546 1.441442 0.13230242 100
-0.79161257 1.4403658 0.02617861 99
-0.79533798 1.4422272 0.078817949 100
-0.80988055 1.4494939 0.13299966 100
-0.79640716 1.4486451 0.02631823 100
-0.79655021 1.4487171 0.079027295 100
-0.82351285 1.4623075 0.13456847 100
-0.80128008 1.4567301 0.026457848 100
-0.80141419 1.4567983 0.07944598 100
-0.81232864 1.4623451 0.13369691 100
-0.79163653 1.4580281 0.02631823 100
-0.80955106 1.4672152 0.080074012 100
-0.79737192 1.4609694 0.13247673 100
-0.78579491 1.4606366 0.02624842 100
-0.81255406 1.4744716 0.080388032 100
-0.79861289 1.4672637 0.13282534 100
-0.79389232 1.4710773 0.026457848 100
-0.79756731 1.4729944 0.079655327 100
-0.81371289 1.4814172 0.13456847 100
-0.79156011 1.4755299 0.026457848 99
-0.79346102 1.4765296 0.079550654 100
-0.82016319 1.4905725 0.13544002 100
-0.78896517 1.4804423 0.026457848 48
-0.77498382 1.4730239 0.07860861 51
-0.7963931 1.4843835 0.13334829 90
-0.19984061 1.2853512 0.015881689 22
-0.2044248 1.296294 0.016056214 25
-0.1975832 1.2956052 0.015951499 39
-0.19257206 1.2957704 0.015881689 36
-0.19398826 1.3006816 0.015951499 43
-0.19862694 1.3079431 0.016091119 37
-0.21294302 1.3222786 0.016440166 31
-0.20454758 1.3202255 0.016300548 33
-0.18489462 1.3098338 0.015916595 26
-0.18139833 1.3112063 0.015881689 22
-0.19553775 1.3257067 0.016230738 15
-0.19359344 1.3283057 0.016230738 19
-0.19642484 1.3345166 0.016335452 22
-0.18331486 1.3286362 0.016091119 12
-0.19107753 1.3382379 0.016300548 11
-0.1938374 1.3444883 0.016405262 21
-0.20603275 1.3581316 0.016719405 9
-0.19138271 1.3509004 0.016440166 17
-0.19876891 1.3609178 0.016649596 9
-0.20296335 1.368505 0.016789215 9
-0.19139957 1.3637607 0.016579786 13
-0.19087893 1.3676004 0.01661469 22
-0.19189256 1.3727047 0.016684501 18
-0.18359357 1.3702255 0.016544882 20
-0.19559741 1.3839676 0.016859025 8
-0.20268512 1.3942257 0.017068453 7
-0.20335132 1.3996761 0.017138263 7
-0.19502944 1.3971508 0.016998643 7
-0.18379229 1.391861 0.016789215 9
-0.19682747 1.4074001 0.017138263 7
-0.19448626 1.4101331 0.017138263 7
-0.19829404 1.4179641 0.017277882 6
-0.19625473 1.4203117 0.017277882 6
-0.18496221 1.4149985 0.017068453 10
-0.18881375 1.4227283 0.017208073 11
-0.19400066 1.4319493 0.017382598 14
-0.20199317 1.4440145 0.01762693 8
-0.19072926 1.438596 0.017417502 5
-0.17962819 1.4329801 0.017208073 6
-0.18911171 1.4463224 0.017487312 10
-0.19839042 1.4598696 0.01776655 15
-0.18571872 1.4529545 0.017522216 12
-0.1833303 1.4555185 0.017522216 12
-0.17947686 1.4567034 0.017487312 14
-0.18868536 1.4702516 0.01776655 15
-0.19057584 1.4769682 0.017871264 14
-0.19543666 1.486348 0.018045789 5
-0.17856151 1.4750396 0.01769674 5
0.1379365 1.2828701 0.011483683 12
0.16065624 1.2545923 0.054385185 25
0.144216 1.2750545 0.12593393 12
0.15460706 1.2654775 0.011064826 25
0.15633455 1.2633127 0.033076324 29
0.16226536 1.2558807 0.054385185 51
0.14882717 1.2727205 0.078971334 14
0.1458621 1.2764361 0.10262101 11
0.14834219 1.2733282 0.12517071 60
0.18534601 1.2269578 0.13497064 15
0.14994687 1.2713172 0.17185585 14
0.15882269 1.2637199 0.010995016 100
0.18162501 1.2349403 0.031087559 94
0.15406537 1.2697244 0.055779677 73
0.17030865 1.249223 0.075071514 15
0.1770739 1.2406844 0.095112152 25
0.16229361 1.2593391 0.12135452 100
0.19178405 1.2221181 0.13317102 31
0.15169924 1.2727107 0.17185585 36
0.1568394 1.2697974 0.011099731 100
0.16472748 1.2597699 0.032657638 100
0.15334848 1.2742352 0.056128297 100
0.15725586 1.269268 0.077996381 14
0.18116179 1.2388781 0.094486415 39
0.16643173 1.2576034 0.12059128 100
0.19577414 1.2203025 0.13227122 39
0.15584528 1.2710612 0.17082056 43
0.16720244 1.2601348 0.010855397 100
0.17996243 1.2437969 0.031506244 100
0.16492191 1.2630548 0.054733805 100
0.16388851 1.264378 0.077021427 29
0.18280074 1.2401627 0.094486415 26
0.179012 1.2450138 0.11715672 100
0.18535316 1.2368946 0.13677025 37
0.15759671 1.272434 0.17082056 43
0.17495802 1.2535012 0.010680873 93
0.16807014 1.262381 0.032657638 59
0.15678987 1.2769234 0.056128297 72
0.1630967 1.2687927 0.077508904 29
0.17225465 1.2569864 0.097615108 24
0.19502875 1.2276262 0.1125773 61
0.18212587 1.2442604 0.13856985 29
0.15097669 1.2844177 0.17444403 42
0.17298773 1.2595603 0.010785587 65
0.17344707 1.2589639 0.032343622 60
0.16828692 1.2656646 0.054733805 50
0.18785286 1.2402576 0.072877869 47
0.1763674 1.2551718 0.096989371 37
0.17626452 1.2553054 0.11906482 13
0.18140554 1.2486296 0.13946965 22
0.14923865 1.2903993 0.17599694 48
0.17712805 1.2576963 0.010715778 39
0.18850011 1.2428222 0.03119223 31
0.1639688 1.2749078 0.055605363 49
0.18226239 1.2509809 0.074340299 46
0.19006118 1.2407804 0.093860678 52
0.18869272 1.2425703 0.11563025 13
0.19728196 1.2313361 0.13407083 31
0.16396457 1.2749133 0.17030293 58
0.17399663 1.2653661 0.010855397 39
0.17566228 1.2631717 0.032448292 29
0.17296121 1.2667303 0.054559495 50
0.17914283 1.2585863 0.075315252 45
0.19528964 1.2373136 0.092922069 53
0.19153148 1.2422647 0.11524864 13
0.20125088 1.22946 0.13317102 38
0.17974535 1.2577925 0.16409127 62
0.18294877 1.2570934 0.010645968 40
0.15334645 1.2963771 0.03454173 27
0.17949361 1.2616786 0.053862248 51
0.18801853 1.2503656 0.073852822 46
0.19930065 1.2353938 0.092296332 53
0.20027128 1.2341057 0.11295892 13
0.21223906 1.2182239 0.12957181 32
0.18377554 1.2559962 0.163056 70
0.19423419 1.245562 0.010366729 41
0.17432874 1.2721701 0.032866981 29
0.18121213 1.2629689 0.053862248 51
0.18375194 1.2595739 0.075071514 60
0.19974402 1.2381968 0.092609204 53
0.20189345 1.2353237 0.11295892 13
0.20913634 1.2256418 0.13137141 31
0.18315977 1.2603655 0.16409127 69
0.18874276 1.2564332 0.010576159 67
0.19751862 1.2446166 0.030982886 31
0.18055934 1.2674522 0.054210871 51
0.20203295 1.238538 0.071659178 80
0.19784716 1.2441742 0.093547814 65
0.20117876 1.2396882 0.11372216 13
0.21072891 1.2268289 0.13137141 39
0.18141824 1.2662958 0.16564418 68
0.18213633 1.2689581 0.010820492 78
0.20510355 1.2378062 0.030459527 65
0.18348035 1.2671351 0.054036561 77
0.19660264 1.2493365 0.073121607 78
0.20302117 1.2406306 0.092609204 93
0.20165539 1.2424831 0.11410378 13
0.21695128 1.2217363 0.12957181 32
0.18315288 1.2675793 0.16564418 68
0.18488726 1.2684981 0.010785587 78
0.20775506 1.2372761 0.030354854 65
0.18739849 1.2650695 0.053687938 78
0.20280212 1.2440385 0.072146654 79
0.2138392 1.2289692 0.090106249 96
0.20314145 1.2435752 0.11410378 13
0.22182655 1.2180638 0.12822211 16
0.19727448 1.2515855 0.15995017 80
0.19015744 1.2649174 0.010680873 80
0.21408632 1.2320063 0.029936166 66
0.1961588 1.2566633 0.05264207 100
0.19628736 1.2564864 0.073852822 93
0.20498845 1.2445192 0.092922069 100
0.2071057 1.2416072 0.11334054 13
0.2211006 1.2223591 0.1291219 16
0.19668555 1.2559388 0.16098544 72
0.19899395 1.2565029 0.010471444 82
0.21110755 1.2397132 0.030354854 97
0.18745315 1.2724987 0.054210871 100
0.20852607 1.2432911 0.071659178 80
0.20788577 1.2441787 0.092609204 93
0.21572873 1.2333081 0.11105084 14
0.24214429 1.1966954 0.12147357 17
0.19620833 1.2603638 0.16202073 78
0.1983656 1.2609767 0.010541254 81
0.21740094 1.2343981 0.029936166 66
0.18920943 1.2737612 0.054210871 100
0.20786855 1.247708 0.072146654 79
0.20954305 1.2453699 0.092609204 93
0.20363039 1.2536256 0.11563025 13
0.22321132 1.2262853 0.12957181 8
0.19342276 1.2678782 0.16409127 69
0.2023989 1.2589415 0.010471444 96
0.22018129 1.2339286 0.029831495 99
0.19097006 1.2750175 0.054210871 100
0.20953816 1.2488993 0.072146654 79
0.21807194 1.2368956 0.090731993 100
0.20532069 1.2548317 0.11563025 20
0.22367692 1.2290115 0.13002171 16
0.1996403 1.2628218 0.16202073 78
0.20632872 1.2568243 0.010401634 83
0.21711412 1.2415463 0.030250182 98
0.19954103 1.2664393 0.053165004 100
0.20883843 1.2532691 0.072634131 63
0.21848282 1.2396075 0.091044858 100
0.20013687 1.2655952 0.11791996 52
0.22857246 1.2253151 0.128672 32
0.20350474 1.2608244 0.16098544 72
0.21024066 1.2546864 0.010331824 98
0.21753323 1.244283 0.030354854 65
0.20347649 1.2643358 0.05281638 100
0.20588508 1.2608998 0.073609084 62
0.22344354 1.2358516 0.090106249 96
0.20403609 1.2635374 0.11715672 99
0.23455846 1.2199955 0.12687239 57
0.20735207 1.2588071 0.15995017 72
0.2141346 1.2525278 0.010262015 98
0.22253084 1.2404652 0.03004084 99
0.20511767 1.2654822 0.05281638 100
0.21545324 1.2506334 0.071902916 96
0.22273314 1.2401745 0.090731993 95
0.22025517 1.2437346 0.11219569 84
0.22157967 1.2418318 0.13272113 86
0.21007854 1.258355 0.15943253 73
0.21363264 1.2570465 0.010331824 98
0.22652736 1.2383754 0.029831495 99
0.20467156 1.2700217 0.053165004 100
0.22736982 1.2371556 0.069709264 83
0.22221351 1.2446218 0.09135773 100
0.22645637 1.2384782 0.11066922 85
0.22552606 1.2398252 0.13182132 94
0.20747945 1.265956 0.16150309 70
0.21751145 1.2548609 0.010262015 84
0.21678698 1.2559173 0.030878214 95
0.20633161 1.2711642 0.053165004 100
0.21993947 1.2513201 0.071659178 96
0.22825786 1.2391895 0.090106249 96
0.21579835 1.257359 0.11486702 100
0.2370047 1.2264342 0.1277722 81
0.20694089 1.2702756 0.16253836 70
0.21141675 1.2676494 0.010506349 68
0.22531113 1.2472274 0.030250182 65
0.20705003 1.2740676 0.053339314 100
0.22170582 1.2525265 0.071659178 48
0.23331323 1.235466 0.089167647 98
0.22642174 1.2455951 0.11181407 84
0.23210254 1.2372454 0.13047162 96
0.20986348 1.2699324 0.16202073 70
0.22202384 1.2555132 0.01022711 42
0.22801349 1.2466465 0.030145511 32
0.21095401 1.2719002 0.05299069 52
0.22441894 1.2519677 0.071415432 96
0.23375276 1.2381505 0.089480512 100
0.22909963 1.2450386 0.11143246 100
0.23474458 1.2366823 0.13002171 96
0.22017437 1.258251 0.15787962 73
0.2305685 1.2468009 0.010017681 43
0.22095287 1.2611537 0.030982886 31
0.20733899 1.2814746 0.053862248 51
0.23400608 1.2416699 0.069709264 49
0.22675693 1.2524903 0.091983467 93
0.23201871 1.2446363 0.11105084 100
0.23328489 1.2427464 0.13137141 94
0.21775058 1.2659338 0.15995017 72
0.22329149 1.2611777 0.010296919 42
0.22479567 1.2589163 0.030773543 32
0.21014044 1.2809491 0.053687938 52
0.23337314 1.2460208 0.07019674 66
0.23273477 1.2469805 0.090731993 100
0.23576903 1.2424188 0.1102876 92
0.23917139 1.2373036 0.12957181 96
0.21832708 1.2686412 0.1604678 72
0.21848568 1.2723861 0.010506349 27
0.22658983 1.2601049 0.030773543 32
0.22189161 1.2672248 0.052119136 54
0.23511997 1.2471781 0.07019674 82
0.23883703 1.2415452 0.089480512 100
0.23642135 1.245206 0.11066922 100
0.24625278 1.2303071 0.1273223 89
0.21909288 1.271466 0.16098544 72
0.2267285 1.2634466 0.010296919 28
0.21070486 1.2879052 0.032448292 29
0.22790959 1.2616436 0.051421888 55
0.23670408 1.2482197 0.07019674 82
0.24798003 1.2310079 0.087290429 85
0.23692304 1.2478855 0.11105084 84
0.24137342 1.2410923 0.13002171 96
0.22816822 1.2612489 0.15736198 74
0.23054716 1.2611632 0.01022711 42
0.22984743 1.2622391 0.030773543 32
0.23605952 1.2526879 0.05037602 56
0.24153858 1.2442636 0.069465525 49
0.24951044 1.2320069 0.087290429 85
0.24493197 1.2390463 0.10876112 87
0.24399981 1.2404796 0.12957181 88
0.23401222 1.2558357 0.15529142 83
0.24085543 1.2487804 0.0099478718 43
0.2347317 1.2582643 0.030459527 65
0.22685432 1.2704642 0.052119136 54
0.23988262 1.2502871 0.07019674 66
0.24675804 1.2396388 0.08854191 98
0.24861896 1.2367568 0.10799789 87
0.23921919 1.2513144 0.13227122 94
0.22514588 1.2731102 0.1604678 72
0.24261233 1.2499102 0.0099478718 43
0.2472958 1.2425982 0.029412808 67
0.23191464 1.2666121 0.051596198 54
0.24913979 1.2397192 0.068490572 50
0.25274315 1.2340934 0.087290429 71
0.25244954 1.2345519 0.10723466 81
0.25044504 1.2376814 0.12822211 97
0.2311599 1.2677903 0.15839726 73
0.23991361 1.2576768 0.010087491 71
0.24779299 1.2452848 0.029517479 67
0.23463225 1.2659829 0.051421888 82
0.24217805 1.2541155 0.070440479 49
0.25216395 1.2384105 0.087916173 56
0.24029735 1.2570733 0.11219569 91
0.25408882 1.2353833 0.1273223 89
0.23384893 1.2672148 0.15787962 65
0.23965546 1.262247 0.0101573 71
0.248555 1.2481312 0.029622151 100
0.23228869 1.2739316 0.052119136 81
0.24827394 1.2485769 0.069465525 49
0.25817874 1.2328666 0.086664692 71
0.25159323 1.2433121 0.10876112 79
0.26003513 1.2299222 0.12552269 90
0.23576042 1.268425 0.15787962 65
0.24553296 1.256493 0.010017681 72
0.24590391 1.2559003 0.03004084 99
0.23501852 1.2732935 0.051944822 81
0.24459705 1.2579885 0.070684217 49
0.25761932 1.2371808 0.087290429 57
0.25003985 1.2492917 0.10990598 92
0.25742656 1.2374887 0.1273223 81
0.24356422 1.2596388 0.15477379 67
0.24617806 1.2592516 0.010052586 86
0.2539238 1.2467785 0.029412808 100
0.24413484 1.2625419 0.05072464 84
0.25153849 1.2506196 0.069465525 49
0.25508344 1.2449111 0.08854191 70
0.26103613 1.2353253 0.10647142 81
0.25494796 1.2451292 0.1291219 88
0.24323693 1.2639878 0.15580906 67
0.25095004 1.2551496 0.0099478718 73
0.25550649 1.2477577 0.029412808 100
0.23636067 1.278818 0.052293446 80
0.25938371 1.2414676 0.068003096 51
0.25665992 1.2458864 0.08854191 56
0.24918848 1.2580074 0.11143246 91
0.26470566 1.2328339 0.12552269 99
0.24487674 1.2650024 0.15580906 67
0.24751496 1.264773 0.010122396 85
0.25934309 1.2454258 0.029203463 100
0.24238467 1.2731645 0.051596198 82
0.25904283 1.245917 0.068490572 50
0.26458833 1.2368462 0.086664692 71
0.25609937 1.2507315 0.10952436 71
0.27046984 1.2272258 0.12372308 83
0.25273022 1.2562424 -0.0099478718 86
0.23661643 1.2825997 0.16098544 64
0.24915734 1.2657733 0.010122396 85
0.26092124 1.246387 0.029203463 100
0.25749168 1.2520387 0.049330149 87
0.25032449 1.26385 0.070927955 97
0.27023709 1.231035 0.085413218 58
0.25056577 1.2634523 0.11219569 91
0.26996568 1.2314823 0.12462288 92
0.2533069 1.2589351 -0.0099827768 86
0.24633554 1.2704235 0.15684435 66
0.25510094 1.2600193 0.0099827768 87
0.26163939 1.2491546 0.029308135 100
0.25926042 1.2531077 0.049330149 87
0.25827807 1.25474 0.069465525 49
0.27294731 1.2303648 0.085100345 58
0.26553658 1.2426789 0.10723466 81
0.27065414 1.2341752 0.12507279 83
0.25414851 1.2616018 0.15373851 68
0.26698181 1.2438269 0.0096337283 90
0.26015735 1.2552522 0.029622151 100
0.25269058 1.2677531 0.05072464 84
0.25988713 1.2557046 0.069465525 49
0.26941067 1.2397604 0.086664692 57
0.26609889 1.2453051 0.10761628 79
0.27219492 1.2350991 0.12507279 83
0.25181779 1.2692143 0.15580906 67
0.26048204 1.2585745 0.0099129668 87
0.26999846 1.2425151 0.028784776 100
0.2554456 1.2670738 0.05055033 84
0.26765624 1.2464678 0.068003096 51
0.27306622 1.2373382 0.086038955 58
0.26675886 1.2479821 0.10799789 79
0.27978083 1.226007 0.12237337 93
0.25159252 1.273576 0.15684435 66
0.26826978 1.2492388 0.0097035384 90
0.2756983 1.2366025 0.028366089 100
0.25314364 1.2749693 0.051247578 82
0.26328501 1.2577182 0.069465525 49
0.27770251 1.2331933 0.085100345 58
0.26444927 1.2557378 0.10952436 85
0.28038666 1.2286273 0.12282328 93
0.25531021 1.2712839 0.15580906 67
0.26289257 1.2623112 0.0099478718 73
0.2712917 1.2479089 0.028994121 100
0.26394156 1.2605126 0.049678773 86
0.27098945 1.2484273 0.068003096 51
0.27832589 1.2358474 0.085413218 58
0.26515752 1.2584275 0.10990598 85
0.28100747 1.2312491 0.12327318 85
0.26994434 1.2502193 -0.0097035384 89
0.266794 1.2556214 0.15063268 70
0.26561418 1.2615795 0.0099129668 87
0.27296162 1.248879 0.028994121 100
0.27263939 1.2494359 0.048458595 100
0.26868498 1.2562714 0.068978049 50
0.28489953 1.2282435 0.083848871 59
0.26883039 1.2560201 0.10914274 85
0.28359503 1.2304984 0.12282328 76
0.2655887 1.2616236 0.1521856 77
0.27728495 1.2452252 0.0095639192 91
0.26767623 1.2619691 0.029726824 100
0.2604312 1.2745941 0.050898954 83
0.26741999 1.2624156 0.069709264 83
0.28158468 1.2377326 0.085413218 58
0.27834603 1.2433763 0.1060898 88
0.28423414 1.2331158 0.12327318 68
0.26634496 1.2642889 0.15270324 68
0.27795619 1.2479122 0.0095988233 91
0.27235937 1.2577443 0.029412808 100
0.26317996 1.2738702 0.05072464 84
0.2711046 1.2599486 0.069221787 33
0.28615069 1.2335165 0.084474608 59
0.2722303 1.2579712 0.10914274 78
0.2897085 1.2272663 0.12147357 77
0.26233795 1.2753494 0.15580906 67
0.27381241 1.2593548 0.0098082526 74
0.28396568 1.2413652 0.028366089 100
0.26894578 1.2679777 0.050027397 85
0.27680501 1.2540525 0.068246834 85
0.28979316 1.2310399 0.083848871 59
0.27595058 1.2555665 0.10837951 79
0.29330188 1.224823 0.12057377 86
0.26229304 1.2797651 0.15684435 66
0.26966155 1.2707853 0.010017681 72
0.28171027 1.249262 0.028784776 100
0.27847153 1.2550476 0.048632905 88
0.27752668 1.2567353 0.068490572 50
0.28850934 1.2371163 0.084787481 59
0.27860618 1.254807 0.10799789 79
0.29584298 1.224016 0.12012386 77
0.27552226 1.2603159 -0.0098082526 77
0.2716234 1.2672808 0.15270324 68
0.28014755 1.2560263 0.0097035384 90
0.27756777 1.2606726 0.029412808 100
0.27823204 1.2594762 0.048981529 87
0.27537295 1.2646255 0.069465525 49
0.2891826 1.2397534 0.085100345 58
0.28315914 1.250602 0.10685304 81
0.29553741 1.2283077 0.12102367 86
0.27148539 1.2716274 0.15373851 68
0.28666866 1.2482069 0.0095290141 92
0.28313586 1.2546223 0.028994121 100
0.27802014 1.2639124 0.049330149 87
0.28667659 1.2481924 0.067028143 51
0.28891823 1.2441217 0.08572609 58
0.28483838 1.2515306 0.10685304 88
0.29807875 1.2274863 0.12057377 69
0.27882925 1.2624431 0.15063268 70
0.28442082 1.2560968 0.0096686333 60
0.28091398 1.2625155 0.029412808 100
0.27965951 1.2648116 0.049330149 87
0.29207087 1.2420948 0.066053182 52
0.28859767 1.2484518 0.086351827 58
0.28361276 1.2575759 0.10799789 79
0.27579188 1.2718906 -0.0099827768 86
0.27675879 1.2701209 0.15270324 68
0.28135604 1.2658119 0.0098431576 88
0.29595551 1.238867 0.0279474 100
0.28328669 1.2622488 0.048981529 87
0.28804627 1.2534645 0.067515619 51
0.29591569 1.2389405 0.084474608 59
0.28344578 1.2619551 0.10876112 79
0.2832613 1.2622956 -0.0097733475 88
0.27666557 1.2744688 0.15373851 68
0.28498137 1.2632236 0.0097733475 89
0.29381233 1.2467885 0.028366089 100
0.28312051 1.2666869 0.049330149 87
0.28973547 1.2543759 0.067515619 51
0.29942414 1.2363443 0.083848871 59
0.28702313 1.2594237 0.10799789 79
0.28687435 1.2597007 -0.0097035384 89
0.28391445 1.2652093 0.15063268 78
0.29516771 1.2482625 0.009459204 77
0.29359981 1.2512051 0.028575432 100
0.29703566 1.2447567 0.047064099 61
0.28115961 1.2745526 0.07019674 66
0.29427236 1.2499428 0.10570818 73
0.28482398 1.2676754 -0.0098431576 87
0.28927842 1.2593154 0.14856213 71
0.29310203 1.2562214 0.0095988233 76
0.28968287 1.2626927 0.029203463 100
0.29683277 1.2491604 0.066540658 52
0.29991746 1.2433221 0.084787481 59
0.29411495 1.2543043 0.10647142 81
0.2828261 1.2756703 -0.0099827768 86
0.29369548 1.2550982 0.14700922 81
0.29851282 1.2500299 0.009459204 77
0.29881921 1.2494451 0.028366089 100
0.28833634 1.2694544 0.049330149 87
0.29666445 1.2535579 0.067028143 51
0.29671812 1.2534555 0.1060898 73
0.28911477 1.2679685 0.15063268 78
0.28916293 1.2721328 0.049504463 57
0.29469362 1.2614857 0.068003096 51
0.29931226 1.2525945 0.10570818 66
0.28728464 1.2757486 -0.0099478718 96
0.28907353 1.2723049 0.15166797 69
0.29179844 1.2713293 0.0098431576 88
0.29822862 1.2588444 0.067515619 68
0.29546088 1.2642182 -0.0097035384 100
0.29436666 1.2663429 0.14959741 78
0.2988348 1.2614542 0.0096337283 100
0.29886225 1.2614005 0.067759357 68
0.2976855 1.263703 0.14856213 79
0.29853725 1.266304 0.14907977 78
0.29615119 1.2802565 -0.0099478718 100
0.29884142 1.2838129 -0.0099827768 100
