# .PCD v0.7 - Point Cloud Data file format
VERSION 0.7
FIELDS x y z intensity
SIZE 4 4 4 4
TYPE F F F F
COUNT 1 1 1 1
WIDTH 731
HEIGHT 1
VIEWPOINT 0 0 0 1 0 0 0
POINTS 731
DATA ascii
0.056763023 0.001999259 0.047835063 68
0.058425814 0.010432661 0.047416378 51
0.052637577 0.007047534 0.047730394 39
0.042459011 0.0089743733 0.047939736 82
0.040919602 0.012408435 0.047835063 56
0.04163748 0.019151628 0.047521047 29
0.034517586 0.014330983 0.047939736 18
0.02622664 0.0079050064 0.048463095 8
0.021295607 0.0064538717 0.048672438 8
0.030060828 0.024684608 0.047625721 9
0.020703197 0.016607344 0.048253752 8
-0.35675079 0.97600871 0.016230738 3
-1.0178387 1.1262043 0.084260888 5
-1.0392735 1.1310741 0.1425868 4
-0.27227616 0.95968628 0.014729831 13
-1.003026 1.1282588 0.083528183 9
-1.0147707 1.1309681 0.14049506 13
-0.29493779 0.96817833 0.015148689 34
-1.0172584 1.1375971 0.084365562 63
-1.0192564 1.1380657 0.14101799 53
-0.29622126 0.97144222 0.015183593 50
-0.99271518 1.1372421 0.083109498 100
-1.0180271 1.1432675 0.14101799 95
-0.30332381 0.97612548 0.015323213 44
-0.97984034 1.1395421 0.082481466 100
-1.0109706 1.1470618 0.14049506 86
-0.30457777 0.97943002 0.015358117 80
-0.98830575 1.1469902 0.083004825 100
-1.0019712 1.1503391 0.13979781 86
-0.30373019 0.98285884 0.015358117 53
-0.98290414 1.1521959 0.082795486 67
-0.9946323 1.1551201 0.13927488 89
-0.27781677 0.97931612 0.014904355 55
-0.98550099 1.1582563 0.083004825 37
-0.99720997 1.161217 0.13962349 68
-0.28091776 0.98334342 0.014974165 48
-0.96859151 1.1599081 0.082167454 36
-0.98611671 1.1644077 0.13875194 89
-0.28794658 0.98811257 0.015113784 46
-0.96729022 1.1649417 0.082167454 88
-0.99251288 1.171507 0.13944919 91
-0.2890749 0.99169314 0.015148689 46
-0.96390146 1.1699901 0.082062781 96
-0.97754687 1.1735953 0.13822901 98
-0.28447181 0.99343991 0.015078879 47
-0.96063739 1.1744915 0.081958108 96
-0.95887882 1.1740205 0.1366602 100
-0.27600658 0.99411142 0.01493926 42
-0.95736021 1.1789757 0.081853434 100
-0.96137649 1.1800654 0.13700883 100
-0.27333069 0.99631929 0.014904355 49
-0.94058913 1.1797371 0.081016064 100
-0.96961397 1.1877155 0.13788038 94
-0.28405297 1.002558 0.015113784 46
-0.93907732 1.1851976 0.081016064 92
-0.96615356 1.1927472 0.13770607 92
-0.28327721 1.0053225 0.015113784 46
-0.93384808 1.1890477 0.080806717 84
-0.95132166 1.1939822 0.13648589 100
-0.26891118 1.0046643 0.014869451 50
-0.93606812 1.1958425 0.081016064 66
-0.94393665 1.1980972 0.13596296 100
-0.26236701 1.0057069 0.014764735 51
-0.93848413 1.2018812 0.081225403 24
-0.95016271 1.2052698 0.1366602 92
-0.27684516 1.0131969 0.015043974 52
-0.9158141 1.2011346 0.080074012 24
-0.94855732 1.2107651 0.1366602 84
-0.272201 1.0147963 0.014974165 54
-0.90480524 1.2031434 0.079550654 27
-0.94899696 1.2163007 0.13683452 89
-0.27138472 1.0175215 0.014974165 54
-0.92057174 1.2131517 0.080492698 46
-0.93415517 1.2172451 0.13561434 99
-0.26482123 1.0184939 0.014869451 50
-0.91145259 1.2156955 0.080074012 98
-0.9250409 1.2198395 0.1349171 100
-0.26199442 1.0208884 0.014834546 56
-0.91553396 1.2228178 0.080388032 86
-0.9176715 1.2234782 0.13439415 87
-0.26879239 1.0259664 0.014974165 54
-0.90449291 1.2246956 0.079864666 80
-0.92566782 1.2313151 0.13526571 63
-0.26784873 1.0289657 0.014974165 54
-0.89710432 1.2282147 0.079550654 70
-0.92016822 1.2355177 0.1349171 45
-0.27079427 1.0328963 0.015043974 52
-0.897479 1.2336202 0.079655327 82
-0.90343696 1.2355285 0.1335226 46
-0.26221657 1.0334351 0.014904355 67
-0.89956957 1.2401547 0.079864666 100
-0.90740651 1.2426965 0.13404553 54
-0.25753838 1.0348805 0.014834546 56
-0.90179807 1.2462041 0.080074012 100
-0.90583092 1.2475269 0.13404553 73
-0.26035768 1.039099 0.014904355 61
-0.88867015 1.2477453 0.07944598 100
-0.91163439 1.2553712 0.13474278 82
-0.26514792 1.0436943 0.01500907 54
-0.88139778 1.2506063 0.079131968 100
-0.91001683 1.2602155 0.13474278 78
-0.27360606 1.0498972 0.015183593 50
-0.88340873 1.2571348 0.079341307 100
-0.89877814 1.262358 0.13387123 80
-0.25376135 1.0461297 0.014834546 56
-0.87800771 1.2605876 0.079131968 100
-0.88394743 1.2626282 0.13265105 100
-0.24514037 1.046586 0.014694926 71
-0.87799984 1.2667233 0.079236634 100
-0.893336 1.272058 0.13369691 85
-0.25553787 1.0532006 0.014904355 91
-0.86503953 1.2674814 0.07860861 76
-0.90294093 1.2808063 0.13474278 43
-0.26579881 1.0601721 0.015113784 100
-0.84815258 1.2673099 0.077771232 36
-0.89730459 1.2847928 0.13439415 33
-0.25730479 1.0601702 0.014974165 66
-0.86341149 1.2780236 0.078713275 19
-0.8805899 1.284198 0.13299966 30
-0.25628698 1.0629864 0.014974165 84
-0.85412091 1.2802258 0.07829459 59
-0.87878627 1.2891886 0.13299966 18
-0.24780226 1.0629019 0.014834546 100
-0.8599208 1.2876326 0.078713275 100
-0.8620941 1.2884305 0.13160518 13
-0.2598983 1.070555 0.015078879 37
-0.8487429 1.2890766 0.078189917 100
-0.27013189 1.0774508 0.015288308 50
-0.83205265 1.2881033 0.077352546 53
-0.87159187 1.3029258 0.13282534 1
-0.26333606 1.0784702 0.015183593 49
-0.83192056 1.2941146 0.077457212 51
-0.83786565 1.2963693 0.12986206 5
-0.24550229 1.0747277 0.014869451 37
-0.83950037 1.3022666 0.077980578 55
-0.85099691 1.3066704 0.13125655 26
-0.24629861 1.0782244 0.014904355 100
-0.8413592 1.3085554 0.078189917 68
-0.83425063 1.305804 0.12986206 61
-0.24713463 1.0815914 0.01493926 39
-0.82654423 1.3080765 0.077457212 59
-0.85287851 1.3183703 0.13177948 100
-0.24784696 1.0852458 0.014974165 42
-0.82270533 1.3123842 0.077352546 68
-0.84344727 1.3205798 0.13108224 97
-0.25051188 1.0893718 0.015043974 42
-0.82646435 1.3191535 0.077666558 91
-0.83421165 1.3222444 0.130385 99
-0.25124693 1.0929117 0.015078879 70
-0.82639152 1.3247015 0.077771232 97
-0.82488364 1.3240938 0.12968774 100
-0.2390582 1.0910451 0.014869451 72
-0.8226946 1.32851 0.077666558 100
-0.83595699 1.3339062 0.13090792 100
-0.8014614 1.3198709 0.17914793 21
-0.24157518 1.0954559 0.01493926 68
-0.80955499 1.3289807 0.077038527 100
-0.81913918 1.3329211 0.12951343 100
-0.75904566 1.3082137 0.17378569 13
-0.2497263 1.1019118 0.015113784 106
-0.78924686 1.32583 0.075991809 100
-0.82278544 1.3397496 0.13003637 100
-0.78658897 1.3247268 0.1776855 22
-0.24666029 1.1040673 0.015078879 133
-0.79456824 1.3338242 0.076410495 100
-0.80598897 1.3386133 0.12864187 100
-0.78637749 1.3303895 0.17792924 20
-0.24186498 1.1051486 0.01500907 141
-0.80004829 1.3413937 0.07682918 92
-0.79492182 1.339224 0.12777032 100
-0.7808556 1.3332705 0.17744176 20
-0.23511529 1.1056901 0.014904355 150
-0.80529076 1.349479 0.077247873 42
-0.79832238 1.3464994 0.12829325 71
-0.77330643 1.3358034 0.17671055 15
-0.23766989 1.1098763 0.014974165 151
-0.81253082 1.3579264 0.077771232 61
-0.83481961 1.3675439 0.13195379 22
-0.78964943 1.3480532 0.17914793 5
-0.23103821 1.1100914 0.014869451 146
-0.79409295 1.3552653 0.07682918 100
-0.82735032 1.3697467 0.13143086 86
-0.76406473 1.3421899 0.17597933 16
-0.24455225 1.1191149 0.015148689 145
-0.80128735 1.3637364 0.077352546 100
-0.81258529 1.3687005 0.13021068 100
-0.78578609 1.3569252 0.17914793 33
-0.23217928 1.117431 0.01493926 137
-0.80619425 1.3723991 0.077771232 100
-0.80652934 1.3725479 0.12986206 100
-0.77797681 1.3598653 0.17841671 31
-0.23102283 1.120023 0.01493926 130
-0.81330222 1.3809772 0.07829459 100
-0.80088741 1.3754133 0.12951343 100
-0.7542755 1.3545237 0.17549185 22
-0.22439158 1.1201394 0.014834546 123
-0.80216926 1.3813803 0.077771232 100
-0.80976504 1.3848147 0.1305593 100
-0.75775641 1.3612992 0.17622307 16
-0.23771828 1.1294822 0.015113784 138
-0.80184394 1.3869257 0.077875905 100
-0.81123585 1.3912119 0.13090792 100
-0.77374357 1.374102 0.17866045 15
-0.23464239 1.1313931 0.015078879 105
-0.7996822 1.3916409 0.077875905 100
-0.80182046 1.3926257 0.13021068 100
-0.76802081 1.3770581 0.17817298 12
-0.23156273 1.1332868 0.015043974 75
-0.81018215 1.4022413 0.07860861 100
-0.79602534 1.395661 0.12986206 100
-0.77669448 1.3866756 0.17963541 10
-0.21761692 1.1300683 0.014799641 81
-0.81158334 1.4086819 0.078817949 100
-0.80465597 1.4054323 0.13090792 100
-0.77093941 1.3896168 0.17914793 5
-0.23081493 1.1395898 0.015078879 69
-0.80392987 1.4108672 0.078503937 100
-0.80963296 1.4135668 0.13160518 100
-0.78312248 1.4010183 0.18109785 3
-0.22771561 1.1414514 0.015043974 59
-0.79988235 1.4147286 0.078399263 100
-0.81097394 1.4200262 0.13195379 100
-0.22461283 1.1432956 0.01500907 47
-0.79942292 1.4203038 0.078503937 100
-0.80151731 1.421313 0.13125655 100
-0.22330511 1.1459973 0.01500907 100
-0.79894084 1.4258835 0.07860861 100
-0.80281919 1.4277692 0.13160518 100
-0.2237832 1.149575 0.015043974 100
-0.80560881 1.4349864 0.079131968 100
-0.80409235 1.4342424 0.13195379 100
-0.34432554 1.212586 0.017417502 45
-0.79611915 1.4361707 0.078713275 100
-0.81426531 1.445151 0.13317397 100
-0.43402076 1.2612581 0.019197647 50
-0.79557246 1.4417577 0.078817949 100
-0.81190032 1.449909 0.13317397 100
-0.25369996 1.1747464 0.015707165 71
-0.80213851 1.4509422 0.079341307 100
-0.80595976 1.4528666 0.13282534 100
-0.28793925 1.1956626 0.016405262 100
-0.79975337 1.4556578 0.079341307 100
-0.80179149 1.4566932 0.13265105 100
-0.22600865 1.1674455 0.015218498 90
-0.80813831 1.4655929 0.079969339 100
-0.80837351 1.4657133 0.1335226 100
-0.22283995 1.1692342 0.015183593 100
-0.79682952 1.465746 0.07944598 100
-0.80593675 1.4704506 0.1335226 100
-0.24272275 1.1830171 0.015602452 85
-0.79616398 1.4713659 0.079550654 100
-0.81055123 1.4788618 0.13421984 100
-0.2501272 1.1904325 0.015776975 100
-0.79547554 1.4769897 0.079655327 100
-0.80101365 1.4798996 0.1335226 100
-0.2274515 1.1819869 0.015358117 100
-0.78947002 1.4798117 0.07944598 63
-0.79852742 1.4846113 0.1335226 99
-0.21719038 1.1799858 0.015183593 56
0.12522733 1.2983106 0.011832732 11
0.13700825 1.2836581 0.03454173 27
0.098065168 1.3320935 0.063100755 19
0.12927753 1.2932732 0.13051336 16
0.18489471 1.2240994 0.13452072 7
0.15701574 1.2622828 0.010995016 25
0.16870895 1.247635 0.032029606 30
0.1696386 1.2464705 0.053339314 52
0.131401 1.2943699 0.082383677 13
0.15070331 1.2701902 0.10136953 11
0.14947918 1.2717237 0.12478908 54
0.19012937 1.2208022 0.13317102 15
0.15709084 1.2621888 0.16875002 14
0.15492323 1.2682842 0.011099731 100
0.17649928 1.2410717 0.031506244 93
0.16008016 1.26178 0.054908119 100
0.16644147 1.253757 0.075802729 30
0.18181869 1.2343626 0.093860678 26
0.16456228 1.256127 0.12059128 100
0.18557265 1.2296281 0.13542053 30
0.1515238 1.2725716 0.17185585 36
0.16293532 1.2618715 0.010925206 100
0.16340691 1.2612722 0.032762308 100
0.1532605 1.274166 0.056128297 100
0.15471354 1.2723196 0.078483857 28
0.17619362 1.2450231 0.095737889 25
0.16149026 1.2637079 0.12211776 100
0.1872597 1.2309606 0.13542053 45
0.15456316 1.2725105 0.1713382 43
0.16579998 1.2615768 0.010890301 100
0.16257831 1.2656988 0.032971654 87
0.15493456 1.2754788 0.056128297 100
0.17227289 1.2532947 0.075315252 30
0.17047229 1.2555985 0.097615108 37
0.18005517 1.2433375 0.1167751 100
0.18639025 1.2352319 0.13632034 38
0.15385246 1.2768633 0.17237349 42
0.16882989 1.2614015 0.010855397 100
0.17051843 1.2592247 0.032448292 59
0.15556872 1.2784977 0.056302611 96
0.1789135 1.2484019 0.074340299 30
0.17225465 1.2569864 0.097615108 24
0.18540239 1.2400364 0.11563025 67
0.19645864 1.2257828 0.13317102 31
0.1462405 1.2905235 0.1765146 41
0.17290229 1.2594945 0.010785587 78
0.18311289 1.2462406 0.031506244 62
0.1669845 1.2671763 0.054908119 50
0.17202169 1.2606376 0.076046467 74
0.18592703 1.2425878 0.094486415 39
0.17498168 1.2567954 0.11944643 12
0.1825113 1.2470216 0.13901976 22
0.13617906 1.3071635 0.18169098 52
0.16255325 1.2767594 0.011134636 50
0.16181222 1.2777286 0.033495013 28
0.17364985 1.2622455 0.054210871 51
0.18226239 1.2509809 0.074340299 46
0.19486037 1.2345033 0.092609204 53
0.18630788 1.2456896 0.11639348 13
0.2079345 1.2174031 0.13002171 32
0.16396457 1.2749133 0.17030293 58
0.17632878 1.2621152 0.010785587 52
0.16591367 1.2758317 0.03328567 28
0.17166963 1.2682512 0.054733805 50
0.17065433 1.2695884 0.077021427 87
0.19879186 1.232532 0.091983467 53
0.18551281 1.2500201 0.11715672 13
0.20234916 1.2278471 0.13272113 47
0.17849195 1.2592664 0.16460891 69
0.17804885 1.2634166 0.010785587 39
0.16527715 1.280359 0.033495013 28
0.18420511 1.25525 0.053165004 52
0.18076509 1.2598134 0.075315252 100
0.19208491 1.2447969 0.094173551 65
0.19782671 1.23718 0.11372216 13
0.20864168 1.2228334 0.13092151 40
0.18136495 1.2590176 0.16409127 69
0.18456605 1.2583079 0.010645968 40
0.17902786 1.2657083 0.032448292 29
0.17515728 1.2708803 0.054733805 50
0.19199225 1.2483847 0.073365346 46
0.19492802 1.2444618 0.093860678 52
0.20298854 1.233691 0.1125773 13
0.21489489 1.2177813 0.1291219 32
0.1796017 1.2649415 0.16564418 83
0.18278143 1.2644602 0.010750682 92
0.20228186 1.2382028 0.030564198 64
0.17105603 1.2802484 0.055605363 49
0.1949316 1.2481 0.073121607 62
0.20255825 1.2378308 0.092296332 53
0.21171364 1.225503 0.1102876 14
0.21653834 1.2190065 0.1291219 32
0.17450735 1.2756013 0.16875002 66
0.18688297 1.26252 0.010680873 80
0.20747396 1.234591 0.030250182 65
0.18229803 1.2687389 0.054210871 76
0.2001366 1.2445432 0.072390392 95
0.20302117 1.2406306 0.092609204 93
0.20631552 1.2361623 0.1125773 13
0.2181077 1.2201678 0.1291219 32
0.18773848 1.2613596 0.16357364 69
0.19315842 1.2572052 0.010541254 81
0.20421457 1.24211 0.03066887 64
0.18033484 1.2747136 0.054733805 75
0.20397508 1.242437 0.071902916 64
0.21150476 1.2321565 0.090731993 95
0.21706218 1.2245688 0.10952436 14
0.225281 1.2133474 0.12687239 16
0.19270843 1.2578197 0.16202073 86
0.19486126 1.2584479 0.010541254 95
0.20234108 1.2481604 0.030982886 63
0.18795717 1.2679436 0.053862248 100
0.20212421 1.2484586 0.072634131 63
0.20847341 1.2397261 0.091983467 93
0.21865097 1.2257283 0.10952436 14
0.24975038 1.1829549 0.11787435 17
0.19100523 1.2637514 0.16357364 69
0.1966539 1.2597463 0.010541254 81
0.20409596 1.2494314 0.030982886 63
0.18745315 1.2724987 0.054210871 100
0.19807279 1.2577796 0.073852822 100
0.21366474 1.2361689 0.091044858 95
0.2180261 1.2301239 0.1102876 14
0.23302266 1.2093383 0.12507279 16
0.19620833 1.2603638 0.16202073 70
0.20069429 1.2577252 0.010471444 96
0.21274921 1.2408932 0.030354854 65
0.18572912 1.2786206 0.054733805 75
0.20555687 1.2509358 0.072634131 63
0.20149168 1.2566118 0.094799288 100
0.20934606 1.2456449 0.11372216 13
0.24930903 1.1898458 0.11922406 8
0.19117308 1.2710195 0.16512655 68
0.19544688 1.2687204 0.010680873 93
0.21208048 1.2453232 0.030564198 97
0.19212452 1.2733936 0.054036561 100
0.21183857 1.2456635 0.071659178 80
0.21807194 1.2368956 0.090731993 100
0.19849533 1.2644323 0.11791996 19
0.23158091 1.2178936 0.12687239 16
0.1996403 1.2628218 0.16202073 78
0.20641369 1.2568842 0.010401634 83
0.21259016 1.2481318 0.03066887 96
0.20192519 1.2632446 0.05281638 100
0.20892277 1.2533287 0.072634131 78
0.21514794 1.2445072 0.091983467 100
0.20588318 1.257636 0.11601187 53
0.22528115 1.2301478 0.13002171 32
0.2013627 1.2640418 0.16202073 70
0.20794499 1.2579613 0.010401634 97
0.21753323 1.244283 0.030354854 65
0.20576376 1.2610729 0.052467756 100
0.21614015 1.2462703 0.071415432 64
0.2155064 1.2471744 0.092296332 100
0.20628992 1.2603222 0.11639348 99
0.22560975 1.2327614 0.13047162 56
0.20513427 1.2619708 0.16098544 72
0.2119346 1.2558694 0.010331824 84
0.22261298 1.2405224 0.03004084 99
0.19610062 1.278626 0.054210871 100
0.2166709 1.2490623 0.071659178 80
0.21604589 1.2499605 0.092609204 100
0.21473137 1.2518498 0.11410378 96
0.23279211 1.2258928 0.12822211 81
0.2035436 1.267929 0.16253836 70
0.21371767 1.2571051 0.010331824 84
0.23001325 1.233501 0.029517479 67
0.1979672 1.2799196 0.054210871 100
0.22068459 1.2470136 0.071171694 81
0.22678545 1.2381765 0.090106249 100
0.21873045 1.2498441 0.11334054 89
0.23003662 1.2334671 0.13002171 88
0.2053709 1.2691954 0.16253836 70
0.20637733 1.2714727 0.010611063 81
0.22260141 1.2477957 0.030354854 97
0.20650655 1.2712841 0.053165004 100
0.21898544 1.2530727 0.071902916 48
0.23177144 1.2344133 0.089167647 100
0.21818796 1.2542366 0.11410378 96
0.23055485 1.2361887 0.13047162 96
0.21148348 1.2640209 0.1604678 88
0.22387391 1.2495198 0.010122396 85
0.22314805 1.2505871 0.030459527 65
0.207138 1.2741275 0.053339314 100
0.22402278 1.249301 0.071171694 65
0.23117268 1.2387881 0.089793384 100
0.22208843 1.2521451 0.11334054 100
0.22889635 1.242135 0.13182132 100
0.20995075 1.2699918 0.16202073 78
0.21995574 1.2589425 0.010296919 42
0.2214753 1.2566913 0.030773543 32
0.21335864 1.2687157 0.05264207 79
0.21348095 1.2685345 0.073852822 100
0.22839025 1.2464472 0.091044858 100
0.22816706 1.2467779 0.11181407 100
0.23054636 1.2432531 0.13182132 94
0.21818313 1.2615685 0.15891489 81
0.21935236 1.2633564 0.010366729 41
0.21419555 1.2710509 0.031610917 30
0.21501431 1.2698293 0.05264207 53
0.23171344 1.2449126 0.07019674 82
0.22997198 1.2475111 0.091044858 100
0.23302889 1.24295 0.11066922 85
0.23754209 1.2362158 0.12957181 96
0.22089058 1.2610614 0.15839726 73
0.21886155 1.2678378 0.010436539 41
0.2314325 1.2489383 0.030145511 32
0.20793355 1.2842669 0.054036561 51
0.22677675 1.2559379 0.071659178 80
0.23820484 1.2387568 0.089167647 98
0.23250711 1.2473228 0.11143246 91
0.2424092 1.2324359 0.12822211 89
0.22153679 1.2638156 0.15891489 73
0.211788 1.2823415 0.010715778 39
0.21990234 1.2700495 0.031401575 31
0.22619539 1.2605164 0.051421888 55
0.2361303 1.2454665 0.069953002 99
0.2409313 1.2381938 0.088854775 100
0.23633841 1.2451513 0.11066922 92
0.24295166 1.2351332 0.128672 97
0.22539112 1.2617347 0.15787962 73
0.22453684 1.2667919 0.010366729 27
0.21070486 1.2879052 0.032448292 29
0.2355524 1.2499776 0.050201707 56
0.23235273 1.2548616 0.071171694 81
0.24256748 1.2392697 0.088854775 98
0.24230236 1.2396743 0.10914274 85
0.24244133 1.2394623 0.12957181 88
0.22499225 1.2660968 0.15891489 81
0.23071864 1.2612747 0.01022711 42
0.21260536 1.2891455 0.032448292 29
0.23297086 1.2578092 0.050898954 55
0.23413199 1.2560226 0.071171694 65
0.24751884 1.2354244 0.087916173 98
0.24616554 1.2375066 0.10837951 87
0.23885441 1.2487562 0.13182132 94
0.2299709 1.2624252 0.15736198 74
0.23677081 1.2556641 0.010087491 57
0.24689507 1.2399664 0.029308135 34
0.23035607 1.2656102 0.051596198 54
0.24658966 1.2404399 0.068734311 84
0.247004 1.2397976 0.08854191 84
0.24460703 1.2435141 0.10952436 85
0.24897724 1.236738 0.12822211 97
0.23169175 1.2635393 0.15736198 74
0.24269608 1.2499639 0.0099478718 43
0.24307048 1.2493792 0.029831495 66
0.23522428 1.2616338 0.051073264 55
0.24708098 1.2431153 0.068978049 50
0.25282416 1.2341453 0.087290429 85
0.24406174 1.2478309 0.1102876 85
0.25472978 1.231169 0.12642249 99
0.23228845 1.2662191 0.15787962 73
0.23364961 1.267912 0.010296919 70
0.25224319 1.2386471 0.029098792 68
0.23053157 1.2728195 0.052119136 81
0.24021798 1.2575738 0.070927955 48
0.25868347 1.2285106 0.086038955 58
0.24994287 1.2422676 0.10876112 79
0.25216118 1.2387762 0.12822211 97
0.23713049 1.2624333 0.1563267 74
0.24703696 1.2503531 0.0099129668 87
0.25060248 1.2447 0.029412808 100
0.24495524 1.2536538 0.050027397 85
0.24183652 1.2585984 0.070927955 48
0.25177515 1.2428406 0.08854191 56
0.24313197 1.2565446 0.11181407 84
0.25787568 1.2331681 0.12642249 99
0.23773462 1.2651021 0.15684435 66
0.24659383 1.2547979 0.0099827768 87
0.25226134 1.2457421 0.029412808 100
0.24241742 1.2614713 0.05072464 84
0.25407508 1.242844 0.068490572 50
0.25342751 1.2438787 0.08854191 56
0.2594136 1.2343138 0.10647142 81
0.25432509 1.2424445 0.128672 97
0.23741499 1.2694643 0.15787962 65
0.25250769 1.2490588 0.0098431576 88
0.2560311 1.2433851 0.029203463 100
0.23887944 1.2710048 0.051596198 100
0.25153849 1.2506196 0.069465525 49
0.25716767 1.2415549 0.087916173 56
0.24964327 1.2536715 0.11066922 92
0.2611163 1.2351962 0.12642249 99
0.23508376 1.277117 0.15995017 64
0.24998572 1.2569042 0.0099827768 87
0.26397166 1.234206 0.028575432 100
0.23853981 1.2754803 0.051944822 81
0.25321797 1.2516586 0.069465525 49
0.25674298 1.2459376 0.08854191 70
0.25648287 1.2463598 0.10876112 72
0.26478645 1.2328837 0.12552269 82
0.23685586 1.2782133 0.15995017 64
0.24760133 1.2648258 0.010122396 85
0.25734308 1.2488849 0.029412808 100
0.25182298 1.2579178 0.050027397 85
0.25498533 1.252743 0.069465525 49
0.26672995 1.2335249 0.086038955 72
0.25208828 1.2574836 0.11105084 84
0.26546872 1.2355887 0.12597258 90
0.2528151 1.2562943 -0.0099478718 96
0.24476492 1.2694671 0.15684435 66
0.25555119 1.2556188 0.0099129668 87
0.26005203 1.2481958 0.029308135 100
0.25146195 1.262363 0.05037602 100
0.2607891 1.2469802 0.068490572 50
0.26834968 1.2345109 0.086038955 58
0.2639707 1.241733 0.10723466 73
0.2660853 1.2382455 0.12642249 82
0.24851346 1.2672257 0.15580906 67
0.26549461 1.2429354 0.0096337283 90
0.25863433 1.2543392 0.029622151 100
0.25010127 1.2685238 0.050898954 83
0.26245582 1.2479868 0.068490572 50
0.26386315 1.2456474 0.087916173 70
0.26359501 1.246093 0.10799789 79
0.26370332 1.245913 0.12822211 89
0.25224262 1.2649642 0.15477379 67
0.26099825 1.2542284 0.0098431576 88
0.26237392 1.2519233 0.029412808 100
0.2498011 1.2729893 0.051247578 82
0.26819545 1.2421693 0.067515619 51
0.27261177 1.2347696 0.08572609 58
0.2622402 1.2521474 0.10914274 85
0.27135858 1.2368693 0.12552269 82
0.25199208 1.2693183 0.15580906 67
0.26260558 1.2551841 0.0098431576 88
0.26702729 1.2477193 0.029098792 100
0.25147074 1.273982 0.051247578 82
0.26773939 1.2465171 0.068003096 68
0.27516127 1.2339873 0.085413218 73
0.2598384 1.2598556 0.11066922 92
0.27986044 1.2260541 0.12237337 93
0.25852907 1.2620661 -0.0099827768 86
0.2516804 1.2736281 0.15684435 66
0.26328784 1.2579083 0.0098780617 73
0.26566091 1.25387 0.029412808 100
0.26332593 1.2578435 0.049504463 86
0.26437587 1.2560568 0.069221787 50
0.28078574 1.2281315 0.084161744 74
0.26950732 1.2473243 0.10761628 65
0.27849209 1.2320347 0.12372308 83
0.26024848 1.2630805 -0.0099827768 86
0.25050399 1.2796631 0.15839726 73
0.2639856 1.2606337 0.0099129668 87
0.26533994 1.2583106 0.029622151 100
0.25901008 1.2691689 0.05055033 84
0.26707402 1.2553358 0.068978049 50
0.28139171 1.230775 0.084474608 59
0.26722023 1.255085 0.10914274 78
0.28010654 1.2329795 0.12372308 83
0.26104119 1.2656846 0.15373851 68
0.26670104 1.2598981 0.0098780617 73
0.26904586 1.2558432 0.029412808 100
0.27172568 1.2512091 0.048632905 88
0.27473235 1.2460098 0.067515619 51
0.27410182 1.2471001 0.087290429 57
0.2748121 1.2458719 0.10685304 88
0.27879766 1.2389798 0.12507279 83
0.26470742 1.2633455 0.15270324 68
0.27031776 1.2573659 0.0098082526 74
0.26767623 1.2619691 0.029726824 100
0.26638123 1.2642257 0.049853086 85
0.27828845 1.2434765 0.067028143 51
0.27568546 1.2480124 0.087290429 57
0.27248299 1.253593 0.10837951 79
0.28520408 1.2314255 0.12282328 76
0.26826805 1.2609378 0.15166797 69
0.27498844 1.2531257 0.0097035384 90
0.27828765 1.2473298 0.028784776 100
0.26515123 1.2704072 0.05037602 84
0.27208662 1.2582235 0.068978049 50
0.28126457 1.2421001 0.086038955 58
0.27028784 1.2613835 0.10990598 78
0.2897085 1.2272663 0.12147357 77
0.2720207 1.2583393 -0.0098082526 77
0.26424932 1.2719916 0.15477379 67
0.27381241 1.2593548 0.0098082526 89
0.28003898 1.2483225 0.028784776 100
0.26404938 1.2766533 0.050898954 83
0.27875641 1.250595 0.067759357 34
0.28882223 1.2327602 0.084161744 59
0.2730557 1.2606957 0.10952436 78
0.28755489 1.2350056 0.12327318 76
0.27282953 1.2610964 -0.0098431576 87
0.2679902 1.2696708 0.15373851 68
0.28235981 1.2481017 0.0095639192 91
0.27780789 1.2562331 0.029203463 100
0.27652508 1.2585245 0.048981529 87
0.27752668 1.2567353 0.068490572 50
0.28754443 1.2388401 0.085100345 58
0.28436011 1.2445284 0.10570818 81
0.28917968 1.235919 0.12327318 85
0.27259189 1.2655506 -0.0099129668 87
0.27539799 1.260538 0.15063268 70
0.28111824 1.2542779 0.0096686333 75
0.27368975 1.2676573 0.029831495 99
0.28210062 1.2525086 0.048284281 88
0.285009 1.2472703 0.067028143 51
0.28822371 1.2414804 0.085413218 58
0.28601813 1.2454528 0.10570818 88
0.28796974 1.2419378 0.12462288 75
0.27336091 1.2682495 0.15270324 68
0.28281033 1.2552135 0.0096686333 75
0.28698948 1.2476242 0.028575432 100
0.27994227 1.2604219 0.048981529 87
0.2818889 1.2568868 0.068246834 85
0.28891823 1.2441217 0.08572609 58
0.2905204 1.2412121 0.10456333 67
0.29807875 1.2274863 0.12057377 86
0.27044255 1.2776732 0.15529142 75
0.2882559 1.2490774 0.0095290141 76
0.2943204 1.2379774 0.0279474 100
0.28157005 1.2613147 0.048981529 87
0.287312 1.250805 0.067271881 69
0.29238611 1.2415178 0.085100345 58
0.28737795 1.2506844 0.10647142 81
0.28154451 1.2613615 -0.0097733475 88
0.27305382 1.2769022 0.15477379 67
0.28421396 1.2605374 0.0097384425 75
0.29405254 1.2423792 0.028156744 100
0.28233755 1.2640005 0.049155839 87
0.2804808 1.2674273 0.069465525 49
0.29967991 1.2319932 0.083223134 60
0.28531632 1.2585028 0.10799789 79
0.2832613 1.2622956 -0.0097733475 88
0.28586873 1.2574832 0.14856213 71
0.28687435 1.2597007 0.0097035384 90
0.28814027 1.2573446 0.028994121 100
0.29255089 1.2491361 0.047587037 90
0.29537296 1.243884 0.066053182 52
0.29259861 1.2490473 0.10570818 81
0.28214189 1.2685082 -0.0098780617 97
0.28848636 1.2567005 0.1480445 79
0.29986942 1.2394384 0.0092846798 94
0.2917214 1.2547305 0.028784776 100
0.29235116 1.2535486 0.047935657 89
0.28862742 1.2605371 0.068246834 34
0.29919571 1.2407029 0.084474608 59
0.2979652 1.2430123 0.10418171 75
0.28482398 1.2676754 -0.0098431576 87
0.28473625 1.26784 0.15115032 77
0.29683873 1.2491491 0.009459204 77
0.29124832 1.2597299 0.048458595 88
0.29497805 1.2526708 0.067028143 51
0.29714903 1.2485619 0.08572609 58
0.29594925 1.2508326 0.10570818 73
0.28647563 1.2687629 0.15115032 77
0.28556252 1.2747489 0.049853086 85
0.29666445 1.2535579 0.067028143 51
0.29580703 1.2551945 0.10647142 73
0.29201683 1.2624292 -0.0097035384 89
0.28911477 1.2679685 0.15063268 70
0.29382339 1.2633715 0.0097035384 90
0.29108682 1.2686418 0.049155839 87
0.29660895 1.2580068 0.067515619 51
0.29396826 1.2630925 0.10799789 72
0.29272214 1.2654924 0.14959741 70
0.29729211 1.2606627 0.0096337283 90
0.29942897 1.2565137 0.028680105 100
0.29912764 1.2570988 0.047935657 59
0.29822862 1.2588444 0.067515619 51
0.29613575 1.262908 0.14856213 71
0.29903379 1.2614882 0.067759357 68
0.29974845 1.2641274 0.048458595 59
0.29687822 1.2697947 0.15011504 78
0.29888022 1.2703835 0.048981529 58
0.29526854 1.2775801 -0.0099129668 100
0.29524571 1.2776256 0.1521856 77
0.29695314 1.2784221 -0.0099129668 100
0.29881829 1.2793461 -0.0099129668 100
0.29875174 1.2837691 -0.0099827768 100
