# .PCD v0.7 - Point Cloud Data file format
VERSION 0.7
FIELDS x y z intensity
SIZE 4 4 4 4
TYPE F F F F
COUNT 1 1 1 1
WIDTH 764
HEIGHT 1
VIEWPOINT 0 0 0 1 0 0 0
POINTS 764
DATA ascii
0.05578655 0.0060622692 0.015881689 126
0.05204922 0.00028526783 0.04804441 51
0.054818988 0.010393858 0.047521047 41
0.045591235 0.0021110177 0.048149079 27
0.044016242 0.0055419207 0.04804441 100
0.037052453 0.00057673454 0.048463095 68
0.043410838 0.015547037 0.047625721 57
0.046376228 0.025591195 0.047102362 30
0.031539381 0.0091096163 0.048253752 17
0.021835744 0.0012288094 0.048881784 7
0.026107907 0.012839079 0.048253752 8
0.03260529 0.027780056 0.047416378 9
0.018671095 0.013153315 0.048463095 8
-0.68363148 0.66836023 0.021606078 1
-0.66003996 0.67434275 0.021187222 14
-0.65239042 0.67916971 0.021047601 63
-0.64472204 0.68394208 0.020907983 39
-0.66297036 0.68688256 0.021222126 11
-0.62733442 0.69345248 0.020593839 9
-0.61561888 0.69829929 0.02038441 11
-0.60787672 0.70283169 0.020244792 9
-0.60810417 0.70687383 0.020244792 9
-0.60830706 0.71071464 0.020244792 11
-0.58254045 0.71599638 0.019791029 15
-0.57073563 0.72047967 0.019581599 15
-0.56490749 0.72463596 0.019476885 14
-0.55905694 0.72855741 0.019372171 14
-0.55120057 0.73269975 0.019232552 7
-0.54332906 0.73678678 0.019092932 7
-0.52944547 0.74097955 0.0188486 12
-0.51954883 0.74516821 0.018674076 15
-0.52362758 0.74882293 0.018743884 14
-0.52169245 0.75241613 0.01870898 14
-0.50375158 0.75638956 0.018394837 14
-0.48979539 0.76019984 0.018150503 14
-0.49582225 0.76379389 0.018255217 15
-0.48983806 0.76727766 0.018150503 33
-0.48984116 0.7709074 0.018150503 21
-0.48383266 0.77451098 0.018045789 15
-0.4738124 0.77804112 0.017871264 12
-0.48377603 0.78172833 0.018045789 15
-0.48372871 0.78533679 0.018045789 15
-0.49566501 0.78916496 0.018255217 15
-0.51758724 0.7931084 0.01863917 42
-0.49950856 0.79638255 0.018325027 64
-0.49541754 0.79974896 0.018255217 64
-0.50529474 0.80390143 0.018429741 15
-0.51117188 0.80761325 0.018534455 3
-1.0101719 1.1238897 0.083842203 3
-1.0432856 1.1314008 0.14293543 4
-1.0401218 1.1362317 0.028482327 7
-0.99731201 1.1263719 0.083214171 7
-1.0168381 1.130869 0.14066938 11
-1.0056694 1.1343061 0.027888946 11
-1.0134974 1.1361392 0.084156215 56
-1.0096853 1.1352465 0.14014643 52
-0.98298866 1.134644 0.027504992 35
-1.0063806 1.140208 0.083842203 100
-1.0142157 1.1420717 0.14066938 95
-0.98358554 1.14073 0.027539898 38
-0.99142379 1.1426249 0.083109498 100
-1.0167146 1.1487387 0.14101799 91
-0.99406666 1.148402 0.027749326 35
-0.9786064 1.1446131 0.082481466 100
-1.0058415 1.1512876 0.14014643 86
-0.9926694 1.1540587 0.027749326 23
-0.97722322 1.1502132 0.082481466 74
-0.99476665 1.1545808 0.13927488 89
-0.96805412 1.153563 0.027330469 30
-0.9855687 1.1579883 0.083004825 37
-0.98955148 1.1589947 0.13892625 77
-0.95501643 1.1561425 0.027121039 50
-0.98413628 1.1636138 0.083004825 33
-0.9765361 1.1616639 0.13788038 82
-0.96540815 1.163887 0.027330469 63
-0.97129399 1.165417 0.082376793 84
-0.98686796 1.1694649 0.13892625 89
-0.96202081 1.1689285 0.027295563 70
-0.9543851 1.166914 0.081539422 98
-0.9796142 1.1735704 0.13840333 92
-0.95675558 1.1731703 0.027225753 81
-0.95491987 1.1726791 0.081644088 92
-0.97049743 1.1768472 0.13770607 100
-0.95140809 1.1776421 0.027155945 89
-0.95150632 1.1776688 0.081539422 100
-0.96130484 1.1803292 0.13700883 99
-0.95019203 1.1820952 0.027155945 93
-0.94451243 1.180535 0.081225403 100
-0.96584445 1.1863948 0.13753176 94
-0.94489163 1.1862564 0.027086135 93
-0.94499439 1.186285 0.081330076 92
-0.95862359 1.1900802 0.13700883 91
-0.94342953 1.1914721 0.027086135 93
-0.92815477 1.1871612 0.080492698 86
-0.95714802 1.1953437 0.13700883 100
-0.97271103 1.2054801 0.027644612 58
-0.92668957 1.1923184 0.080492698 68
-0.94990736 1.1989585 0.13648589 100
-0.95581609 1.2063403 0.027365373 42
-0.94055313 1.2019175 0.081330076 26
-0.94840091 1.2041916 0.13648589 94
-0.92934042 1.2042716 0.026911611 56
-0.9332872 1.2054302 0.081016064 24
-0.95069963 1.2105417 0.13683452 85
-0.92398196 1.2082928 0.026841801 74
-0.91452843 1.2054818 0.080074012 28
-0.94533318 1.2146417 0.13648589 87
-0.92627257 1.2145886 0.026911611 74
-0.91873676 1.2123191 0.080388032 42
-0.93804866 1.2181351 0.13596296 99
-0.92279893 1.2191558 0.026876707 78
-0.91336292 1.2162781 0.080178685 98
-0.92885238 1.2210019 0.13526571 99
-0.91166872 1.221344 0.026702182 83
-0.9175213 1.2231512 0.080492698 96
-0.91394323 1.2220464 0.13404553 89
-0.90435857 1.2246535 0.026597468 88
-0.91974312 1.229463 0.080702044 80
-0.92186457 1.2301261 0.1349171 66
-0.91038865 1.2321407 0.026737086 79
-0.90289682 1.2297699 0.079864666 72
-0.91265124 1.2328566 0.13421984 45
-0.90114897 1.2347957 0.026597468 81
-0.89938098 1.2342294 0.07976 82
-0.91482157 1.239175 0.13456847 43
-0.89951771 1.2398583 0.026597468 89
-0.89395183 1.2380542 0.079550654 100
-0.90369838 1.2412134 0.13369691 49
-0.88655049 1.2409251 0.026388038 96
-0.89998335 1.2453285 0.079969339 100
-0.90591425 1.2472727 0.13404553 71
-0.88110191 1.2446775 0.02631823 100
-0.90021104 1.2510158 0.080074012 100
-0.90045732 1.2510974 0.13369691 82
-0.88322777 1.2509425 0.026388038 100
-0.88526863 1.2516273 0.079341307 100
-0.90443569 1.2580591 0.13421984 82
-0.87775308 1.2546569 0.02631823 96
-0.87790495 1.2547084 0.079027295 100
-0.89894992 1.2618523 0.13387123 78
-0.88353199 1.2624855 0.026457848 99
-0.88178545 1.2618854 0.079341307 100
-0.89525312 1.2665122 0.13369691 100
-0.86669284 1.2622359 0.02617861 88
-0.87628645 1.2655692 0.079131968 100
-0.89351124 1.271554 0.13369691 85
-0.86496598 1.2671781 0.02617861 77
-0.8745479 1.270545 0.079131968 76
-0.90490979 1.2812132 0.1349171 50
-0.8556847 1.2694362 0.026038991 81
-0.85209006 1.2681592 0.077980578 40
-0.89185196 1.2822864 0.13387123 35
-0.86154896 1.2767978 0.02617861 100
-0.85982925 1.2761804 0.078503937 17
-0.89389557 1.2884115 0.13421984 33
-0.8635307 1.2830865 0.02624842 99
-0.85805374 1.2810986 0.078503937 59
-0.88271302 1.2900494 0.13334829 18
-0.85046726 1.2838845 0.026038991 100
-0.85438603 1.2853224 0.078399263 100
-0.85844368 1.2868114 0.13125655 13
-0.82991606 1.2818159 0.025689943 100
-0.8600691 1.2929997 0.078817949 100
-0.87157542 1.2972674 0.13265105 3
-0.84310073 1.2922451 0.025969181 100
-0.83018249 1.2874024 0.077247873 55
-0.87159187 1.3029258 0.13282534 1
-0.8412692 1.2971048 0.025969181 99
-0.82836801 1.2922169 0.077247873 51
-0.85295457 1.3015319 0.13125655 3
-0.84502333 1.3041029 0.026073895 72
-0.83959323 1.302024 0.077980578 53
-0.84736925 1.3050011 0.13090792 22
-0.8319605 1.3046402 0.025864467 75
-0.83586496 1.3061507 0.077875905 68
-0.82876962 1.3034058 0.12933913 60
-0.82654864 1.3075244 0.025794657 83
-0.84161562 1.3134078 0.07829459 61
-0.85306984 1.3178806 0.13177948 100
-0.81908339 1.3101245 0.025689943 100
-0.82670492 1.3131313 0.077561885 72
-0.83446854 1.3161942 0.13021068 95
-0.82462007 1.3178617 0.025829561 100
-0.8173793 1.3149757 0.0771432 91
-0.84180754 1.3247118 0.13108224 97
-0.81898934 1.3211629 0.025759751 100
-0.82473236 1.3234751 0.077666558 97
-0.82877344 1.3251021 0.13003637 100
-0.81335229 1.3244317 0.025689943 100
-0.81724161 1.3260133 0.077352546 97
-0.82867295 1.330662 0.13021068 100
-0.79052418 1.3151482 0.1776855 15
-0.80400974 1.3261483 0.025550323 100
-0.81529242 1.3307825 0.077352546 99
-0.81749254 1.3316863 0.12933913 100
-0.78310448 1.3175616 0.17695428 16
-0.80585247 1.332167 0.025620133 100
-0.80973536 1.333777 0.0771432 99
-0.81562239 1.3362179 0.12933913 100
-0.78861624 1.3250206 0.17792924 24
-0.80388182 1.3368964 0.025620133 100
-0.7930209 1.3323487 0.076305822 100
-0.81915098 1.3432899 0.12986206 100
-0.77019113 1.3227894 0.17573559 16
-0.80557841 1.3431764 0.025689943 100
-0.78921026 1.3362556 0.076201156 99
-0.81163627 1.3457379 0.12933913 100
-0.76459676 1.3258483 0.17524812 18
-0.80173033 1.3471196 0.025655037 70
-0.80559391 1.3487692 0.077247873 44
-0.79679161 1.345011 0.12811895 78
-0.76995116 1.3335515 0.17622307 15
-0.80705291 1.355001 0.025794657 67
-0.82190639 1.3614039 0.07829459 59
-0.81673187 1.3591733 0.13021068 15
-0.78985113 1.3475856 0.17914793 5
-0.79583472 1.3557444 0.025620133 100
-0.80152041 1.3582189 0.077247873 100
-0.81466693 1.3639405 0.13021068 71
-0.78782672 1.3522589 0.17914793 26
-0.79744345 1.3620474 0.025689943 100
-0.79763037 1.3621294 0.0771432 100
-0.81988162 1.3719064 0.13090792 100
-0.78396875 1.3561268 0.17890419 35
-0.80450839 1.3708012 0.025864467 100
-0.80833524 1.3724988 0.077875905 100
-0.81777221 1.3766844 0.13090792 100
-0.76921242 1.3551455 0.17719802 26
-0.79145223 1.3706226 0.025655037 100
-0.81169254 1.3796849 0.078189917 100
-0.79382497 1.371685 0.12881619 100
-0.78165609 1.3662364 0.17914793 29
-0.79299206 1.3769486 0.025724847 100
-0.813196 1.3860795 0.078399263 100
-0.80624121 1.3829364 0.13021068 100
-0.77956671 1.3708812 0.17914793 28
-0.79450387 1.3832927 0.025794657 100
-0.8055858 1.3883476 0.078085244 100
-0.81134421 1.3909743 0.13090792 100
-0.74675804 1.3615134 0.17500438 16
-0.8014372 1.3921633 0.025969181 100
-0.80160493 1.3922405 0.077980578 100
-0.8164075 1.3990552 0.13160518 100
-0.76452035 1.3751678 0.1776855 15
-0.80640119 1.4004838 0.0261088 100
-0.8011263 1.3980321 0.078085244 100
-0.80325228 1.3990202 0.1305593 100
-0.76049334 1.3791449 0.17744176 9
-0.79525024 1.4007339 0.025934275 100
-0.80807811 1.4067484 0.07860861 100
-0.80115896 1.4035044 0.1305593 100
-0.77464217 1.3910717 0.17963541 5
-0.7859202 1.4017719 0.025794657 100
-0.81318122 1.4146639 0.079027295 100
-0.79905075 1.4079814 0.1305593 100
-0.77616447 1.3971583 0.18012288 3
-0.7910375 1.409642 0.025934275 100
-0.80021983 1.4140217 0.078399263 100
-0.8077175 1.417598 0.13160518 100
-0.79949445 1.4197578 0.026143705 100
-0.79785019 1.4189663 0.078399263 100
-0.81610566 1.427756 0.13265105 100
-0.7991311 1.4251029 0.02617861 100
-0.80287737 1.426922 0.078817949 100
-0.81033248 1.430542 0.13230242 100
-0.79312974 1.4282832 0.0261088 100
-0.8094278 1.436271 0.079341307 100
-0.80074602 1.432016 0.13160518 100
-0.78376859 1.4291894 0.025969181 100
-0.81079191 1.4425452 0.079550654 100
-0.80926019 1.4417882 0.13265105 100
-0.79565912 1.4412141 0.02624842 100
-0.80116874 1.4439623 0.079131968 100
-0.81748623 1.4521015 0.13369691 100
-0.79342586 1.4456728 0.02624842 100
-0.79535776 1.4466444 0.078922622 100
-0.81343681 1.4557374 0.1335226 100
-0.79807311 1.4542124 0.026388038 100
-0.79643065 1.4533787 0.079131968 100
-0.80558437 1.4580247 0.13299966 100
-0.79579669 1.458679 0.026388038 100
-0.80126899 1.4614793 0.079550654 100
-0.80329531 1.4625162 0.13299966 100
-0.78970999 1.461772 0.02631823 100
-0.80227488 1.46826 0.07976 100
-0.80605906 1.470214 0.1335226 100
-0.79450363 1.4699042 0.026457848 100
-0.79640871 1.470896 0.079550654 100
-0.81079859 1.4783869 0.13421984 100
-0.79559332 1.4764524 0.026527658 99
-0.79041725 1.4737347 0.079341307 100
-0.81360978 1.4859111 0.13474278 100
-0.79677814 1.4827814 0.026597468 66
-0.7810151 1.4744388 0.078922622 70
-0.80066246 1.4848371 0.13369691 94
0.13770992 1.282419 0.12784202 11
0.20183888 1.2027158 0.12822211 8
0.15559581 1.2637081 0.011029921 25
0.16106269 1.2568647 0.032657638 29
0.14957544 1.2712443 0.056128297 24
0.14608601 1.2756122 0.07945881 14
0.15052873 1.2700509 0.10136953 11
0.15052944 1.27005 0.12440746 48
0.20213515 1.205451 0.128672 16
0.14847869 1.2726171 0.17237349 7
0.16096395 1.2603137 0.010925206 100
0.17385206 1.2440705 0.031715591 92
0.15990853 1.2616439 0.054908119 100
0.16627264 1.253623 0.075802729 30
0.17183414 1.2466137 0.096363634 25
0.16683319 1.2529166 0.11982805 100
0.18541223 1.2295008 0.13542053 30
0.14894688 1.2754593 0.17289113 35
0.16020292 1.2648103 0.010995016 100
0.17303726 1.2485185 0.031924933 100
0.15546241 1.270828 0.055779677 100
0.17041996 1.2518408 0.075315252 30
0.18327937 1.235517 0.093860678 26
0.1551573 1.2712153 0.12402584 100
0.1858125 1.2323015 0.13587044 45
0.15071368 1.2768561 0.17289113 35
0.16439644 1.2630178 0.010925206 100
0.17347944 1.2514045 0.032029606 100
0.15721303 1.2722021 0.055779677 100
0.17944199 1.2437811 0.073852822 31
0.18490654 1.2367942 0.093860678 26
0.17021388 1.2555797 0.11982805 100
0.188629 1.2320349 0.13542053 30
0.15486571 1.2752033 0.17185585 50
0.17347845 1.2548842 0.010715778 100
0.18496183 1.2400959 0.03119223 63
0.16019043 1.2719965 0.055605363 98
0.1677056 1.2623185 0.076533951 29
0.17199972 1.2567885 0.097615108 24
0.18997276 1.2336428 0.11410378 82
0.18665841 1.2379111 0.13677025 30
0.14596799 1.2903121 0.1765146 41
0.1776152 1.2530282 0.010645968 66
0.17806888 1.2524396 0.031924933 61
0.16802746 1.2654645 0.054733805 50
0.18518266 1.2432122 0.073365346 46
0.16887689 1.2643628 0.098866582 36
0.166421 1.2675483 0.12211776 12
0.19067359 1.2360898 0.13587044 15
0.14660719 1.2932492 0.17703223 48
0.17201114 1.2638528 0.010855397 52
0.18582475 1.2458049 0.031401575 31
0.1661264 1.2715414 0.055256739 49
0.18683669 1.2444828 0.073365346 62
0.19581783 1.2327487 0.092296332 53
0.1872521 1.2439401 0.11601187 19
0.20177814 1.2249614 0.13227122 31
0.15665525 1.2839156 0.17340876 57
0.16898546 1.2716044 0.010995016 38
0.17549014 1.263041 0.032448292 29
0.17278782 1.2665987 0.054559495 50
0.18977892 1.2442299 0.073121607 62
0.19751626 1.2340437 0.092296332 53
0.19492924 1.2374495 0.11410378 13
0.20109051 1.2293382 0.13317102 46
0.17490095 1.2638167 0.16616182 68
0.17796275 1.2633517 0.010785587 39
0.16759318 1.2771026 0.03328567 28
0.1757232 1.2663215 0.054385185 51
0.18307003 1.256579 0.074827775 45
0.19319141 1.2431573 0.093860678 52
0.19892725 1.2355511 0.11334054 13
0.20856264 1.2227738 0.13092151 32
0.18476909 1.254326 0.16253836 78
0.18670836 1.2549157 0.010576159 40
0.15481791 1.2974827 0.03454173 27
0.17489505 1.270684 0.054733805 50
0.19293204 1.2466085 0.073121607 62
0.19467965 1.2442758 0.093860678 52
0.1992144 1.238223 0.11372216 13
0.20531303 1.2300825 0.13272113 39
0.18397582 1.2585632 0.16357364 69
0.18959665 1.2545764 0.010541254 95
0.18526801 1.2603965 0.032029606 30
0.17902312 1.2687929 0.054385185 51
0.19104388 1.2526305 0.073852822 46
0.19044295 1.2534385 0.095425025 76
0.20319423 1.2362939 0.11295892 13
0.21622497 1.2187736 0.1291219 40
0.18107185 1.2660383 0.16564418 68
0.18178809 1.2687012 0.010820492 91
0.2000317 1.2439923 0.030878214 63
0.17484927 1.2780991 0.055256739 74
0.20098451 1.2427018 0.072146654 63
0.20386603 1.2387991 0.092296332 80
0.204824 1.2375016 0.11295892 13
0.22242355 1.213665 0.1273223 32
0.18165812 1.2688773 0.16616182 68
0.18825975 1.263532 0.010680873 93
0.19696552 1.2516546 0.031296901 62
0.18487003 1.2681568 0.054036561 77
0.19324848 1.2567258 0.07409656 76
0.20667234 1.2384113 0.091983467 93
0.20529738 1.2402872 0.11334054 13
0.22973442 1.2069471 0.12507279 16
0.18682793 1.2654855 0.16460891 85
0.19704384 1.25509 0.010471444 82
0.21274999 1.2335041 0.03004084 66
0.18895561 1.2662061 0.053687938 78
0.19962135 1.2515476 0.073121607 78
0.2106339 1.2364123 0.09135773 94
0.21733683 1.2272 0.10990598 14
0.22208926 1.2206684 0.128672 16
0.19083291 1.263626 0.16357364 69
0.19873926 1.256319 0.010471444 96
0.20384499 1.2492502 0.030982886 63
0.18719012 1.2723088 0.054210871 100
0.20362905 1.2495492 0.072634131 78
0.20879418 1.242398 0.092296332 80
0.21778524 1.22995 0.1102876 14
0.22480541 1.2202306 0.12822211 16
0.19821391 1.2570465 0.16098544 72
0.20276937 1.2542919 0.010401634 97
0.21483028 1.2374703 0.030145511 98
0.19126761 1.2703338 0.053862248 100
0.21687204 1.2346226 0.07019674 82
0.20814314 1.246797 0.092922069 100
0.21252897 1.24068 0.1125773 13
0.23092106 1.215028 0.12642249 16
0.1976648 1.2614114 0.16202073 70
0.19982389 1.2620178 0.010541254 81
0.21646407 1.2386374 0.030145511 98
0.19763741 1.26509 0.053165004 100
0.21158955 1.2454864 0.071659178 80
0.22011837 1.2335029 0.090106249 96
0.20051327 1.2610493 0.11715672 19
0.2336064 1.2145514 0.12597258 16
0.19714195 1.2657862 0.163056 70
0.19462052 1.2730366 0.010750682 92
0.21810198 1.2397988 0.030145511 98
0.20166698 1.2630624 0.05281638 100
0.20866975 1.25315 0.072634131 63
0.22173831 1.2346516 0.090106249 96
0.21015912 1.2510419 0.1144854 40
0.22953796 1.2236112 0.12822211 24
0.20333344 1.2607036 0.16098544 72
0.20326734 1.2644506 0.010541254 95
0.21859717 1.2425897 0.030250182 98
0.20110235 1.2675378 0.053165004 100
0.20807889 1.2575891 0.073121607 62
0.21995977 1.2406466 0.091044858 100
0.20507714 1.2618697 0.1167751 99
0.23000446 1.2263227 0.128672 56
0.20726675 1.2587472 0.15995017 72
0.20613781 1.2640166 0.010506349 100
0.21910784 1.2453829 0.030354854 97
0.20056477 1.2720232 0.053513627 100
0.21658731 1.2490041 0.071659178 64
0.21821913 1.2466598 0.091983467 100
0.22249833 1.2405119 0.11143246 91
0.22380623 1.2386329 0.13182132 86
0.20456034 1.2662829 0.16202073 70
0.21582097 1.2536973 0.010262015 98
0.22190452 1.2448919 0.030250182 98
0.20911434 1.2634046 0.052467756 100
0.23067337 1.2321997 0.068978049 50
0.22100782 1.2461897 0.091670595 94
0.2219108 1.2448827 0.11219569 84
0.23984414 1.2189257 0.12597258 74
0.20629478 1.2674856 0.16202073 70
0.2061148 1.2712927 0.010611063 94
0.22461095 1.2443303 0.030145511 65
0.20398998 1.27439 0.053513627 100
0.21199489 1.2627211 0.073365346 62
0.22482362 1.2440202 0.091044858 100
0.21460268 1.2589196 0.11524864 100
0.23251554 1.2328074 0.12957181 96
0.21013203 1.2654366 0.16098544 80
0.21011761 1.2691841 0.010541254 81
0.22964084 1.2405105 0.029831495 66
0.21248072 1.2657135 0.052467756 100
0.2260063 1.2458485 0.070684217 81
0.23648602 1.2304569 0.088229038 98
0.22183603 1.2519734 0.11334054 89
0.23193946 1.2371345 0.13047162 88
0.21295077 1.2650231 0.1604678 88
0.22417843 1.2521422 0.0101573 42
0.22793031 1.2465904 0.030145511 32
0.21198198 1.2701902 0.05281638 79
0.22544631 1.2502661 0.071171694 81
0.23367104 1.2380953 0.089480512 97
0.22791746 1.2466093 0.11181407 98
0.23357201 1.2382419 0.13047162 100
0.21576244 1.264596 0.15995017 80
0.22586343 1.2532766 0.0101573 42
0.21847072 1.2642989 0.03119223 31
0.21927905 1.2630937 0.051944822 54
0.22159603 1.2596391 0.072390392 100
0.23200595 1.2441182 0.090419121 100
0.23505098 1.2395782 0.10990598 100
0.22869545 1.2490541 0.13317102 100
0.21641487 1.267364 0.1604678 72
0.22533619 1.2577343 0.01022711 28
0.23126534 1.2488272 0.030145511 32
0.21879426 1.2675622 0.052293446 53
0.22990707 1.2508676 0.070927955 97
0.23147368 1.2485142 0.091044858 100
0.23016477 1.2504805 0.11219569 100
0.2357688 1.2420617 0.13092151 96
0.21815303 1.2685255 0.1604678 72
0.22593844 1.2605331 0.010262015 28
0.23073688 1.2532697 0.030354854 32
0.21504197 1.2770271 0.053165004 52
0.23596436 1.2453569 0.069953002 99
0.24294558 1.2347894 0.088229038 98
0.23076174 1.2532321 0.1125773 89
0.24601182 1.2301481 0.1273223 97
0.21989521 1.2696807 0.1604678 72
0.21120641 1.286746 0.010785587 39
0.21052408 1.2877868 0.032448292 29
0.22118351 1.2715285 0.052467756 53
0.23000669 1.2580709 0.071659178 80
0.24565294 1.2342064 0.087916173 100
0.23567981 1.249418 0.11143246 91
0.2476199 1.2312063 0.1273223 97
0.22587833 1.2643677 0.15839726 73
0.23264259 1.2577552 0.0101573 42
0.22867227 1.2638572 0.030878214 31
0.22510937 1.2693331 0.052119136 54
0.23387754 1.2558571 0.071171694 81
0.24727517 1.235266 0.087916173 98
0.23949659 1.247221 0.11066922 92
0.25029442 1.2306256 0.12687239 99
0.22971311 1.2622576 0.15736198 74
0.23651657 1.2555001 0.010087491 43
0.24773246 1.2381297 0.029203463 34
0.23550037 1.2570739 0.05072464 56
0.24311301 1.2452841 0.069465525 66
0.24675804 1.2396388 0.08854191 84
0.24968392 1.2351074 0.10761628 87
0.24767581 1.2382175 0.128672 89
0.23457712 1.2585038 0.15580906 75
0.23821318 1.2565914 0.010087491 57
0.2504459 1.2375003 0.029098792 68
0.23505268 1.2615238 0.051073264 55
0.24477392 1.2463523 0.069465525 49
0.2462678 1.2440209 0.089167647 70
0.23542145 1.2609483 0.11334054 100
0.25246611 1.2343475 0.1273223 97
0.23315752 1.2644815 0.15736198 74
0.23544917 1.2643168 0.01022711 70
0.25298831 1.2367541 0.028994121 100
0.22697175 1.2776392 0.05264207 53
0.2430748 1.2523332 0.07019674 82
0.24987945 1.2416396 0.08854191 84
0.24961323 1.242058 0.10876112 79
0.25811115 1.2287035 0.12552269 90
0.230564 1.2719939 0.15943253 73
0.23183829 1.2738659 0.010401634 83
0.25568575 1.2360992 0.028889447 100
0.23831949 1.2636018 0.051073264 100
0.23840117 1.2634726 0.071659178 64
0.26207435 1.2259817 0.085413218 73
0.24078086 1.2597039 0.1125773 82
0.25555232 1.2363106 0.1273223 97
0.23334968 1.2714725 0.15891489 65
0.24103129 1.2631117 0.0101573 71
0.25307274 1.2438936 0.029308135 100
0.24216014 1.2613101 0.05072464 84
0.2401256 1.2645571 0.071659178 80
0.2531794 1.2437234 0.08854191 56
0.24770412 1.2524619 0.11066922 92
0.25821653 1.2356842 0.12687239 99
0.24330789 1.2594783 0.15477379 67
0.2438103 1.262489 0.010122396 85
0.25051057 1.2517118 0.029726824 100
0.2501888 1.2522295 0.049678773 86
0.24919063 1.253835 0.069953002 49
0.25900677 1.2380463 0.087290429 71
0.25871935 1.2385086 0.10723466 81
0.26190168 1.23339 0.12597258 90
0.24501833 1.2605458 0.15477379 67
0.24763104 1.2601509 0.010052586 86
0.26477724 1.2323563 0.02847076 100
0.24245942 1.2685343 0.051247578 82
0.25713471 1.2447451 0.068490572 50
0.25649384 1.245784 0.08854191 70
0.25004891 1.2562314 0.11105084 98
0.26659039 1.2294171 0.12462288 92
0.24470398 1.2648958 0.15580906 67
0.24516806 1.2680256 0.010192205 99
0.26013687 1.2435701 0.029098792 100
0.24524164 1.2679055 0.051073264 83
0.25672102 1.2491508 0.068978049 50
0.26434392 1.2366967 0.086664692 71
0.25994739 1.2438797 0.10799789 72
0.2712478 1.2254174 0.12327318 100
0.24038219 1.2758447 0.15891489 65
0.24483237 1.272505 0.010262015 84
0.26386514 1.2411647 0.028889447 100
0.24387893 1.274075 0.051596198 82
0.24293929 1.2756224 0.072634131 63
0.26802546 1.2343142 0.086038955 58
0.24835539 1.2667038 0.11295892 89
0.27081615 1.2297189 0.12417299 92
0.25521222 1.2554131 -0.0099129668 87
0.24816641 1.2670151 0.15580906 67
0.25690842 1.2564392 0.0099129668 87
0.26138854 1.2490036 0.029308135 100
0.25592276 1.258075 0.049853086 85
0.248804 1.2698898 0.071659178 80
0.267609 1.2386795 0.086664692 71
0.26731554 1.2391666 0.10647142 81
0.27141684 1.2323598 0.12462288 92
0.25090015 1.2664109 0.15529142 75
0.2556161 1.2626598 0.010017681 87
0.25904819 1.2569162 0.029726824 100
0.25055978 1.2711217 0.051073264 83
0.26387531 1.2488378 0.068490572 50
0.26527569 1.2464943 0.087916173 70
0.26702297 1.2435701 0.10723466 81
0.269115 1.2400692 0.12642249 90
0.25371253 1.2658455 0.15477379 67
0.26753488 1.2464828 0.0096686333 75
0.26889753 1.2441843 0.028889447 100
0.25332683 1.2704501 0.050898954 83
0.26757306 1.2464185 0.068003096 51
0.26694068 1.2474853 0.087916173 56
0.26667544 1.2479327 0.10799789 79
0.28168875 1.2226071 0.12147357 77
0.24756411 1.2801712 0.15891489 65
0.26100436 1.2612052 0.0099478718 73
0.27047151 1.2451138 0.028889447 100
0.25801897 1.2662795 0.05037602 84
0.26311481 1.2576181 0.069465525 49
0.2725324 1.241611 0.086664692 86
0.26228866 1.2590222 0.1102876 99
0.28516749 1.2201352 0.12057377 77
0.26201838 1.2594817 -0.0099129668 87
0.25709447 1.2678508 0.15477379 67
0.26171276 1.2639381 0.0099827768 87
0.27414522 1.2426368 0.028680105 100
0.26075739 1.2655749 0.050201707 100
0.26681992 1.2551876 0.068978049 50
0.28214625 1.2289282 0.084161744 59
0.27092481 1.2481545 0.10761628 65
0.27986419 1.2328382 0.12372308 92
0.26372874 1.260484 -0.0099129668 87
0.26078171 1.2655332 0.15373851 68
0.27045241 1.2528274 0.0097384425 75
0.26979226 1.2539675 0.029308135 100
0.26648223 1.2596846 0.049504463 100
0.27249384 1.2493014 0.068003096 51
0.28078049 1.2349889 0.085100345 58
0.27456298 1.2457278 0.10685304 81
0.2834343 1.2304054 0.12282328 76
0.26343867 1.2649413 -0.0099827768 86
0.2586413 1.2732272 0.15580906 67
0.27114359 1.2555343 0.0097733475 89
0.27347273 1.2514789 0.029098792 100
0.26819327 1.2606713 0.049504463 86
0.27219132 1.25371 0.068490572 50
0.27748623 1.2444907 0.086664692 57
0.27524748 1.2483888 0.10723466 81
0.28310195 1.2347128 0.12372308 83
0.26232395 1.2708907 0.15477379 67
0.27077487 1.2599311 0.0098431576 88
0.2770488 1.2489228 0.028889447 100
0.26883543 1.263334 0.049678773 86
0.27674568 1.2494546 0.067759357 68
0.28199553 1.2402432 0.08572609 58
0.27586329 1.2510029 0.10761628 87
0.28753924 1.2305161 0.12237337 85
0.26398653 1.271842 0.15477379 67
0.27347085 1.2591619 0.0098082526 74
0.28658533 1.2359633 0.028052073 100
0.25781277 1.28686 0.051944822 81
0.27744406 1.2521336 0.068003096 51
0.28947136 1.2308581 0.083848871 59
0.27947628 1.2485387 0.10685304 81
0.29202539 1.2263402 0.12102367 86
0.27248678 1.2609028 -0.0098431576 87
0.26383862 1.2762008 0.15580906 67
0.27135476 1.2671497 0.0099478718 73
0.27852982 1.2543483 0.029098792 100
0.26750216 1.2740234 0.05055033 84
0.27727187 1.2565926 0.068490572 50
0.29116225 1.2318099 0.083848871 59
0.2764326 1.25809 0.10876112 79
0.2927469 1.2289826 0.12147357 77
0.27624327 1.2584279 -0.0097733475 88
0.27325213 1.2637645 0.15166797 77
0.28086472 1.254137 0.0096686333 75
0.28216302 1.2518015 0.028889447 100
0.27991188 1.255851 0.048632905 88
0.27897206 1.2575417 0.068490572 50
0.29469541 1.2292575 0.083223134 60
0.27813801 1.259042 0.10876112 79
0.29435062 1.2298777 0.12147357 77
0.27212024 1.2698672 -0.0099827768 86
0.27685466 1.2613506 0.15063268 70
0.28633487 1.2480229 0.0095290141 76
0.27990368 1.2596825 0.029308135 100
0.27767539 1.2637224 0.049330149 87
0.28250781 1.2549613 0.068003096 51
0.28954136 1.2422096 0.085413218 58
0.28450227 1.2513454 0.10685304 88
0.29399464 1.2341357 0.12237337 76
0.28035161 1.2588705 0.14959741 70
0.28320664 1.2577121 0.0097035384 90
0.28736576 1.2501091 0.028680105 100
0.28704992 1.2506864 0.047935657 89
0.28801298 1.2489259 0.067028143 51
0.29024324 1.2448488 0.08572609 58
0.2842997 1.2557139 0.10761628 79
0.27835122 1.2665881 0.15166797 77
0.28967848 1.2498519 0.0095290141 76
0.29285285 1.2440007 0.028261416 100
0.27352825 1.2796218 0.05072464 84
0.28589997 1.2568169 0.068003096 51
0.29567021 1.2388074 0.084474608 59
0.28880531 1.2514615 0.10647142 81
0.28109646 1.2656713 -0.0098431576 87
0.27548024 1.2760236 0.15425615 75
0.28377575 1.2648458 0.0098082526 74
0.29072392 1.2519308 0.028680105 100
0.28191653 1.2683017 0.049504463 86
0.28948188 1.2542396 0.067515619 51
0.29918 1.2362131 0.083848871 59
0.28676692 1.2592859 0.10799789 72
0.28567058 1.2613238 -0.0097384425 99
0.2836552 1.26507 0.15063268 70
0.29491735 1.248129 0.009459204 77
0.29052752 1.2563573 0.028889447 100
0.29491147 1.24814 0.047412723 90
0.289305 1.2586489 0.068003096 51
0.2940211 1.2498089 0.10570818 81
0.28902227 1.2591788 0.14856213 71
0.29658788 1.2490165 0.009459204 93
0.29222682 1.2572601 0.028889447 100
0.29099193 1.2595943 0.048458595 88
0.29286882 1.2560465 0.067515619 51
0.29753363 1.2472287 0.10494494 67
0.28443158 1.2719951 -0.0099129668 87
0.2871179 1.2669172 0.15063268 70
0.28900039 1.2675529 0.049155839 87
0.29456702 1.2569411 0.067515619 51
0.29828903 1.2498457 0.10532656 67
0.28526443 1.2746749 0.15270324 68
0.29347903 1.2631924 0.0097035384 90
0.29349688 1.2631581 0.048632905 88
0.29443631 1.2613519 0.068003096 51
0.28794259 1.2738369 -0.0099129668 97
0.28702769 1.2755959 0.15270324 68
0.29703522 1.2605304 0.0096337283 90
0.29613307 1.2622797 0.048458595 88
0.29433331 1.2657697 0.068490572 50
0.29520217 1.2640848 -0.0097035384 100
0.29410681 1.2662089 0.14959741 70
0.29785299 1.2631629 0.048458595 59
0.29331312 1.2763956 0.069709264 99
0.29142481 1.2801208 -0.0099827768 100
0.29845065 1.2662601 0.14907977 78
0.29844961 1.2705874 0.15011504 78
0.29770085 1.2764765 0.049504463 28
0.29499242 1.2819135 -0.0099827768 100
0.29855165 1.2792145 -0.0099129668 100
0.29963025 1.2819726 -0.0099478718 100
0.29800734 1.2987885 0.051247578 27
