# .PCD v0.7 - Point Cloud Data file format
VERSION 0.7
FIELDS x y z intensity
SIZE 4 4 4 4
TYPE F F F F
COUNT 1 1 1 1
WIDTH 741
HEIGHT 1
VIEWPOINT 0 0 0 1 0 0 0
POINTS 741
DATA ascii
0.087190896 0.0018835068 0.046997689 21
0.054149985 0.0023579597 0.015951499 129
0.05583778 0.0049709082 0.047730394 60
0.05630663 0.011808395 0.047416378 43
0.043448865 0.0035225749 0.048149079 100
0.040909946 0.0052065849 0.048149079 79
0.040070713 0.010572612 0.047939736 54
0.040911794 0.017231107 0.047625721 28
0.038287222 0.019012749 0.047625721 19
0.035799682 0.020713747 0.047625721 9
0.030784607 0.019318163 0.047835063 9
0.029439688 0.022682965 0.047730394 9
0.024539649 0.02123487 0.047939736 9
-0.85805517 0.64284801 0.024677703 3
-0.84651607 0.64855742 0.024468273 4
-0.73135084 0.66307759 0.022443796 6
-0.67787892 0.67163855 0.021501364 19
-0.68417984 0.67525172 0.021606078 37
-0.67650992 0.67993069 0.02146646 45
-0.68680614 0.68373096 0.021640984 55
-0.68509012 0.68796539 0.021606078 34
-0.6734212 0.6934576 0.02139665 27
-0.66967589 0.69775152 0.02132684 35
-0.67791897 0.70177859 0.02146646 39
-0.68812329 0.70532936 0.021640984 63
-0.68235999 0.71015871 0.02153627 34
-1.043726 1.1294539 0.14293543 3
-1.0521994 1.1372468 0.028691756 6
-1.0132585 1.1283212 0.084051549 5
-1.0308094 1.132344 0.14188954 6
-1.0197463 1.1355802 0.028133279 10
-1.0100529 1.1333227 0.083946876 33
-1.0159516 1.1346965 0.14066938 40
-0.98732501 1.1336915 0.027574802 30
-1.0010009 1.1369269 0.083528183 91
-1.0127301 1.1397017 0.14049506 81
-0.98021299 1.1376541 0.027470088 38
-0.99582666 1.1414055 0.083318844 100
-1.0094929 1.144689 0.14032075 87
-0.98474842 1.1444151 0.027574802 41
-0.9731769 1.1415921 0.082167454 100
-1.0101111 1.1506026 0.14049506 86
-0.99313742 1.1521738 0.027749326 21
-0.98350257 1.1497875 0.082795486 95
-0.99330145 1.1522143 0.13910057 91
-0.97240037 1.152683 0.027400278 27
-0.98216754 1.1551381 0.082795486 45
-0.99195784 1.1575991 0.13910057 80
-0.96136707 1.1555235 0.027225753 44
-0.99049026 1.1629524 0.083318844 35
-0.98673433 1.1619943 0.13875194 84
-0.96001214 1.1607969 0.027225753 61
-0.97557431 1.1648245 0.082586139 70
-0.98342782 1.1668569 0.13857763 89
-0.96637541 1.1680965 0.027365373 67
-0.96259612 1.1671044 0.081958108 100
-0.98781437 1.1737249 0.13910057 91
-0.96497649 1.1733872 0.027365373 78
-0.95348066 1.1703262 0.081539422 92
-0.97291857 1.1755019 0.13788038 100
-0.95197588 1.1755455 0.027155945 81
-0.95400232 1.1760926 0.081644088 98
-0.95995289 1.1776993 0.13683452 100
-0.94283611 1.1786737 0.027016325 93
-0.95450205 1.1818674 0.081748761 100
-0.96428555 1.1845458 0.13735744 99
-0.94147271 1.183622 0.027016325 96
-0.94350487 1.1841855 0.081225403 98
-0.96866232 1.1911623 0.13788038 89
-0.94772023 1.1909902 0.027155945 92
-0.93051344 1.1861535 0.080597371 88
-0.96526486 1.1959217 0.13770607 99
-0.95578259 1.1992176 0.027330469 68
-0.93474048 1.1932197 0.08091139 72
-0.9502812 1.1976495 0.13648589 100
-0.96003872 1.2061357 0.027435184 45
-0.93709189 1.1995082 0.081120729 38
-0.94303674 1.2012253 0.13596296 99
-0.92979437 1.2027221 0.026911611 50
-0.92799145 1.2021949 0.080702044 22
-0.95116013 1.20897 0.13683452 84
-0.92635745 1.207317 0.026876707 75
-0.92264372 1.2062169 0.080492698 26
-0.94579798 1.2130755 0.13648589 84
-0.92290658 1.2118931 0.026841801 75
-0.91346008 1.209059 0.080074012 32
-0.94042557 1.217149 0.13613728 94
-0.9232685 1.2176132 0.026876707 78
-0.91382951 1.2147454 0.080178685 84
-0.92932385 1.219453 0.13526571 100
-0.91405183 1.2204012 0.026737086 78
-0.92181295 1.2227888 0.080702044 96
-0.91822439 1.2216848 0.13439415 98
-0.90865225 1.2243196 0.026667276 88
-0.92213041 1.2285175 0.080806717 86
-0.92805237 1.2303621 0.13544002 68
-0.90324324 1.2282058 0.026597468 85
-0.90337747 1.2282481 0.079864666 76
-0.9188357 1.2331221 0.13474278 50
-0.90163499 1.2332758 0.026597468 85
-0.8998664 1.2327113 0.07976 80
-0.91910821 1.2388523 0.1349171 43
-0.90778488 1.2402898 0.026737086 83
-0.9003064 1.2378771 0.079864666 91
-0.91193956 1.2416301 0.13439415 45
-0.89084452 1.2406622 0.026457848 96
-0.89668328 1.2425694 0.07976 100
-0.90641326 1.2457479 0.13404553 63
-0.87771839 1.2421727 0.02624842 100
-0.89683765 1.2484958 0.079864666 100
-0.91033465 1.2529595 0.13456847 80
-0.87218577 1.2461327 0.02617861 99
-0.88560456 1.2506251 0.079341307 100
-0.90099746 1.2557786 0.13387123 82
-0.88213295 1.2541931 0.026388038 96
-0.88038808 1.2536032 0.079131968 100
-0.90143722 1.2607198 0.13404553 78
-0.88791662 1.2620285 0.026527658 96
-0.87860602 1.2588426 0.079131968 100
-0.89208847 1.2634561 0.13334829 97
-0.87871772 1.2641795 0.026388038 88
-0.87697703 1.2635773 0.079131968 100
-0.88291246 1.2656304 0.13265105 93
-0.86179739 1.2641279 0.0261088 77
-0.87515837 1.2688041 0.079131968 91
-0.89801115 1.2768025 0.13421984 57
-0.86194915 1.2697201 0.026143705 74
-0.86211175 1.2697777 0.078503937 51
-0.89998966 1.2831835 0.13456847 38
-0.86010808 1.2748919 0.026143705 88
-0.83958644 1.267544 0.077352546 19
-0.89059585 1.285808 0.13387123 40
-0.86415654 1.2813592 0.02624842 96
-0.86243361 1.2807362 0.078713275 51
-0.87585276 1.2855886 0.13265105 24
-0.85100466 1.2824177 0.026038991 96
-0.85867637 1.2852236 0.07860861 89
-0.86085528 1.2860205 0.13143086 15
-0.84170502 1.2845311 0.025899371 100
-0.85499603 1.289445 0.078503937 100
-0.855308 1.2895603 0.13108224 5
-0.83980983 1.2896285 0.025899371 100
-0.84185809 1.2903944 0.077875905 76
-0.87205642 1.3016851 0.13282534 1
-0.83807904 1.2942345 0.025899371 100
-0.82704562 1.2900676 0.0771432 48
-0.87028545 1.3063979 0.13282534 1
-0.85109323 1.3050255 0.02617861 79
-0.82699603 1.2958236 0.077247873 53
-0.84039038 1.3009384 0.13021068 13
-0.83251959 1.3031927 0.025864467 72
-0.83828908 1.3054178 0.077980578 68
-0.84605783 1.308414 0.13090792 56
-0.8212406 1.3046243 0.025689943 78
-0.83817822 1.311228 0.078085244 70
-0.85521287 1.3178695 0.13195379 100
-0.82690293 1.3120989 0.025829561 96
-0.82522529 1.3114384 0.077457212 59
-0.83670336 1.3159574 0.130385 99
-0.82490677 1.3171418 0.025829561 100
-0.82137591 1.3157368 0.077352546 85
-0.84209782 1.323983 0.13108224 99
-0.82689244 1.3229489 0.025899371 100
-0.82150811 1.3207867 0.077457212 100
-0.82555956 1.3224137 0.12968774 100
-0.81003326 1.3219757 0.025620133 100
-0.81392819 1.3235564 0.0771432 91
-0.8253718 1.3282009 0.12986206 100
-0.79090446 1.3142123 0.1776855 15
-0.80079371 1.3234501 0.025480513 100
-0.82132572 1.3318626 0.077666558 100
-0.81429499 1.3289819 0.1289905 100
-0.79092938 1.3194084 0.17792924 18
-0.80984181 1.3329868 0.025689943 100
-0.80264896 1.330009 0.076724514 100
-0.8196004 1.3370271 0.12968774 100
-0.79440898 1.3265976 0.17866045 24
-0.80816537 1.3370192 0.025689943 100
-0.78992289 1.3294032 0.076096483 100
-0.82526642 1.3441586 0.130385 100
-0.7707693 1.3214066 0.17573559 16
-0.80986315 1.3433102 0.025759751 100
-0.78980249 1.3348527 0.076201156 100
-0.81040245 1.3435376 0.12916481 100
-0.77798241 1.3298695 0.17695428 20
-0.80049402 1.3449204 0.025620133 85
-0.79517323 1.3426554 0.076619841 67
-0.80289263 1.3459415 0.12864187 97
-0.78880531 1.3399445 0.17866045 15
-0.80215329 1.3512104 0.025689943 57
-0.82802969 1.3623333 0.07860861 53
-0.80636531 1.3530209 0.12916481 26
-0.80869263 1.3540213 0.18158533 10
-0.80735093 1.3593481 0.025829561 94
-0.80936128 1.3602209 0.077666558 100
-0.8298052 1.3690975 0.13160518 61
-0.75555879 1.3368604 0.17476064 13
-0.79795963 1.3608713 0.025689943 100
-0.80546349 1.3641605 0.077561885 100
-0.8295303 1.3747101 0.13177948 100
-0.78629786 1.3557594 0.17914793 29
-0.79599279 1.3653381 0.025689943 100
-0.80713886 1.370268 0.077771232 100
-0.80018574 1.3671925 0.12916481 100
-0.79887158 1.3666112 0.18109785 42
-0.79755837 1.3716633 0.025759751 100
-0.81415397 1.3790729 0.07829459 100
-0.7980929 1.371902 0.12916481 100
-0.78590506 1.3664603 0.17963541 29
-0.78633446 1.3722553 0.025585229 100
-0.81384045 1.3846517 0.078399263 100
-0.79780012 1.3774226 0.12933913 100
-0.76752669 1.3637791 0.17744176 22
-0.79514545 1.3818843 0.025794657 100
-0.80259663 1.3852737 0.077875905 100
-0.8083666 1.3878984 0.1305593 100
-0.7600252 1.3659087 0.17671055 16
-0.79300135 1.3865759 0.025794657 100
-0.79681045 1.3883247 0.077666558 100
-0.81706554 1.397624 0.13160518 100
-0.75432903 1.3688214 0.17622307 15
-0.80354172 1.3971449 0.026038991 100
-0.80551702 1.3980601 0.07829459 100
-0.80401975 1.3973665 0.1305593 100
-0.78104919 1.3867233 0.18012288 12
-0.79047555 1.3967838 0.025829561 100
-0.80512565 1.403634 0.078399263 100
-0.80182165 1.4020891 0.1305593 100
-0.78967768 1.3964107 0.18158533 7
-0.790088 1.4023125 0.025864467 100
-0.81193703 1.4126217 0.078922622 100
-0.80321068 1.4085044 0.13090792 100
-0.76773483 1.3917654 0.17890419 3
-0.78787273 1.4069865 0.025864467 100
-0.79886574 1.4122205 0.07829459 100
-0.80816931 1.4166501 0.13160518 100
-0.77451807 1.400628 0.18012288 3
-0.79645592 1.4168482 0.026073895 100
-0.79841608 1.4177898 0.078399263 100
-0.80949563 1.4231124 0.13195379 100
-0.80318707 1.4259052 0.02624842 100
-0.80153841 1.4251062 0.078713275 100
-0.81079322 1.4295921 0.13230242 100
-0.79370373 1.4271108 0.0261088 100
-0.80103761 1.4306973 0.078817949 100
-0.79774362 1.4290864 0.13125655 100
-0.78793031 1.4297942 0.026038991 100
-0.8077957 1.4395907 0.079341307 100
-0.80269819 1.4370769 0.13195379 100
-0.79278058 1.4380232 0.02617861 100
-0.80008548 1.4416574 0.079027295 100
-0.80749685 1.4453444 0.13265105 100
-0.7975896 1.4462941 0.02631823 100
-0.79773277 1.4463661 0.079027295 100
-0.81225401 1.4536536 0.13334829 100
-0.79522067 1.450994 0.02631823 100
-0.80070943 1.4537725 0.079341307 100
-0.80808169 1.4575046 0.13317397 100
-0.78927344 1.4538667 0.02624842 100
-0.80542952 1.4621165 0.07976 100
-0.79857582 1.4586167 0.13247673 100
-0.78687817 1.4585375 0.02624842 100
-0.8047809 1.4677579 0.079864666 100
-0.80679148 1.4687935 0.1335226 100
-0.7881369 1.4648099 0.02631823 100
-0.79714197 1.4694856 0.079550654 100
-0.81507617 1.4787978 0.13456847 100
-0.7927894 1.4731874 0.026457848 100
-0.79292279 1.4732573 0.07944598 100
-0.81965381 1.4872556 0.13526571 100
-0.79386312 1.479738 0.026527658 89
-0.78869361 1.4770079 0.079341307 100
-0.80128568 1.4836582 0.13369691 98
-0.80054492 1.4893073 0.13387123 42
0.13585162 1.283443 0.12822364 5
0.16115832 1.2553537 0.010855397 13
0.15164188 1.2672322 0.033390339 28
0.15136743 1.2675748 0.055779677 24
0.1275993 1.2972422 0.10700117 10
0.14983162 1.2694918 0.12440746 24
0.19787216 1.2095274 0.13002171 8
0.14294577 1.2780867 0.17444403 7
0.15912035 1.2614031 0.010960111 77
0.16829985 1.2498629 0.032134276 60
0.14194408 1.2829967 0.057348479 70
0.14714584 1.2764571 0.07945881 14
0.17248183 1.2446053 0.096050762 25
0.15768838 1.2632033 0.12249938 87
0.19698229 1.213804 0.13092151 24
0.15193745 1.2704332 0.1713382 21
0.15340185 1.2721803 0.01116954 100
0.18359366 1.2339509 0.030982886 95
0.15238115 1.2734728 0.056128297 100
0.16491029 1.2576082 0.076290213 29
0.17046791 1.250571 0.096989371 37
0.15819559 1.2661104 0.122881 100
0.19249469 1.2226802 0.13317102 46
0.15129206 1.2748518 0.17237349 42
0.16256049 1.2641199 0.010960111 100
0.17042682 1.2540877 0.032238949 100
0.16151729 1.2654504 0.055082429 100
0.15436599 1.2745707 0.078727596 42
0.17702326 1.2456748 0.095737889 25
0.17083231 1.2535704 0.11944643 100
0.18085015 1.2407943 0.13811995 37
0.15901688 1.2686393 0.16978529 44
0.17165795 1.2560017 0.010750682 100
0.16966513 1.2585616 0.032448292 89
0.16202518 1.2683756 0.055256739 99
0.18295676 1.2414877 0.073365346 31
0.18111283 1.2438564 0.095112152 25
0.18458259 1.2393993 0.11563025 100
0.18728411 1.2359291 0.13632034 30
0.14889276 1.2852449 0.17496167 35
0.15868232 1.2763059 0.01116954 87
0.17381561 1.2567258 0.032238949 60
0.16011202 1.274456 0.055779677 49
0.17610723 1.2537607 0.075071514 15
0.1658572 1.2670227 0.099492319 24
0.1802204 1.2484388 0.11753834 19
0.18414587 1.2433599 0.13811995 22
0.14596823 1.2927561 0.17703223 27
0.16880009 1.2664305 0.010925206 52
0.1668317 1.2689939 0.032971654 29
0.17019281 1.2646167 0.054559495 50
0.18367383 1.2470607 0.073852822 62
0.18787289 1.2415923 0.094173551 52
0.1781382 1.2542696 0.1186832 13
0.18800849 1.2414157 0.13722014 22
0.14643592 1.295555 0.17754987 60
0.16568589 1.2741193 0.011064826 51
0.16373238 1.2766817 0.033390339 28
0.16709 1.2722774 0.055256739 49
0.18774831 1.2451792 0.073365346 46
0.1979045 1.2318568 0.091983467 53
0.19411394 1.236829 0.11410378 13
0.2038337 1.2240794 0.13182132 39
0.17286846 1.2646976 0.16667947 67
0.17236221 1.2691456 0.010925206 39
0.16077188 1.2844651 0.033809029 28
0.18215665 1.2561997 0.053339314 52
0.18470156 1.252836 0.074340299 46
0.18887311 1.2473221 0.094799288 51
0.1993809 1.2334334 0.11295892 13
0.2055003 1.225345 0.13182132 39
0.1770153 1.2629952 0.16564418 68
0.18611622 1.2544715 0.010576159 40
0.16496903 1.2826267 0.033599682 28
0.17428365 1.2702253 0.054733805 50
0.19473436 1.2429974 0.072634131 78
0.18698248 1.2533182 0.095737889 51
0.20100072 1.2346544 0.11295892 13
0.20006984 1.2358938 0.13452072 38
0.18105882 1.261205 0.16460891 69
0.18055102 1.2652929 0.010785587 52
0.18338946 1.2614876 0.032134276 30
0.17475325 1.2730656 0.054908119 50
0.2058 1.2314434 0.070684217 98
0.19213048 1.2497692 0.094799288 51
0.2025435 1.2358092 0.11295892 13
0.21326837 1.2214313 0.13002171 32
0.18268976 1.2624257 0.16460891 69
0.18704227 1.2601514 0.010645968 80
0.20887882 1.2306625 0.03004084 33
0.18006861 1.2695688 0.054385185 51
0.1991435 1.2438093 0.072390392 63
0.19850957 1.2446654 0.093547814 78
0.20183492 1.2401748 0.11372216 13
0.21716559 1.2194717 0.1291219 32
0.18326122 1.2652574 0.16512655 68
0.19230863 1.2565817 0.010541254 81
0.20694003 1.2366781 0.030354854 65
0.18535492 1.2660412 0.053862248 77
0.20667833 1.2370341 0.071171694 32
0.21069866 1.231565 0.090731993 95
0.2058039 1.2382236 0.11295892 13
0.21642813 1.223771 0.13002171 24
0.18842489 1.2618649 0.16357364 69
0.19636688 1.2545967 0.010471444 82
0.20974845 1.2362593 0.030250182 65
0.19178653 1.2608733 0.053165004 100
0.19426864 1.2574719 0.07409656 61
0.20765412 1.2391293 0.091983467 93
0.21785608 1.2251492 0.10952436 14
0.23984018 1.1950235 0.12147357 17
0.19128281 1.2615635 0.163056 70
0.19579968 1.2591288 0.010541254 95
0.20560259 1.2455916 0.030773543 96
0.19125095 1.2654103 0.053513627 100
0.19955057 1.253949 0.073365346 62
0.20474151 1.2467806 0.093234941 100
0.22182944 1.2231833 0.10876112 14
0.23797116 1.2008926 0.12282328 17
0.19195384 1.2644397 0.16357364 69
0.20451233 1.2506199 0.010331824 98
0.21775669 1.2321953 0.029831495 66
0.18833074 1.2731307 0.054210871 100
0.20587665 1.248722 0.072390392 95
0.20871389 1.2447751 0.092609204 93
0.214246 1.237079 0.11181407 14
0.23947716 1.2019792 0.12282328 8
0.19931987 1.2578433 0.16098544 72
0.19690001 1.2648453 0.010611063 94
0.21009129 1.2463585 0.03066887 96
0.18314558 1.284121 0.055256739 99
0.21100891 1.2450726 0.071659178 64
0.21840495 1.2347076 0.090419121 100
0.20789605 1.2494351 0.1144854 20
0.2455146 1.1967152 0.12102367 17
0.1976586 1.2637821 0.16253836 70
0.1986295 1.2660748 0.010611063 81
0.22099149 1.2345035 0.029831495 99
0.19415525 1.2723916 0.053862248 100
0.20693237 1.2543526 0.072877869 100
0.22117087 1.2342502 0.090106249 96
0.2061674 1.2554326 0.11563025 27
0.23236313 1.2184486 0.12687239 24
0.20050097 1.2634325 0.16202073 78
0.20726398 1.2574831 0.010401634 83
0.21802005 1.2421845 0.030250182 98
0.20278659 1.2638514 0.05281638 100
0.20634171 1.2587949 0.073365346 93
0.21711275 1.243475 0.091670595 100
0.20560563 1.2598419 0.11639348 66
0.22608474 1.2307138 0.13002171 32
0.2000033 1.2678102 0.163056 70
0.21812293 1.2455577 0.010122396 99
0.2196703 1.2433405 0.030250182 98
0.19995168 1.271596 0.053513627 100
0.20123374 1.2697588 0.074827775 91
0.21763703 1.246254 0.091983467 100
0.21181178 1.2546011 0.11486702 100
0.2276949 1.2318417 0.13002171 72
0.21058774 1.2563552 0.15891489 73
0.2150616 1.2531717 0.010262015 84
0.2200211 1.2460173 0.030354854 97
0.19925904 1.2759681 0.053862248 100
0.22429311 1.2398547 0.07019674 82
0.21800947 1.2489192 0.092296332 100
0.21557286 1.2524343 0.11410378 96
0.22581676 1.2376567 0.13137141 94
0.20551378 1.2669451 0.16202073 70
0.21448323 1.2576327 0.010331824 84
0.23074171 1.2340031 0.029517479 100
0.19425118 1.2870376 0.054908119 100
0.22480994 1.242624 0.070440479 49
0.22640154 1.2403109 0.090419121 100
0.22393599 1.2438943 0.11181407 91
0.23186964 1.2323637 0.12957181 96
0.20615548 1.2697362 0.16253836 70
0.21167645 1.2654064 0.010471444 82
0.22673145 1.2433614 0.03004084 66
0.20954165 1.2685324 0.05281638 100
0.22310317 1.2486743 0.071171694 65
0.23027325 1.2381752 0.089793384 100
0.22337776 1.2482722 0.1125773 96
0.23128751 1.2366899 0.13047162 96
0.2133494 1.2629566 0.15995017 72
0.21901765 1.2583079 0.010296919 42
0.22726515 1.2461401 0.030145511 65
0.21351966 1.2664193 0.052467756 80
0.22477606 1.2498124 0.071171694 81
0.23301777 1.2376531 0.089480512 97
0.23055688 1.2412838 0.11066922 92
0.22963837 1.2426389 0.13182132 94
0.21724001 1.2609305 0.15891489 73
0.21634603 1.2661552 0.010436539 41
0.21675253 1.2655509 0.031296901 31
0.21311775 1.2709558 0.05281638 53
0.22432134 1.2542957 0.071659178 96
0.2369386 1.2355335 0.088854775 100
0.23447749 1.2391932 0.10990598 85
0.23246029 1.2421927 0.13137141 94
0.22011963 1.2605438 0.15839726 73
0.22252035 1.2606639 0.010296919 42
0.23068058 1.2484374 0.030145511 32
0.21265638 1.2754431 0.053165004 52
0.23703375 1.2389184 0.069221787 83
0.2330825 1.2448386 0.090419121 100
0.23393747 1.2435576 0.11066922 92
0.23951954 1.235194 0.1291219 100
0.21432689 1.2729402 0.16202073 70
0.21981794 1.2684726 0.010436539 41
0.21249962 1.279521 0.032029606 30
0.21772352 1.2716345 0.05264207 53
0.23428762 1.2466278 0.07019674 82
0.23692366 1.2426482 0.089793384 100
0.23017159 1.2528417 0.1125773 89
0.24544987 1.2297763 0.1273223 97
0.21715134 1.2724983 0.16150309 70
0.21277225 1.2829899 0.010715778 39
0.22086298 1.2706823 0.031401575 31
0.21838212 1.2744561 0.05281638 53
0.23159152 1.2543621 0.071171694 81
0.24508604 1.2338343 0.087916173 100
0.23509431 1.2490336 0.11143246 84
0.2481271 1.2292081 0.12687239 99
0.22633579 1.262357 0.15787962 73
0.22868314 1.2623354 0.010262015 28
0.21815878 1.2784612 0.03182026 30
0.22767925 1.2638736 0.051596198 54
0.2342844 1.2537529 0.070927955 97
0.2444666 1.2381513 0.08854191 100
0.24097657 1.2434988 0.10990598 85
0.24326116 1.2399983 0.12957181 96
0.23113778 1.2585742 0.1563267 82
0.23149073 1.2617756 0.01022711 42
0.23947895 1.2494419 0.029936166 33
0.23048824 1.2633234 0.051421888 55
0.24137056 1.2465212 0.069709264 66
0.2461026 1.2392149 0.08854191 84
0.24903479 1.2346877 0.10761628 87
0.24596301 1.2394305 0.1291219 96
0.22654408 1.2694132 0.15943253 73
0.24177518 1.249373 0.0099478718 58
0.24647141 1.2420691 0.029412808 67
0.22566068 1.2744355 0.052467756 53
0.24187887 1.2492118 0.069953002 49
0.24766025 1.2402201 0.08854191 84
0.24739206 1.2406373 0.10876112 87
0.25279102 1.2322404 0.12687239 99
0.22820196 1.270483 0.15943253 73
0.23699671 1.2605606 0.0101573 71
0.24812108 1.2431258 0.029412808 67
0.22849515 1.2738849 0.052293446 53
0.23928246 1.2569783 0.070927955 48
0.2535536 1.2346115 0.087290429 85
0.2469247 1.2450008 0.10952436 71
0.25545457 1.2316322 0.12642249 99
0.22059885 1.2862605 0.16409127 62
0.24414393 1.2532561 0.0099827768 87
0.25306156 1.239166 0.029098792 68
0.24313036 1.2548575 0.050201707 85
0.24106944 1.2581139 0.070927955 48
0.25525847 1.2356949 0.087290429 85
0.24446794 1.2527441 0.11105084 84
0.2571485 1.2327087 0.12642249 90
0.23075843 1.2744052 0.15995017 64
0.24689621 1.2526273 0.0099478718 73
0.25151441 1.2452738 0.029412808 100
0.23528796 1.2711109 0.051770512 81
0.24699816 1.252465 0.069953002 49
0.25898704 1.2333753 0.086664692 71
0.2461549 1.2538077 0.11105084 100
0.26187471 1.2287773 0.12507279 100
0.23971313 1.2640648 0.1563267 66
0.25167203 1.248539 0.0098431576 88
0.25097889 1.2496507 0.029622151 100
0.23695144 1.2721517 0.051770512 81
0.25280043 1.2467289 0.068978049 50
0.25634509 1.241043 0.087916173 70
0.25606993 1.2414844 0.10799789 79
0.25927389 1.2363451 0.12687239 99
0.24033123 1.2667303 0.15684435 66
0.25334427 1.2495774 0.0098431576 88
0.25475639 1.2472945 0.029412808 100
0.23765808 1.2749358 0.051944822 81
0.25655493 1.2443869 0.068490572 50
0.26006949 1.2387053 0.087290429 71
0.24945509 1.2558646 0.11105084 84
0.26295382 1.2340424 0.12597258 82
0.23596933 1.2776659 0.15995017 64
0.24874392 1.2608356 0.010052586 86
0.257469 1.2466199 0.029308135 100
0.23942253 1.2760231 0.051944822 81
0.25821263 1.2454084 0.068490572 50
0.25964072 1.2430816 0.087916173 70
0.25217989 1.2552376 0.11066922 85
0.27476913 1.2184329 0.12147357 77
0.2417855 1.2721732 0.15787962 65
0.25149918 1.2601764 0.010017681 87
0.2622509 1.2425207 0.028994121 100
0.24533585 1.2702973 0.051247578 82
0.25058159 1.2616832 0.070684217 81
0.26951325 1.230595 0.085413218 58
0.24876988 1.2646582 0.1125773 82
0.26822755 1.2327063 0.12507279 92
0.24755943 1.2666459 0.15580906 67
0.25838256 1.2526577 0.0098431576 88
0.25977069 1.25036 0.029412808 100
0.25120538 1.2645366 0.05055033 84
0.25332627 1.2610263 0.070440479 49
0.27214426 1.2298806 0.085100345 58
0.26471204 1.2421817 0.10723466 73
0.27185994 1.2303511 0.12417299 83
0.24929488 1.2676986 0.15580906 75
0.25801286 1.2571028 0.0099129668 87
0.26247609 1.2496572 0.029308135 100
0.25293347 1.2655766 0.05055033 84
0.25912455 1.2552483 0.069465525 49
0.26867312 1.2393191 0.086664692 71
0.26434323 1.2465423 0.10799789 79
0.27146471 1.2346621 0.12507279 83
0.25103402 1.2687453 0.15580906 67
0.2637195 1.2511942 0.0097733475 89
0.27019539 1.2403092 0.028680105 100
0.25457847 1.2665589 0.05055033 84
0.27291486 1.2357383 0.066540658 52
0.27124101 1.2385517 0.086351827 58
0.26793265 1.2441125 0.10723466 88
0.27898538 1.2255347 0.12237337 76
0.25071406 1.2730544 0.15684435 66
0.26031879 1.2608012 0.0099478718 73
0.2708236 1.2430031 0.028784776 100
0.25631359 1.2675872 0.05055033 84
0.27050626 1.2435408 0.067515619 51
0.26986605 1.2446254 0.087290429 71
0.27058724 1.2434036 0.10685304 66
0.27958661 1.2281561 0.12282328 85
0.26031879 1.2608012 -0.0099478718 86
0.25050801 1.2774234 0.15787962 65
0.25706908 1.2704887 0.010122396 85
0.2644881 1.257813 0.029622151 100
0.2631714 1.2600626 0.049678773 86
0.26422191 1.2582678 0.069465525 49
0.28258356 1.2268958 0.083848871 59
0.26835743 1.251202 0.10837951 79
0.28028327 1.230826 0.12327318 85
0.2611095 1.2635854 -0.0099827768 86
0.26017651 1.2651795 0.15373851 68
0.26885867 1.2542148 0.0097733475 89
0.27822685 1.2380798 0.028366089 100
0.26588419 1.2593378 0.049504463 86
0.26792151 1.2558289 0.068978049 50
0.27624515 1.241493 0.086351827 58
0.27201042 1.2487864 0.10761628 87
0.28385049 1.2283942 0.12237337 76
0.2657868 1.2595055 0.15166797 69
0.27745426 1.2430159 0.0095290141 76
0.26681802 1.2614756 0.029726824 100
0.26154032 1.2706352 0.05055033 84
0.26953411 1.2567617 0.068978049 50
0.27879637 1.2406867 0.086038955 72
0.27359965 1.2497057 0.10761628 87
0.28050756 1.2377167 0.12462288 83
0.26162484 1.2704885 0.15477379 67
0.27414566 1.252645 0.0097035384 90
0.27547282 1.2503229 0.028994121 100
0.27021024 1.2595305 0.049330149 87
0.28305537 1.2370563 0.066053182 52
0.28338167 1.2364854 0.085100345 58
0.27235323 1.2557811 0.10876112 87
0.28697681 1.230195 0.12237337 85
0.26337361 1.2714921 0.15477379 67
0.26605737 1.2710505 0.010052586 86
0.27920455 1.2478507 0.028784776 100
0.26316553 1.2761533 0.050898954 83
0.28476903 1.2380315 0.066053182 70
0.28022361 1.2460524 0.086664692 71
0.28091121 1.2448391 0.1060898 66
0.29443002 1.2209835 0.11967396 87
0.26330867 1.2759008 0.15580906 67
0.26976776 1.2685521 0.0099827768 87
0.28283149 1.2453108 0.028575432 100
0.27469662 1.2597834 0.049155839 100
0.27473223 1.25972 0.068978049 50
0.2886624 1.2349373 0.084474608 59
0.27872244 1.2526212 0.10761628 79
0.29409608 1.2252704 0.12057377 86
0.2707476 1.266809 -0.0099478718 96
0.26886272 1.2701622 0.15373851 68
0.27929968 1.2555544 0.0097035384 90
0.28449225 1.2462406 0.028575432 100
0.2734974 1.265962 0.049678773 86
0.27257684 1.2676132 0.069953002 49
0.28740123 1.2410228 0.085413218 58
0.28518873 1.2449913 0.10570818 81
0.29473791 1.227863 0.12102367 77
0.27625456 1.2610165 0.15063268 70
0.28187928 1.2546997 0.0096686333 75
0.28220594 1.2541091 0.028994121 100
0.26935714 1.2773367 0.05072464 84
0.28768077 1.2442119 0.066540658 52
0.28992081 1.2401624 0.085100345 58
0.28296408 1.2527386 0.10723466 100
0.29248452 1.2355279 0.12282328 76
0.27975455 1.2585406 0.14959741 70
0.28357282 1.2556326 0.0096686333 75
0.28389743 1.255041 0.028994121 100
0.28071296 1.2608454 0.048981529 87
0.29124728 1.2416439 0.066053182 52
0.29346383 1.2376037 0.084474608 59
0.29503813 1.2347342 0.10303686 68
0.27402791 1.2730308 0.15373851 68
0.27849263 1.268808 0.0099129668 87
0.29123643 1.2453954 0.028366089 100
0.27281696 1.2792352 0.05072464 84
0.2890166 1.2494736 0.067028143 51
0.29218271 1.2436569 0.085413218 58
0.28625613 1.254545 0.10723466 81
0.281239 1.2637624 0.15063268 70
0.28222179 1.2662801 0.0098431576 88
0.29108375 1.249856 0.028575432 100
0.28698453 1.2574532 0.048458595 88
0.28889045 1.2539209 0.067515619 51
0.2986106 1.2359064 0.083848871 59
0.28616932 1.2589641 0.10799789 79
0.28317136 1.2645202 -0.0098082526 88
0.28121585 1.2681444 0.15166797 77
0.28953135 1.2565874 0.0096337283 90
0.29456159 1.2471902 0.028366089 100
0.28860244 1.2583227 0.048458595 88
0.29424396 1.2477837 0.066540658 52
0.29427797 1.2477201 0.10532656 75
0.28469265 1.2656267 0.15063268 70
0.29319105 1.2540059 0.0095639192 91
0.28695112 1.2657663 0.029412808 100
0.2913278 1.2575175 0.048284281 88
0.29506645 1.2504714 0.066784397 86
0.29879114 1.2434514 0.10418171 82
0.29973495 1.2416726 0.12327318 85
0.28288916 1.2734218 0.15270324 68
0.2938661 1.2566243 0.0095988233 76
0.29789919 1.2489619 0.028366089 100
0.28923392 1.265425 0.048981529 87
0.29790106 1.2489583 0.08572609 58
0.29670486 1.2512311 0.10570818 73
0.28827772 1.2672416 -0.0098082526 88
0.28635961 1.2708857 0.15166797 69
0.29287666 1.2628787 0.0097035384 90
0.29105151 1.2663773 0.048981529 87
0.29750881 1.2539994 0.067028143 51
0.29847035 1.2521563 0.10570818 73
0.29380158 1.2611058 -0.0096686333 89
0.28998429 1.2684231 0.15063268 70
0.2981886 1.2566247 0.0095639192 91
0.29361463 1.2654638 0.048807215 88
0.29729056 1.2583601 0.067515619 51
0.29916835 1.2547313 0.1060898 73
0.28991744 1.2726086 -0.0098780617 97
0.29341421 1.2658511 0.14959741 70
0.29814887 1.261103 0.0096337283 100
0.29998803 1.2575166 0.067271881 69
0.28902382 1.2788966 -0.0099827768 100
0.29875952 1.2599123 0.14752686 71
0.2907128 1.2797592 -0.0099827768 100
0.29425463 1.272796 0.15115032 77
0.29890403 1.2681653 0.048807215 58
0.29783821 1.2702799 0.15011504 78
0.2986348 1.2728412 0.15063268 78
0.29785544 1.2833297 -0.0099827768 100
