# .PCD v0.7 - Point Cloud Data file format
VERSION 0.7
FIELDS x y z intensity
SIZE 4 4 4 4
TYPE F F F F
COUNT 1 1 1 1
WIDTH 735
HEIGHT 1
VIEWPOINT 0 0 0 1 0 0 0
POINTS 735
DATA ascii
0.092861056 0.0031422377 0.046788346 10
0.074284822 0.0027499199 0.047311705 100
0.054743737 0.00092327595 0.047939736 64
0.050366253 4.3213367e-05 0.016021309 100
0.053149402 0.0043321252 0.047835063 48
0.047235966 0.01299262 0.047625721 100
0.044596553 0.014752209 0.047625721 77
0.048662722 0.026457012 0.046997689 42
0.031746387 0.0065534115 0.048358422 25
0.030212164 0.010015666 0.048253752 17
0.027562499 0.011834681 0.048253752 8
0.027197182 0.01694423 0.04804441 9
0.029150605 0.025320411 0.047625721 9
0.0081474781 0.0010206103 0.049300469 7
0.062464893 0.52436876 -0.0095290141 11
0.087003469 0.58143157 0.0087262029 16
0.047365963 0.5674327 -0.009459204 11
0.054125786 0.57206589 -0.0093195848 11
0.045998752 0.57085866 -0.009459204 11
-1.0642807 1.1382372 0.028901186 3
-1.0233691 1.1289048 0.084574908 5
-1.0331304 1.1311315 0.14206386 6
-1.0162323 1.1330332 0.028063469 10
-1.0007043 1.1294339 0.083423518 15
-1.0221555 1.1344061 0.1411923 30
-0.98971468 1.1322711 0.027609708 22
-1.0014479 1.1350317 0.083528183 84
-1.0325751 1.1423554 0.14223817 78
-0.99226624 1.1388422 0.027679516 38
-0.9981572 1.140251 0.083423518 100
-1.0215108 1.1458362 0.14136662 95
-0.99103469 1.1439545 0.027679516 42
-0.97557062 1.1402019 0.08227212 100
-1.0028303 1.1468168 0.13979781 86
-0.98376304 1.1484318 0.027574802 26
-0.98965079 1.1498845 0.083109498 100
-0.9936344 1.1508675 0.13910057 91
-0.96504074 1.1491467 0.027260659 26
-0.99225754 1.1559578 0.083318844 60
-0.99043006 1.1555005 0.13892625 87
-0.96176988 1.1539407 0.027225753 38
-0.97928613 1.1583892 0.082690813 33
-0.99873048 1.1633275 0.13979781 73
-0.96436149 1.1599491 0.027295563 59
-0.97412139 1.1624622 0.082481466 52
-0.98777038 1.1659769 0.13892625 91
-0.96478754 1.1662669 0.027330469 67
-0.97260326 1.1683116 0.082481466 100
-0.98045605 1.1703658 0.13840333 92
-0.9498654 1.1679623 0.027086135 74
-0.95962089 1.1705507 0.081853434 90
-0.96749467 1.1726398 0.13735744 99
-0.9484672 1.1731954 0.027086135 83
-0.96399945 1.1773747 0.082167454 96
-0.96992785 1.1789699 0.13770607 99
-0.94897979 1.1789498 0.027121039 93
-0.94522673 1.1779259 0.081225403 100
-0.96464676 1.1832241 0.13735744 100
-0.94761544 1.1839185 0.027121039 93
-0.9380905 1.1812859 0.08091139 100
-0.97671086 1.19196 0.13857763 89
-0.95001262 1.1902224 0.027190849 93
-0.94049221 1.1875553 0.081120729 86
-0.95412487 1.1913744 0.1366602 99
-0.94084197 1.1932713 0.027051231 81
-0.94094688 1.1933011 0.081225403 80
-0.94306165 1.1939014 0.13578865 100
-0.95088583 1.2017899 0.027260659 52
-0.943299 1.1996073 0.081434749 50
-0.94923168 1.201314 0.13648589 100
-0.94169027 1.204788 0.027121039 44
-0.90919334 1.1953161 0.079655327 23
-0.94771701 1.2065446 0.13648589 89
-0.93249208 1.2077273 0.026981421 66
-0.92493933 1.2054973 0.080597371 26
-0.95382744 1.2140268 0.13718314 84
-0.92520756 1.2111806 0.026876707 75
-0.91192907 1.2072095 0.079969339 30
-0.9312709 1.2129939 0.13526571 91
-0.92174464 1.2157477 0.026841801 78
-0.92377466 1.2163625 0.080702044 70
-0.92590183 1.2170068 0.1349171 100
-0.90113932 1.2147658 0.026492752 81
-0.92037672 1.220662 0.080597371 100
-0.92822129 1.2230663 0.13526571 100
-0.90721744 1.2221992 0.026632372 85
-0.90353447 1.2210563 0.07976 93
-0.93043655 1.2294044 0.13561434 80
-0.89799899 1.2248857 0.026492752 81
-0.90195113 1.2261274 0.07976 74
-0.92882389 1.2345693 0.13561434 52
-0.91164762 1.2347853 0.026771991 83
-0.90606016 1.2330085 0.080074012 72
-0.90820616 1.233691 0.13387123 43
-0.89486915 1.2347314 0.026492752 81
-0.90451676 1.2378345 0.080074012 80
-0.9009704 1.2366939 0.13334829 48
-0.88182908 1.2360585 0.026283324 100
-0.90477401 1.2435269 0.080178685 100
-0.90880519 1.2448392 0.13421984 57
-0.88390976 1.242555 0.026353134 100
-0.88975042 1.2444799 0.07944598 100
-0.91651648 1.2533008 0.13509139 78
-0.88983959 1.2500875 0.026492752 100
-0.88050658 1.2469757 0.079027295 100
-0.91293043 1.2577868 0.1349171 85
-0.88436538 1.2538323 0.026422944 96
-0.89208025 1.2564347 0.07976 100
-0.90177935 1.2597063 0.13404553 77
-0.87131244 1.2549617 0.026213514 99
-0.88848335 1.2608205 0.079655327 100
-0.89817554 1.2641276 0.13387123 89
-0.86978179 1.2594244 0.026213514 92
-0.88315779 1.2640355 0.07944598 100
-0.88719791 1.2654282 0.13299966 100
-0.86995298 1.2650357 0.02624842 83
-0.86822301 1.2644327 0.078713275 100
-0.9136799 1.2802801 0.13561434 63
-0.87181312 1.2718154 0.02631823 77
-0.85501367 1.2658862 0.078085244 61
-0.90607339 1.2839072 0.13509139 36
-0.87193614 1.2774475 0.026353134 88
-0.84951204 1.2694449 0.077875905 25
-0.89113528 1.2842991 0.13387123 36
-0.8532272 1.2762997 0.026038991 93
-0.86466855 1.2804279 0.078817949 31
-0.8762123 1.2845931 0.13265105 28
-0.84017962 1.2770834 0.025829561 96
-0.86287814 1.285363 0.078817949 78
-0.86879212 1.2875202 0.1321281 16
-0.84599572 1.2844565 0.025969181 100
-0.85553926 1.2879734 0.078503937 100
-0.88389355 1.2984226 0.13369691 12
-0.84419149 1.2893262 0.025969181 100
-0.83126301 1.2845106 0.077247873 95
-0.89510971 1.3082929 0.1349171 1
-0.84237021 1.2941897 0.025969181 100
-0.82945865 1.2893288 0.077247873 44
-0.88949269 1.3119301 0.13456847 1
-0.84053189 1.2990468 0.025969181 85
-0.8425712 1.2998227 0.078085244 51
-0.83917588 1.2985308 0.13003637 7
-0.82561117 1.2988741 0.025724847 72
-0.84630603 1.3068306 0.078399263 57
-0.86521775 1.3141015 0.13265105 46
-0.82748467 1.3051209 0.025794657 74
-0.83325332 1.307362 0.077771232 76
-0.85588115 1.3161523 0.13195379 99
-0.83119267 1.3121179 0.025899371 93
-0.82021409 1.3078089 0.0771432 63
-0.84654754 1.3181447 0.13125655 100
-0.829292 1.3169359 0.025899371 100
-0.82575494 1.3155334 0.077561885 80
-0.83721727 1.3200786 0.1305593 100
-0.81633204 1.3170471 0.025689943 100
-0.82579249 1.3208349 0.077666558 95
-0.82428771 1.3202324 0.12951343 100
-0.81070656 1.3203137 0.025620133 100
-0.82571286 1.3263828 0.077771232 97
-0.82605273 1.3265202 0.12986206 100
-0.80507499 1.3235476 0.025550323 100
-0.80342394 1.3228734 0.076619841 100
-0.82963496 1.3335805 0.130385 100
-0.78599089 1.3157518 0.17719802 16
-0.81422573 1.3328505 0.025759751 100
-0.79225439 1.3237855 0.076096483 100
-0.82765931 1.3383929 0.130385 100
-0.77673751 1.3173836 0.17622307 15
-0.81235176 1.3373713 0.025759751 100
-0.79962939 1.3320729 0.076619841 100
-0.81105286 1.3368304 0.1289905 100
-0.78774279 1.3271224 0.17792924 20
-0.79930311 1.337472 0.025550323 100
-0.7976591 1.3367805 0.076619841 100
-0.8053928 1.3400331 0.12864187 100
-0.79859883 1.3371757 0.17963541 24
-0.78627044 1.3374884 0.025340894 99
-0.79383415 1.3407006 0.076515168 81
-0.80706245 1.3463184 0.1289905 100
-0.77651209 1.3333442 0.17695428 16
-0.80265993 1.3500302 0.025689943 60
-0.81753248 1.3564076 0.077980578 42
-0.80504245 1.3510518 0.1289905 37
-0.77271312 1.3371888 0.17671055 11
-0.81347269 1.3603098 0.025934275 83
-0.80448002 1.3564165 0.077352546 78
-0.83226019 1.3684437 0.13177948 41
-0.79258555 1.3512669 0.17963541 5
-0.79857761 1.3594594 0.025689943 100
-0.80974513 1.3643407 0.077771232 100
-0.81920904 1.3684773 0.13073361 100
-0.78509158 1.3535647 0.17890419 22
-0.79651183 1.3641632 0.025689943 100
-0.80400759 1.3674707 0.077561885 100
-0.80982047 1.3700358 0.13003637 100
-0.78486258 1.3590229 0.17914793 29
-0.78894955 1.3664188 0.025585229 100
-0.80921167 1.3754442 0.077980578 100
-0.8022576 1.3723466 0.12951343 100
-0.76829165 1.3572171 0.17719802 31
-0.79597861 1.3751891 0.025759751 100
-0.80708998 1.3801851 0.077980578 100
-0.81468409 1.3835996 0.13090792 100
-0.74993938 1.3544886 0.17500438 20
-0.80306977 1.3837796 0.025934275 100
-0.79960245 1.3822068 0.077666558 100
-0.8126418 1.3881217 0.13090792 100
-0.77330309 1.3702769 0.17841671 17
-0.80819184 1.3918288 0.026073895 100
-0.80472106 1.3902397 0.078085244 100
-0.80322963 1.3895569 0.13021068 100
-0.78202921 1.3798506 0.17987914 15
-0.7879681 1.3879447 0.025724847 100
-0.8062833 1.3964036 0.07829459 100
-0.79755002 1.3923702 0.12986206 100
-0.78180164 1.3850968 0.18012288 12
-0.78931886 1.3945346 0.025794657 100
-0.81483907 1.4064349 0.078922622 100
-0.79887134 1.398989 0.13021068 100
-0.76334637 1.3824234 0.17792924 9
-0.79085952 1.4006748 0.025864467 100
-0.80549186 1.407557 0.078503937 100
-0.80759567 1.4085467 0.13125655 100
-0.76130825 1.3867753 0.17792924 5
-0.80299014 1.412447 0.026143705 100
-0.7995376 1.4108076 0.07829459 100
-0.81244534 1.4169366 0.13195379 100
-0.78055733 1.401795 0.18085411 1
-0.80265588 1.4177938 0.02617861 100
-0.80461055 1.4187299 0.078713275 100
-0.8031047 1.4180088 0.13125655 100
-0.79307097 1.4192659 0.026038991 100
-0.80941635 1.4271675 0.079131968 100
-0.79713291 1.4212295 0.13090792 100
-0.78731567 1.4219635 0.025969181 100
-0.80902499 1.4325471 0.079236634 100
-0.80929321 1.432678 0.13230242 100
-0.78850561 1.4286263 0.026038991 100
-0.79941922 1.4339966 0.078817949 100
-0.81043059 1.4394149 0.13265105 100
-0.80064458 1.440172 0.02631823 100
-0.79899901 1.4393555 0.078922622 100
-0.80820328 1.4439225 0.13265105 100
-0.80175525 1.4469086 0.026388038 100
-0.79653662 1.4442954 0.078922622 100
-0.80572408 1.4488961 0.13265105 100
-0.79593307 1.4495848 0.02631823 100
-0.80499047 1.4541581 0.079550654 100
-0.79812974 1.4506941 0.1321281 100
-0.78642505 1.4506488 0.02617861 100
-0.8061536 1.4606967 0.07976 100
-0.80817324 1.4617252 0.13334829 100
-0.79483384 1.4605575 0.026388038 100
-0.79674882 1.4615407 0.079341307 100
-0.8200509 1.4735061 0.13474278 100
-0.7924152 1.4652475 0.026388038 100
-0.79077965 1.4644005 0.079131968 100
-0.81581765 1.4773679 0.13456847 100
-0.79719275 1.4733975 0.026527658 100
-0.79909235 1.4743892 0.07976 100
-0.80286759 1.4763603 0.1335226 100
-0.78765172 1.4743688 0.026388038 96
-0.79839259 1.4800247 0.079864666 100
-0.79863077 1.4801502 0.13334829 100
-0.78354234 1.4778633 0.026353134 34
-0.79250234 1.4826194 0.079655327 31
-0.79802829 1.4855525 0.1335226 71
0.12315676 1.2984263 0.13203983 5
0.16832787 1.2457237 0.010645968 13
0.13754639 1.2840903 0.03454173 27
0.098654032 1.3325665 0.063100755 19
0.14579728 1.2738063 0.12555231 18
0.1963459 1.2108015 0.13047162 8
0.10874116 1.3199937 0.1889379 6
0.15254775 1.2689506 0.011134636 37
0.16547611 1.2527206 0.032343622 60
0.15772399 1.2624525 0.055082429 50
0.16410804 1.2544382 0.076046467 14
0.16353512 1.2551574 0.098240845 12
0.14266545 1.2813566 0.12707879 64
0.19910094 1.2105091 0.13002171 16
0.14918086 1.2731773 0.17237349 14
0.1604082 1.2624247 0.010960111 100
0.16955742 1.2508605 0.032134276 90
0.15441436 1.2700006 0.055779677 98
0.16202158 1.2603855 0.076777689 29
0.17740259 1.2409446 0.095112152 25
0.1577628 1.2657683 0.122881 100
0.18363592 1.233066 0.13632034 45
0.15564623 1.2684436 0.17030293 43
0.17077625 1.2527738 0.010715778 100
0.17000452 1.2537562 0.032238949 100
0.15370059 1.2745121 0.056128297 100
0.16373569 1.2617368 0.076777689 29
0.17416784 1.248456 0.096363634 37
0.16919774 1.2547833 0.11982805 100
0.18405077 1.2358745 0.13677025 37
0.15380847 1.2743747 0.17185585 36
0.16631496 1.2619789 0.010890301 100
0.17783678 1.247205 0.031715591 92
0.15301356 1.2790345 0.056476921 100
0.17155844 1.2552553 0.07555899 30
0.17098102 1.2559958 0.097615108 24
0.1793437 1.2452728 0.11715672 100
0.1904729 1.2310023 0.13497064 30
0.1460672 1.2879415 0.17599694 41
0.16558611 1.2664773 0.010960111 77
0.1819503 1.2453427 0.031506244 62
0.16089171 1.2725403 0.055605363 73
0.17325458 1.2565734 0.07555899 30
0.17509848 1.254192 0.096989371 25
0.18100497 1.2465637 0.11715672 39
0.19447041 1.2291728 0.13407083 31
0.1478776 1.2893482 0.17599694 41
0.16975895 1.2646455 0.010890301 78
0.16778773 1.2672098 0.032866981 29
0.16507682 1.2707362 0.055256739 49
0.18100446 1.2500165 0.074340299 46
0.19123772 1.2367042 0.093234941 39
0.17668816 1.2556313 0.11906482 13
0.18419871 1.2458611 0.13856985 22
0.15087029 1.2892172 0.17547931 56
0.17755377 1.2580215 0.010715778 53
0.17437243 1.26219 0.032448292 29
0.16924456 1.2689092 0.054908119 50
0.18268228 1.2513015 0.074340299 46
0.18687689 1.2458053 0.094799288 64
0.19863385 1.2304 0.1125773 13
0.20241374 1.2254472 0.13227122 31
0.17143744 1.2660358 0.16719711 60
0.18167481 1.2561308 0.010645968 40
0.17126819 1.269866 0.032866981 29
0.17820767 1.2607069 0.053862248 51
0.18436456 1.2525808 0.074340299 46
0.18734702 1.2486444 0.095112152 51
0.19550061 1.237883 0.11410378 13
0.20282882 1.2282109 0.13272113 47
0.17433789 1.2658144 0.16667947 67
0.18096986 1.2606097 0.010715778 39
0.14180008 1.3126843 0.035588451 25
0.17872515 1.2635939 0.054036561 51
0.19917732 1.2364037 0.071659178 80
0.1913949 1.2467501 0.094486415 52
0.1947757 1.2422554 0.11486702 13
0.21028748 1.2216332 0.13047162 32
0.17490962 1.2686665 0.16719711 67
0.18029171 1.2650994 0.010785587 65
0.19149724 1.2500935 0.031401575 31
0.17806619 1.2680798 0.054385185 51
0.1913057 1.25035 0.073609084 77
0.19660699 1.2432506 0.093547814 65
0.19760099 1.2419195 0.1144854 13
0.20720214 1.229062 0.13227122 31
0.17434084 1.2730687 0.16823238 67
0.1855948 1.2615676 0.010680873 80
0.2026906 1.2385061 0.030564198 32
0.18218011 1.2661738 0.054036561 77
0.19180244 1.2531939 0.073852822 93
0.20296663 1.2381338 0.092296332 80
0.19925046 1.2431467 0.1144854 13
0.2157698 1.2208629 0.12957181 32
0.18645334 1.2604095 0.16357364 69
0.19442442 1.2531732 0.010471444 82
0.2055119 1.238107 0.030459527 65
0.19218078 1.256222 0.05281638 79
0.19937426 1.2464471 0.072634131 78
0.21162787 1.2297963 0.090419121 96
0.20672244 1.2364621 0.1125773 13
0.21272543 1.2283049 0.13137141 31
0.19160253 1.2570077 0.16202073 70
0.19611317 1.2544115 0.010471444 82
0.1989007 1.2505958 0.03119223 63
0.19035426 1.2622944 0.053339314 78
0.20572355 1.2412565 0.071659178 80
0.20857382 1.237355 0.091670595 94
0.20951092 1.2360722 0.11219569 14
0.22352377 1.2168909 0.1277722 16
0.18532747 1.2691753 0.16564418 68
0.19537297 1.2588196 0.010541254 95
0.21574315 1.2307411 0.029831495 66
0.18847883 1.2683225 0.053862248 100
0.2049568 1.245609 0.072146654 79
0.21012548 1.2384846 0.091670595 81
0.20990548 1.2387879 0.1125773 13
0.23072922 1.2100843 0.12552269 16
0.19152251 1.264127 0.16357364 69
0.19240701 1.2665452 0.010680873 93
0.21852064 1.2302845 0.029726824 100
0.18556315 1.2760484 0.054559495 100
0.20429894 1.2500323 0.072634131 63
0.20945409 1.242874 0.092296332 100
0.21154392 1.2399721 0.1125773 13
0.23796147 1.2032894 0.12327318 17
0.19099158 1.2685106 0.16460891 69
0.19879419 1.2612834 0.010541254 95
0.21432179 1.2395626 0.030250182 98
0.1942839 1.2675925 0.053513627 100
0.20713112 1.2496213 0.072390392 95
0.21340439 1.2408459 0.091670595 100
0.21090302 1.2443449 0.11334054 13
0.23834252 1.2059612 0.12372308 16
0.19835129 1.2619028 0.16202073 70
0.20282573 1.2592447 0.010471444 96
0.21018371 1.2488756 0.030773543 96
0.19832903 1.2655815 0.053165004 100
0.2099562 1.2491963 0.072146654 79
0.22076586 1.233963 0.090106249 100
0.21028852 1.2487279 0.11410378 20
0.22633311 1.2261176 0.1291219 16
0.20342445 1.2584009 0.1604678 72
0.20914182 1.2539141 0.010331824 98
0.2153078 1.2451603 0.030459527 65
0.19547173 1.2733215 0.053862248 100
0.21277413 1.2487574 0.071902916 64
0.21897477 1.2399544 0.091044858 100
0.20404774 1.2611462 0.1167751 66
0.23466045 1.2176855 0.12642249 33
0.20401892 1.2611871 0.16098544 72
0.21083307 1.255101 0.010331824 98
0.22726843 1.231594 0.029517479 100
0.19723082 1.2745559 0.053862248 100
0.21444735 1.2499316 0.071902916 64
0.21948534 1.2427258 0.09135773 100
0.21026409 1.2559148 0.11524864 100
0.23175856 1.2251719 0.12822211 65
0.2002008 1.270308 0.16357364 69
0.20551464 1.2660189 0.010541254 95
0.22302368 1.2408078 0.03004084 99
0.20336369 1.2691159 0.053165004 100
0.20463324 1.267288 0.074340299 100
0.21984527 1.2453845 0.091670595 100
0.21739176 1.2489171 0.11334054 82
0.22652039 1.235773 0.13092151 88
0.20618221 1.2650576 0.16150309 70
0.21178794 1.2606326 0.010401634 97
0.22693622 1.2386575 0.029831495 66
0.20736963 1.2670422 0.05281638 100
0.21876439 1.2505121 0.071659178 64
0.22711238 1.238402 0.090106249 100
0.22017977 1.2484589 0.11295892 89
0.2270422 1.2385038 0.13137141 94
0.21229813 1.2598925 0.15943253 73
0.21358845 1.261869 0.010401634 97
0.22414604 1.2464327 0.030250182 65
0.21369278 1.2617164 0.052119136 100
0.22164842 1.2500844 0.071415432 64
0.22883132 1.2395823 0.090106249 100
0.22526062 1.2448031 0.11181407 91
0.23426217 1.2316418 0.1291219 96
0.21191472 1.2643161 0.1604678 72
0.21867684 1.2580768 0.010296919 70
0.22805458 1.2442622 0.03004084 66
0.21876833 1.257942 0.051596198 100
0.21998146 1.2561549 0.072146654 79
0.227144 1.2456037 0.091044858 100
0.22581729 1.247558 0.11219569 100
0.22274143 1.2520891 0.13452072 93
0.21472731 1.2638948 0.15995017 72
0.21599972 1.2659223 0.010436539 41
0.22310084 1.2553785 0.03066887 32
0.21276811 1.2707205 0.05281638 53
0.23174563 1.2425427 0.069953002 99
0.2310963 1.2435069 0.090419121 100
0.2253764 1.2519997 0.11295892 100
0.23104212 1.2435874 0.13182132 100
0.20898566 1.2763367 0.16357364 69
0.21995538 1.2637601 0.010366729 41
0.24033582 1.2332702 0.029203463 34
0.21008921 1.2785203 0.053513627 52
0.22457185 1.2568536 0.071902916 100
0.23714209 1.2380481 0.089167647 98
0.22596988 1.2547622 0.11334054 96
0.24244368 1.2301166 0.1277722 97
0.21397585 1.2727058 0.16202073 70
0.21053714 1.2815136 0.010715778 39
0.2131595 1.2775621 0.031924933 30
0.23270974 1.2481031 0.050201707 56
0.22838345 1.2546221 0.071415432 96
0.24415737 1.2308534 0.087603301 99
0.22866479 1.2541982 0.11295892 89
0.24073848 1.2360052 0.1291219 88
0.22205409 1.2641594 0.15891489 73
0.22552374 1.2626551 0.010296919 28
0.21493328 1.2787347 0.031924933 30
0.22013384 1.2708387 0.052467756 53
0.23007706 1.2557418 0.071415432 96
0.24250829 1.2368674 0.08854191 84
0.24007577 1.2405607 0.10952436 85
0.23700756 1.2452192 0.13137141 94
0.23228186 1.2523942 0.15477379 75
0.23052767 1.2587633 0.010192205 28
0.21234015 1.2865884 0.032343622 30
0.22515437 1.266984 0.051944822 54
0.24046332 1.2435626 0.069465525 99
0.23441285 1.2528193 0.09135773 94
0.23957193 1.2449263 0.1102876 85
0.24293312 1.239784 0.12957181 96
0.22762588 1.2632027 0.15787962 73
0.228971 1.2649084 0.010296919 42
0.23153594 1.2609543 0.03066887 32
0.22146985 1.2764724 0.05281638 53
0.24319854 1.2429748 0.069221787 67
0.2457751 1.2390027 0.08854191 98
0.24123162 1.2460071 0.1102876 85
0.24669585 1.2375833 0.128672 97
0.22724682 1.2675664 0.15891489 73
0.2393595 1.2525744 0.010017681 43
0.24730533 1.2402308 0.029308135 68
0.2253966 1.2742655 0.052467756 53
0.2480748 1.2390354 0.068490572 50
0.24955249 1.2367398 0.087916173 84
0.24183244 1.2487328 0.11066922 85
0.2567682 1.2255304 0.12507279 92
0.22689432 1.2719388 0.15995017 72
0.22274545 1.2823045 0.010611063 81
0.24894857 1.2412845 0.029308135 68
0.23466673 1.2636422 0.051247578 55
0.24543932 1.246778 0.069465525 49
0.25543717 1.2311268 0.086664692 71
0.24667603 1.2448421 0.10952436 78
0.25836009 1.2265511 0.12507279 83
0.23176828 1.2681795 0.15839726 73
0.24050963 1.2580552 0.010087491 71
0.24730429 1.2473403 0.029622151 100
0.23630545 1.2646852 0.051247578 82
0.24170667 1.2561677 0.070684217 65
0.25273645 1.2387741 0.087916173 84
0.24194402 1.2557933 0.11181407 100
0.2546576 1.2357445 0.1273223 89
0.23652577 1.2643377 0.15684435 66
0.25065216 1.2455404 0.0098082526 59
0.24569687 1.2534122 0.029936166 99
0.23582479 1.2690949 0.051596198 82
0.24966565 1.2471075 0.069221787 83
0.25639725 1.2364137 0.087290429 71
0.26029077 1.2302285 0.10570818 81
0.25516555 1.2383704 0.1277722 89
0.24022508 1.2621046 0.15580906 67
0.24277949 1.2618465 0.010122396 85
0.25585088 1.2409198 0.029098792 100
0.23440233 1.2752581 0.052119136 81
0.24712631 1.2548876 0.07019674 82
0.25802714 1.2374358 0.087290429 71
0.24733797 1.2545487 0.11105084 98
0.2681585 1.221216 0.12282328 85
0.23785096 1.2697369 0.15787962 65
0.24441221 1.2628627 0.010122396 85
0.25530919 1.2452877 0.029308135 100
0.24027917 1.2695285 0.051421888 82
0.25187409 1.2508279 0.069465525 49
0.26374257 1.231686 0.086038955 72
0.25515375 1.2455384 0.10876112 79
0.26554874 1.2287729 0.12462288 83
0.23950988 1.2707694 0.15787962 65
0.25145826 1.2554625 0.0099478718 73
0.25705317 1.2463646 0.029308135 100
0.24524319 1.265569 0.050898954 83
0.25779787 1.2451535 0.068490572 50
0.26336709 1.2360973 0.086664692 71
0.24661443 1.2633392 0.1125773 82
0.26825297 1.2281524 0.12417299 83
0.24944317 1.2587392 0.15373851 68
0.24786046 1.264984 0.010122396 85
0.26071566 1.2439239 0.029098792 100
0.24481213 1.269978 0.051247578 82
0.25627238 1.2512031 0.069221787 50
0.26903108 1.230301 0.085413218 58
0.25950366 1.2459095 0.10837951 72
0.26571256 1.2357376 0.12597258 90
0.24804601 1.26468 0.15529142 67
0.26011628 1.2490323 0.0097733475 89
0.26046944 1.2484486 0.029308135 100
0.2498287 1.2660325 0.05072464 84
0.25914997 1.2506291 0.068978049 50
0.26670972 1.2381365 0.086664692 57
0.26641533 1.238623 0.10647142 81
0.26851186 1.2351586 0.12552269 90
0.25494856 1.2575719 0.15270324 68
0.25964716 1.2534194 0.0098431576 88
0.26822782 1.2391331 0.028680105 100
0.24942353 1.2704411 0.051073264 100
0.26483381 1.2447839 0.068003096 51
0.26826367 1.2390734 0.086664692 57
0.26089489 1.2513419 0.10914274 78
0.27306607 1.2310777 0.12417299 92
0.25258827 1.265172 0.15477379 67
0.26142091 1.2544804 0.0098431576 88
0.26994917 1.2401627 0.028680105 100
0.2573773 1.261269 0.050027397 85
0.2614966 1.2543533 0.069221787 67
0.26796305 1.2434971 0.087290429 71
0.26065168 1.2557718 0.10990598 85
0.27974415 1.2237184 0.12192347 93
0.24649626 1.2795365 0.15891489 65
0.26201147 1.257156 0.0098780617 88
0.26947707 1.2445273 0.028889447 100
0.25799412 1.2639518 0.050201707 85
0.26411456 1.2535985 0.068978049 50
0.27757677 1.230826 0.084787481 59
0.25826782 1.2634888 0.11143246 77
0.27926683 1.2279673 0.12282328 85
0.26201147 1.257156 -0.0098780617 87
0.25408623 1.2705622 0.15580906 67
0.26877177 1.2495337 0.0097035384 90
0.26406252 1.2575636 0.029622151 100
0.25568843 1.2718426 0.050898954 83
0.26580438 1.2545935 0.068978049 50
0.27518979 1.23859 0.086038955 58
0.26694444 1.2526495 0.10876112 79
0.28086707 1.2289095 0.12282328 85
0.26169908 1.2615936 0.15270324 68
0.27438706 1.2435504 0.0095639192 91
0.26668558 1.256783 0.029517479 100
0.27138519 1.2487082 0.048458595 88
0.26541582 1.2589645 0.069465525 49
0.2767452 1.2394987 0.086038955 58
0.2715092 1.2484951 0.10761628 94
0.27748907 1.2382207 0.12507279 83
0.25944379 1.2692256 0.15477379 67
0.26912776 1.2566812 0.0098082526 74
0.26647496 1.2612778 0.029726824 100
0.26517445 1.2635312 0.049853086 85
0.2701866 1.2548463 0.068734311 33
0.27451828 1.2473407 0.087290429 71
0.27522749 1.2461119 0.10685304 66
0.28602555 1.2274015 0.12192347 85
0.2612755 1.2702872 0.15477379 67
0.26577419 1.2662863 0.0099827768 87
0.28001669 1.2414174 0.02847076 100
0.25790113 1.2800333 0.051421888 82
0.2698229 1.2592168 0.069221787 67
0.28591982 1.23111 0.084161744 74
0.27095374 1.2572422 0.10914274 92
0.2875438 1.2282743 0.12192347 85
0.25909579 1.2779474 0.15684435 66
0.27648196 1.2516745 0.0096686333 90
0.27780142 1.2493509 0.028889447 100
0.26764306 1.2672402 0.050027397 85
0.27259806 1.2585143 0.068978049 50
0.28370994 1.2389458 0.085413218 58
0.27564976 1.2531401 0.10799789 72
0.28922522 1.2292333 0.12192347 85
0.27055737 1.262108 -0.0098780617 87
0.27240661 1.2588514 0.15063268 70
0.27808076 1.252579 0.0096686333 90
0.27743158 1.253731 0.029098792 100
0.27614 1.2560232 0.048807215 88
0.27032161 1.2663492 0.069953002 49
0.28526649 1.2398263 0.085413218 58
0.27628964 1.2557577 0.10837951 87
0.28787959 1.2351887 0.12327318 76
0.27023581 1.2665014 0.15270324 68
0.28472766 1.2448436 0.0094941091 76
0.27725822 1.258214 0.029308135 100
0.272093 1.2674599 0.049853086 100
0.27988783 1.2535069 0.068003096 51
0.28506348 1.2442424 0.086038955 58
0.28860429 1.2379043 0.10418171 75
0.29053676 1.2344451 0.12282328 85
0.27394181 1.2641505 0.15166797 69
0.28145638 1.2544655 0.0096686333 90
0.28372014 1.2503816 0.028784776 100
0.27084637 1.2736065 0.05037602 84
0.28341746 1.2509277 0.067515619 51
0.28855294 1.241663 0.085413218 58
0.28635013 1.2456369 0.10570818 73
0.29585743 1.2284853 0.12102367 86
0.27370882 1.2684424 0.15270324 68
0.27745551 1.2659616 0.0098780617 88
0.29125392 1.240852 0.028156744 100
0.27557266 1.269388 0.049853086 85
0.287094 1.248422 0.067028143 51
0.29313743 1.2374245 0.084474608 59
0.28431317 1.2534823 0.10723466 81
0.2984781 1.2277058 0.12057377 77
0.27745551 1.2659616 -0.0098780617 97
0.26995528 1.2796102 0.15580906 67
0.28388786 1.2580842 0.0097035384 75
0.28899246 1.2487217 0.028575432 100
0.2791377 1.2667966 0.049504463 86
0.28298047 1.2597485 0.068490572 50
0.29658008 1.234805 0.083848871 59
0.28591794 1.2543608 0.10723466 81
0.2791017 1.2668626 -0.0098780617 87
0.2827439 1.2601824 0.14959741 70
0.28948176 1.2520194 0.0095639192 91
0.28884953 1.2531892 0.028784776 100
0.28190768 1.2660333 0.049330149 87
0.28477728 1.2607238 0.068490572 50
0.29452845 1.242682 0.085100345 58
0.2904954 1.250144 0.1060898 73
0.28821644 1.2543606 0.14752686 79
0.29769632 1.2405443 0.0093195848 93
0.2923409 1.2505322 0.028575432 100
0.28826159 1.2581401 0.048458595 88
0.29015824 1.2546028 0.067515619 51
0.29889771 1.2383038 0.084161744 59
0.29672772 1.2423508 0.10418171 75
0.28799829 1.2586311 0.14856213 79
0.29379171 1.2520607 0.0095290141 92
0.29785326 1.2444189 0.028156744 100
0.28724727 1.2643741 0.048981529 87
0.2956627 1.2485404 0.066540658 52
0.29598042 1.2479426 0.08572609 58
0.2947751 1.2502104 0.10570818 73
0.28435105 1.2698234 0.15166797 69
0.29259381 1.2582144 0.0096337283 75
0.29942787 1.2452524 0.028156744 100
0.28331277 1.2758174 0.050027397 85
0.29725102 1.2493811 0.066540658 52
0.29756674 1.2487823 0.08572609 58
0.29728457 1.2493174 0.10532656 75
0.28979591 1.263521 -0.0097384425 88
0.28240603 1.2775371 0.15373851 68
0.2962372 1.2556099 0.0095639192 76
0.29533222 1.2573417 0.067515619 51
0.29722455 1.2537205 0.1060898 73
0.28882807 1.2697883 -0.0098431576 97
0.29232055 1.2631049 0.14907977 78
0.29968947 1.252898 0.0094941091 92
0.29907528 1.2540829 0.028575432 100
0.29512262 1.2617083 0.068003096 100
0.29973349 1.2528131 0.10570818 66
0.28956661 1.272427 -0.0098780617 97
0.29217908 1.267387 0.15011504 78
0.29226708 1.271494 0.049330149 58
0.29656598 1.2631292 0.14856213 71
0.29907998 1.2622459 0.1480445 79
0.29846939 1.267946 0.048807215 58
0.29303896 1.2786964 -0.0099478718 100
0.29827276 1.2683352 0.14959741 78
0.29922959 1.2705586 0.048981529 58
0.29570228 1.2775996 0.069709264 99
0.29472727 1.2795458 -0.0099478718 100
0.29570743 1.282269 -0.0099827768 100
