# .PCD v0.7 - Point Cloud Data file format
VERSION 0.7
FIELDS x y z intensity
SIZE 4 4 4 4
TYPE F F F F
COUNT 1 1 1 1
WIDTH 743
HEIGHT 1
VIEWPOINT 0 0 0 1 0 0 0
POINTS 743
DATA ascii
0.053480268 0.0027909279 0.015951499 120
0.052637577 0.007047534 0.047730394 38
0.049844563 0.0088756084 0.047730394 25
0.043399036 0.004609406 0.016021309 4
0.040709138 0.0005454421 0.048358422 100
0.041217744 0.007401526 0.04804441 72
0.035349786 0.0041196942 0.048358422 43
0.039397955 0.015843928 0.047730394 28
0.034649491 0.01424104 0.047939736 18
0.023964107 0.0046129823 0.048672438 16
0.030060828 0.024684608 0.047625721 9
0.12866953 0.46197134 -0.0091101564 11
0.091552794 0.55602765 0.008830918 16
0.090033382 0.55931371 0.008830918 16
0.065995872 0.56425327 0.0091799656 15
0.073567331 0.57731521 0.0089705372 16
0.059772044 0.57955772 0.0091799656 15
0.047911227 0.5769645 0.0093893949 15
0.047240496 0.57871825 0.0093893949 15
0.057804644 0.58470172 0.0091799656 15
0.060940444 0.5877316 0.0091101564 16
0.034040153 0.57975465 0.0095988233 15
0.022107482 0.57744533 0.0098082526 14
0.032724559 0.58336133 0.0095988233 15
0.058443278 0.59457773 0.0091101564 16
0.054062545 0.59496355 0.0091799656 15
0.026990652 0.58756173 0.0096686333 15
0.041480243 0.59460473 0.0093893949 15
0.021975815 0.58983445 0.0097384425 15
0.028929353 0.59423524 0.0095988233 15
0.024524927 0.59479016 0.0096686333 15
0.0011259317 0.58911467 0.010087491 14
-1.0199108 1.1260988 0.084365562 5
-1.0510576 1.1331637 0.14363267 4
-1.0362244 1.135334 0.028412517 8
-0.98563415 1.1236823 0.082586139 8
-1.0284874 1.1335521 0.14171524 11
-1.0018387 1.1331234 0.027819136 11
-1.0193954 1.1372315 0.084470235 60
-1.013629 1.1358821 0.14049506 52
-0.98305231 1.1343764 0.027504992 35
-1.0045021 1.1394746 0.08373753 100
-1.0104039 1.1408772 0.14032075 95
-0.97982711 1.1392564 0.027470088 38
-0.98767084 1.1411495 0.082900152 100
-1.0129733 1.1472569 0.14066938 87
-0.99795109 1.149354 0.027819136 35
-0.97278684 1.143187 0.082167454 100
-1.0058415 1.1512876 0.14014643 84
-0.9888553 1.1528239 0.027679516 23
-0.97341317 1.1489824 0.08227212 72
-0.98709995 1.1523873 0.13857763 89
-0.97199875 1.1542771 0.027400278 30
-0.98563641 1.1577203 0.083004825 39
-0.98961931 1.158726 0.13892625 75
-0.95902532 1.1566098 0.027190849 50
-0.98427361 1.1630783 0.083004825 33
-0.97860271 1.1616254 0.1380547 85
-0.96153742 1.1628809 0.027260659 63
-0.97129399 1.165417 0.082376793 84
-0.98493963 1.1689637 0.13875194 92
-0.9659577 1.1696842 0.027365373 70
-0.95445436 1.1666514 0.081539422 98
-0.98161107 1.1738113 0.13857763 94
-0.96054846 1.1744677 0.027295563 81
-0.95484954 1.1729417 0.081644088 92
-0.96850175 1.1765972 0.13753176 100
-0.94754845 1.1765943 0.027086135 89
-0.94765145 1.1766222 0.081330076 100
-0.96130484 1.1803292 0.13700883 100
-0.94233578 1.1804974 0.027016325 92
-0.95592338 1.1842349 0.081853434 100
-0.9618569 1.1858671 0.13718314 98
-0.94089371 1.185704 0.027016325 96
-0.94100124 1.185734 0.081120729 96
-0.96423441 1.1922121 0.13753176 94
-0.94720477 1.1928196 0.027155945 89
-0.93192607 1.1885048 0.080702044 86
-0.95707375 1.1956067 0.13700883 100
-0.9610998 1.2024448 0.027435184 57
-0.93237633 1.1942247 0.080806717 68
-0.94600147 1.1981239 0.13613728 100
-0.95581609 1.2063403 0.027365373 41
-0.93863481 1.2013617 0.081225403 26
-0.93691891 1.2008644 0.13544002 98
-0.92934042 1.2042716 0.026911611 56
-0.92753798 1.2037425 0.080702044 24
-0.94687611 1.2094193 0.13648589 84
-0.92398196 1.2082928 0.026841801 72
-0.91452843 1.2054818 0.080074012 24
-0.94915265 1.2157774 0.13683452 87
-0.92244309 1.2134353 0.026841801 74
-0.91299945 1.2105913 0.080074012 42
-0.93804866 1.2181351 0.13596296 99
-0.92471164 1.2197391 0.026911611 83
-0.91145259 1.2156955 0.080074012 98
-0.9250409 1.2198395 0.1349171 99
-0.90975803 1.220754 0.026667276 85
-0.915613 1.222562 0.080388032 90
-0.91965431 1.22381 0.13456847 92
-0.90427917 1.2249074 0.026597468 88
-0.91203827 1.2273345 0.080283359 76
-0.92178422 1.230383 0.1349171 59
-0.90268236 1.2299809 0.026597468 85
-0.91233701 1.2330379 0.080388032 64
-0.9144699 1.2337134 0.13439415 45
-0.90106791 1.235049 0.026597468 83
-0.89359409 1.2326537 0.07944598 89
-0.910945 1.2382145 0.13421984 43
-0.90712672 1.2423248 0.026737086 88
-0.89585179 1.23867 0.079655327 100
-0.91127962 1.2436709 0.13439415 49
-0.88646823 1.2411757 0.026388038 100
-0.89990038 1.2455816 0.079969339 100
-0.90583092 1.2475269 0.13404553 73
-0.87730581 1.2434185 0.02624842 100
-0.90021104 1.2510158 0.080074012 100
-0.90802163 1.2536064 0.13439415 82
-0.87943619 1.2496701 0.02631823 100
-0.88337511 1.2509919 0.079236634 100
-0.90065795 1.2567915 0.13387123 78
-0.8854124 1.2569774 0.026457848 96
-0.88744634 1.2576675 0.079550654 100
-0.90092248 1.2622395 0.13404553 78
-0.88353199 1.2624855 0.026457848 93
-0.87611872 1.2599387 0.079027295 100
-0.88960034 1.2645702 0.13317397 100
-0.87055677 1.2633007 0.02624842 88
-0.87448627 1.2646651 0.079027295 100
-0.89736301 1.2726092 0.13404553 87
-0.86496598 1.2671781 0.02617861 79
-0.87266368 1.2698828 0.079027295 76
-0.90490979 1.2812132 0.1349171 50
-0.86330944 1.2718675 0.02617861 81
-0.86158758 1.2712561 0.078503937 40
-0.89381891 1.2827015 0.13404553 33
-0.85769659 1.2756921 0.0261088 99
-0.83154601 1.2662979 0.076933853 18
-0.88817984 1.2866428 0.13369691 31
-0.8635307 1.2830865 0.02624842 100
-0.85242158 1.2790542 0.078189917 59
-0.87896746 1.2886899 0.13299966 18
-0.85046726 1.2838845 0.026038991 100
-0.85251111 1.2846344 0.07829459 100
-0.84348017 1.2813206 0.12986206 13
-0.84500545 1.2871356 0.025969181 100
-0.85641497 1.2913651 0.07860861 100
-0.86419481 1.2942492 0.13195379 3
-0.83561093 1.2894373 0.025829561 100
-0.83579296 1.2895055 0.077561885 55
-0.87159187 1.3029258 0.13282534 1
-0.83388084 1.2940294 0.025829561 96
-0.83593041 1.2948055 0.077666558 51
-0.8605004 1.3041093 0.13195379 5
-0.8431558 1.303388 0.026038991 77
-0.83772808 1.3013098 0.077875905 55
-0.85109061 1.3064259 0.13125655 22
-0.83205384 1.304399 0.025864467 75
-0.83782142 1.3066292 0.077980578 68
-0.82886273 1.3031651 0.12933913 60
-0.82096046 1.3053422 0.025689943 81
-0.83417374 1.3105018 0.077875905 68
-0.85306984 1.3178806 0.13177948 100
-0.81917769 1.3098855 0.025689943 100
-0.81565148 1.3084952 0.076933853 69
-0.84012431 1.3181452 0.13073361 97
-0.82090491 1.316381 0.025759751 100
-0.81181329 1.3127575 0.07682918 100
-0.83440429 1.3217611 0.130385 99
-0.82650596 1.32391 0.025899371 100
-0.81927031 1.3209984 0.077352546 97
-0.82887024 1.3248615 0.13003637 100
-0.81335229 1.3244317 0.025689943 100
-0.81169122 1.3237562 0.077038527 100
-0.82498175 1.3291609 0.12986206 100
-0.79052418 1.3151482 0.1776855 15
-0.80410677 1.3259119 0.025550323 100
-0.81539029 1.3305442 0.077352546 100
-0.81759053 1.3314476 0.12933913 100
-0.77034539 1.3120515 0.17524812 15
-0.80206019 1.3308712 0.025550323 100
-0.79303354 1.3271267 0.076201156 100
-0.81552356 1.3364563 0.12933913 100
-0.78301853 1.3229723 0.17719802 20
-0.79640526 1.3340421 0.025480513 100
-0.79660708 1.3341266 0.076515168 100
-0.81353801 1.3412193 0.12933913 100
-0.77924925 1.3268549 0.17695428 16
-0.80179495 1.3418548 0.025620133 100
-0.79279023 1.3380456 0.076410495 99
-0.80970079 1.3451992 0.12916481 100
-0.78095382 1.3330383 0.17744176 16
-0.80530745 1.3489265 0.025724847 71
-0.79998273 1.346652 0.076933853 42
-0.80035573 1.3468114 0.12846756 76
-0.76985282 1.333782 0.17622307 13
-0.80338019 1.3534176 0.025724847 63
-0.82374054 1.3621947 0.078399263 57
-0.82405037 1.3623283 0.13090792 15
-0.79896575 1.3515147 0.18036664 10
-0.79950184 1.3573403 0.025689943 100
-0.80152041 1.3582189 0.077247873 100
-0.82014745 1.3663259 0.13073361 78
-0.75870401 1.3395839 0.17524812 16
-0.79723674 1.3625177 0.025689943 100
-0.80108005 1.364208 0.077352546 100
-0.82149523 1.3731866 0.13108224 100
-0.78194696 1.3557932 0.17866045 33
-0.80795389 1.3728969 0.025934275 100
-0.80995029 1.3737832 0.077980578 100
-0.81391841 1.375545 0.1305593 100
-0.78533703 1.3628556 0.17939167 31
-0.79134744 1.3708568 0.025655037 100
-0.80794054 1.3782897 0.077980578 100
-0.79735655 1.3735485 0.12916481 100
-0.78155202 1.3664689 0.17914793 28
-0.78924185 1.3755352 0.025655037 100
-0.80944878 1.3846717 0.078189917 100
-0.80250329 1.3815314 0.12986206 100
-0.75775641 1.3612992 0.17622307 18
-0.79450387 1.3832927 0.025794657 100
-0.80740291 1.3891765 0.078189917 100
-0.80771881 1.3893206 0.1305593 100
-0.76843089 1.3713994 0.17792924 16
-0.79598778 1.3896545 0.025864467 100
-0.8052333 1.3939109 0.078189917 100
-0.81278795 1.3973888 0.13125655 100
-0.75730759 1.3718473 0.17671055 13
-0.80288416 1.398562 0.026038991 100
-0.80848116 1.4011624 0.078503937 100
-0.80336207 1.398784 0.1305593 100
-0.77140123 1.3839347 0.17890419 10
-0.78619736 1.3964894 0.025759751 100
-0.80626971 1.4059005 0.078503937 100
-0.79394311 1.4001211 0.12986206 100
-0.77643961 1.3919144 0.17987914 7
-0.79123276 1.4045707 0.025899371 100
-0.81126326 1.4140477 0.078922622 100
-0.80974525 1.4133294 0.13160518 100
-0.76887745 1.3939939 0.17914793 3
-0.79442328 1.4118332 0.026004085 100
-0.80179733 1.4153535 0.078503937 100
-0.80749136 1.418072 0.13160518 100
-0.79589099 1.4180229 0.026073895 100
-0.79605073 1.4180999 0.07829459 100
-0.81251544 1.4260273 0.13230242 100
-0.80261415 1.4270859 0.02624842 100
-0.80276269 1.4271581 0.078817949 100
-0.80663294 1.4290382 0.13195379 100
-0.79312974 1.4282832 0.0261088 100
-0.79328674 1.4283602 0.078399263 100
-0.79537886 1.4293854 0.13108224 100
-0.78365356 1.4294223 0.025969181 100
-0.81067449 1.4427826 0.079550654 100
-0.80735689 1.4411423 0.13247673 100
-0.79208022 1.439429 0.02617861 100
-0.79938143 1.4430709 0.079027295 100
-0.81392044 1.4503229 0.13334829 100
-0.80045325 1.4495025 0.026388038 100
-0.79523963 1.4468793 0.078922622 100
-0.81331712 1.4559753 0.1335226 100
-0.80163938 1.4560225 0.026457848 100
-0.80355459 1.4569945 0.079550654 100
-0.80913764 1.4598281 0.13334829 100
-0.79211658 1.4570913 0.02631823 100
-0.7975927 1.4598949 0.079341307 100
-0.80140096 1.4618444 0.13282534 100
-0.78615636 1.4599371 0.02624842 100
-0.80759877 1.471009 0.080074012 100
-0.80251843 1.4683857 0.13317397 100
-0.79083425 1.4682915 0.026388038 100
-0.7927435 1.469286 0.079341307 100
-0.80714077 1.4767838 0.13387123 100
-0.79901069 1.4785469 0.026597468 96
-0.79206258 1.4748974 0.07944598 100
-0.81172091 1.4852226 0.13456847 99
-0.80183047 1.4860594 0.026702182 68
-0.78959388 1.4795778 0.07944598 74
-0.80217344 1.4862411 0.13387123 91
0.15002742 1.2669325 0.011134636 12
0.13269657 1.2884647 0.1293685 11
0.19931957 1.2056911 0.1291219 8
0.14801931 1.2730122 0.01123935 24
0.16970578 1.2458751 0.031924933 30
0.14948797 1.2711743 0.056128297 24
0.14550865 1.2761538 0.10262101 11
0.14921653 1.2715139 0.12478908 48
0.19232652 1.217569 0.13227122 15
0.14115477 1.2816019 0.17547931 7
0.15723518 1.2650132 0.011029921 100
0.17012781 1.2487643 0.032029606 91
0.14752468 1.2772517 0.056651235 95
0.1625711 1.2582881 0.076533951 29
0.16815072 1.251256 0.097302236 25
0.16439262 1.2559924 0.12059128 100
0.19025725 1.2233945 0.13362093 31
0.15134838 1.2724326 0.17185585 29
0.16020292 1.2648103 0.010995016 100
0.17427322 1.2469494 0.03182026 100
0.15299657 1.2739582 0.056128297 97
0.16059265 1.2643156 0.077265166 29
0.18327937 1.235517 0.093860678 39
0.16001689 1.2650466 0.12249938 100
0.19184208 1.2246475 0.13362093 38
0.15549555 1.2707859 0.17082056 36
0.16439644 1.2630178 0.010925206 100
0.16732714 1.2592707 0.032552965 100
0.15475813 1.2753409 0.056128297 100
0.16232049 1.265672 0.077265166 29
0.18003863 1.2430183 0.095112152 25
0.1726329 1.2524869 0.11906482 100
0.188629 1.2320349 0.13542053 30
0.15129521 1.2797685 0.17340876 42
0.17102554 1.2580431 0.010785587 100
0.17148727 1.2574484 0.032343622 60
0.1663003 1.2641282 0.054733805 75
0.1677056 1.2623185 0.076533951 29
0.17199972 1.2567885 0.097615108 37
0.18154404 1.2444973 0.1167751 86
0.17829198 1.2486854 0.13991955 29
0.15663162 1.2765796 0.17185585 36
0.17264605 1.2592971 0.010785587 65
0.17188606 1.2602825 0.032448292 59
0.1655075 1.2685533 0.055082429 50
0.19601071 1.2290013 0.071171694 32
0.17602876 1.2549108 0.096989371 37
0.19297242 1.2329408 0.13497064 15
0.14179674 1.2992979 0.17910278 46
0.17192495 1.2637868 0.010855397 52
0.17967075 1.2536703 0.031924933 30
0.15392652 1.2872937 0.056999855 47
0.1795131 1.2538762 0.074827775 45
0.19213438 1.2373922 0.093234941 53
0.18597585 1.2454355 0.11639348 19
0.20643756 1.2187115 0.13047162 32
0.15774 1.2823131 0.17289113 57
0.17365089 1.2651036 0.010855397 39
0.17410943 1.2645003 0.032552965 29
0.17020309 1.2696393 0.054908119 50
0.18600956 1.2488451 0.073852822 62
0.19376808 1.2386385 0.093234941 39
0.18526152 1.2498293 0.11715672 13
0.20564735 1.2230108 0.13137141 47
0.17706674 1.2606099 0.16512655 68
0.18019968 1.2600294 0.010715778 66
0.17102545 1.2721863 0.032971654 29
0.1803506 1.2598295 0.053687938 52
0.18290019 1.2564509 0.074827775 45
0.21325478 1.2162275 0.08854191 56
0.19994736 1.2338614 0.11295892 13
0.20136142 1.2319876 0.13362093 38
0.17994526 1.2603666 0.16460891 69
0.18199819 1.2613815 0.010715778 39
0.16807964 1.2799666 0.033390339 28
0.18095407 1.2627758 0.053862248 51
0.19301525 1.2466708 0.073121607 78
0.19476244 1.2443378 0.093860678 52
0.20400357 1.2319984 0.11219569 14
0.20772967 1.2270231 0.13182132 39
0.18521914 1.2570808 0.163056 70
0.18729502 1.2578489 0.010611063 81
0.18416196 1.2620629 0.032134276 30
0.18029892 1.2672588 0.054210871 51
0.19586569 1.246321 0.072877869 47
0.19288453 1.2503307 0.094799288 64
0.20444697 1.2347789 0.1125773 13
0.20932704 1.2282151 0.13182132 39
0.18346369 1.263002 0.16460891 85
0.18306264 1.2671566 0.010785587 78
0.20960286 1.2311977 0.03004084 66
0.17375481 1.2797675 0.055431053 49
0.19870937 1.2459571 0.072634131 63
0.20629397 1.2356808 0.091670595 81
0.20140803 1.2423007 0.11410378 13
0.21902928 1.218426 0.128672 32
0.17486194 1.2782675 0.16926765 73
0.18598214 1.2668213 0.010750682 79
0.20059088 1.2468829 0.030982886 63
0.18142432 1.273042 0.054559495 100
0.19216019 1.2583894 0.074340299 46
0.21025661 1.2336909 0.091044858 100
0.19841745 1.2498493 0.11563025 13
0.22750714 1.2101469 0.12597258 16
0.18919796 1.2624322 0.16357364 69
0.19704384 1.25509 0.010471444 82
0.21039981 1.2367339 0.030250182 65
0.18661115 1.2694283 0.054036561 100
0.1972855 1.2547579 0.073609084 62
0.2106339 1.2364123 0.09135773 100
0.21387157 1.2319626 0.11105084 14
0.24387354 1.1907289 0.12012386 8
0.19424272 1.2589397 0.16202073 78
0.1940558 1.2628033 0.010611063 94
0.19682834 1.2589648 0.031610917 92
0.19185647 1.2658483 0.053513627 100
0.19316816 1.2640322 0.074827775 100
0.20763755 1.2439995 0.092609204 93
0.22468242 1.2204008 0.10799789 14
0.24306196 1.1949544 0.12102367 17
0.19482046 1.2617446 0.16253836 70
0.19810855 1.2607925 0.010541254 95
0.20901135 1.2455862 0.03066887 96
0.19126761 1.2703338 0.053862248 100
0.1995216 1.2588217 0.073852822 100
0.19778386 1.2612454 0.095737889 100
0.21367294 1.2390845 0.11219569 14
0.24454719 1.1960232 0.12102367 17
0.19203645 1.2692614 0.16460891 69
0.19982389 1.2620178 0.010541254 95
0.21646407 1.2386374 0.030145511 98
0.18839511 1.2780759 0.054559495 100
0.21158955 1.2454864 0.071659178 80
0.21324584 1.2431593 0.091983467 93
0.20051327 1.2610493 0.11715672 19
0.24151626 1.2034377 0.12282328 17
0.19714195 1.2657862 0.163056 70
0.19453272 1.2729745 0.010750682 79
0.2214781 1.2348478 0.029831495 66
0.19698134 1.2695098 0.053513627 100
0.21316817 1.246606 0.071659178 64
0.2227973 1.2329811 0.089793384 100
0.19421202 1.2734284 0.11982805 51
0.22720939 1.2267382 0.1291219 24
0.20547771 1.2574878 0.15995017 72
0.20318103 1.26439 0.010541254 95
0.22195572 1.2376268 0.029936166 99
0.2078808 1.2576904 0.052119136 100
0.21027383 1.2542793 0.072634131 63
0.21987763 1.240589 0.091044858 100
0.20160887 1.2666311 0.11791996 91
0.22656739 1.2310528 0.13002171 48
0.21161926 1.2523613 0.15787962 81
0.21862113 1.2459049 0.010122396 99
0.22701392 1.2338518 0.029622151 100
0.20275417 1.268692 0.053165004 100
0.21536937 1.2505749 0.071902916 48
0.22716627 1.233633 0.089480512 100
0.22241622 1.2404547 0.11143246 84
0.22038376 1.2433736 0.13317102 85
0.21109724 1.2567103 0.15891489 73
0.21346265 1.2569289 0.010331824 98
0.23090616 1.2316904 0.029412808 67
0.19316909 1.2862914 0.054908119 100
0.21140569 1.2599052 0.073121607 93
0.22317097 1.2428823 0.091044858 100
0.22182795 1.2448255 0.11219569 91
0.22647005 1.2381089 0.13137141 94
0.20620796 1.2674257 0.16202073 70
0.20837721 1.2679946 0.010541254 81
0.22461095 1.2443303 0.030145511 98
0.20624414 1.2711041 0.053165004 100
0.21648666 1.2561733 0.072390392 100
0.23041087 1.2358755 0.089480512 100
0.22237679 1.247587 0.1125773 96
0.23251554 1.2328074 0.12957181 88
0.2035751 1.2749949 0.16409127 69
0.21461937 1.2625724 0.010401634 83
0.23076493 1.2388595 0.029726824 67
0.21023807 1.2690072 0.05281638 100
0.22265464 1.250771 0.071415432 96
0.23537427 1.2320898 0.08854191 100
0.2129966 1.2649558 0.11639348 100
0.23522973 1.2323021 0.1291219 96
0.21403801 1.2634263 0.15995017 72
0.20850319 1.2753381 0.010645968 40
0.22010222 1.2581741 0.030878214 31
0.21198198 1.2701902 0.05281638 79
0.21877739 1.2601345 0.072634131 78
0.23367104 1.2380953 0.089480512 100
0.22901672 1.2449827 0.11143246 100
0.23684537 1.233398 0.1291219 96
0.22008914 1.2581935 0.15787962 73
0.2190941 1.2631834 0.010366729 41
0.21949726 1.2625824 0.031087559 31
0.22918382 1.2481456 0.05037602 56
0.23035878 1.2463944 0.070440479 98
0.22972199 1.2473435 0.091044858 100
0.23606288 1.237893 0.10952436 99
0.23295495 1.2425251 0.13137141 94
0.21955714 1.2624931 0.15891489 73
0.22294867 1.2609495 0.010296919 42
0.21670336 1.2703246 0.031506244 31
0.2086792 1.2823699 0.053862248 51
0.22533703 1.2573643 0.071902916 96
0.23459217 1.2434709 0.090106249 96
0.23217395 1.2471011 0.11143246 91
0.24208641 1.232221 0.12822211 97
0.21797901 1.2684096 0.1604678 72
0.228991 1.2553596 0.0101573 28
0.22056788 1.2680953 0.031296901 31
0.21917289 1.2702045 0.052467756 53
0.23133522 1.2518153 0.070927955 97
0.24161252 1.2362761 0.08854191 100
0.23375782 1.2481524 0.11143246 84
0.2436209 1.2332397 0.12822211 100
0.21963364 1.2695079 0.1604678 72
0.22326702 1.2683506 0.010401634 27
0.21599951 1.2794354 0.031924933 30
0.21681386 1.2781932 0.053165004 52
0.22238779 1.2696917 0.073365346 100
0.24240369 1.2391623 0.088854775 98
0.23890913 1.2444924 0.1102876 85
0.24548292 1.2344657 0.12822211 100
0.22799677 1.2611365 0.15736198 74
0.22383055 1.2711073 0.010436539 41
0.22858608 1.2638012 0.030878214 31
0.22828287 1.264267 0.051596198 54
0.23054406 1.2607931 0.071902916 96
0.24396119 1.2401798 0.088854775 98
0.24369726 1.2405852 0.10914274 85
0.24489868 1.2387395 0.1291219 96
0.22857335 1.2638208 0.15787962 73
0.2385177 1.2520316 0.010017681 43
0.24106517 1.2480893 0.029831495 33
0.22343564 1.2753717 0.05264207 53
0.23756021 1.2535133 0.070684217 65
0.24766624 1.2378738 0.088229038 98
0.25165263 1.2317047 0.10685304 88
0.2475124 1.2381119 0.128672 97
0.22916421 1.2665064 0.15839726 73
0.24011791 1.2530618 0.010017681 72
0.25127956 1.2356623 0.028994121 68
0.22726488 1.2730978 0.052293446 53
0.24666825 1.2428508 0.068978049 50
0.24388644 1.2471871 0.089793384 83
0.24470493 1.2459114 0.10990598 85
0.25222301 1.2341917 0.1273223 89
0.23081243 1.2675676 0.15839726 73
0.23974338 1.2575685 0.010087491 57
0.25191608 1.2384391 0.029098792 68
0.22911099 1.2742773 0.052293446 80
0.24627194 1.2473089 0.069465525 66
0.25624245 1.2316402 0.086664692 57
0.24539727 1.2486835 0.1102876 78
0.26124975 1.2237712 0.12417299 92
0.22745261 1.2768835 0.16098544 64
0.23709011 1.2653573 0.01022711 70
0.25240445 1.2411137 0.029203463 100
0.23397714 1.2702852 0.051770512 81
0.24997672 1.2449569 0.068978049 67
0.25566497 1.235952 0.087290429 85
0.24384084 1.2546704 0.11143246 84
0.25963387 1.229669 0.12552269 99
0.23738903 1.264884 0.15684435 66
0.24103129 1.2631117 0.0101573 71
0.24883091 1.2506635 0.029726824 100
0.25062308 1.2478032 0.049330149 87
0.24539557 1.2561463 0.070440479 49
0.2615701 1.2303319 0.086038955 72
0.24770412 1.2524619 0.11066922 85
0.2623553 1.2290788 0.12507279 100
0.24125642 1.2627524 0.15580906 67
0.25851005 1.2386627 0.0096337283 90
0.25675553 1.2414837 0.029098792 100
0.239582 1.2690957 0.051421888 82
0.25225142 1.2487255 0.069221787 67
0.2526654 1.2480599 0.089167647 70
0.25137943 1.2501276 0.10990598 85
0.25770396 1.2399588 0.1277722 97
0.24085155 1.2670543 0.15684435 66
0.25384665 1.2498877 0.0098431576 88
0.25840309 1.2425045 0.029098792 100
0.24446511 1.2650896 0.050898954 83
0.25079674 1.2548299 0.069953002 49
0.25641081 1.2457328 0.08854191 70
0.25511932 1.2478255 0.10914274 85
0.26548678 1.2310261 0.12507279 92
0.23345745 1.2829264 0.16150309 70
0.25230601 1.2559829 0.0099478718 73
0.25788504 1.246875 0.029308135 100
0.24194568 1.2728959 0.051596198 82
0.25344306 1.2541265 0.069709264 66
0.25799 1.2467037 0.08854191 56
0.25260344 1.2554972 0.11066922 85
0.26905301 1.2286434 0.12417299 100
0.24222383 1.2724419 0.15787962 65
0.24682122 1.2690338 0.010192205 85
0.25963482 1.2479426 0.029308135 100
0.24792892 1.2672105 0.050898954 83
0.25315806 1.2586033 0.07019674 82
0.26794443 1.234265 0.086038955 58
0.25642359 1.2532282 0.10990598 85
0.27377141 1.2246737 0.12282328 93
0.2500858 1.2636603 0.15477379 67
0.25880387 1.2529119 0.0098431576 88
0.25400189 1.2608753 0.03004084 100
0.25575241 1.2579724 0.049853086 85
0.25990531 1.2510853 0.068978049 50
0.26948553 1.2351977 0.086038955 58
0.25904146 1.2525179 0.10952436 85
0.27427438 1.2272561 0.12327318 85
0.24972934 1.2679609 0.15580906 67
0.26074475 1.254077 0.0098431576 88
0.26109716 1.2534871 0.029517479 100
0.25158176 1.2694114 0.050898954 83
0.26183882 1.2522459 0.068978049 50
0.26730219 1.2431028 0.087290429 57
0.26702297 1.2435701 0.10723466 73
0.269115 1.2400692 0.12642249 90
0.25073975 1.2708206 0.1563267 74
0.26235157 1.2550335 0.0098431576 88
0.27288991 1.2372637 0.02847076 100
0.25527209 1.2669709 0.05055033 84
0.26748994 1.2463691 0.068003096 51
0.2718955 1.2389405 0.086351827 58
0.26358771 1.2529491 0.10914274 78
0.27862763 1.2275888 0.12282328 85
0.2533876 1.2701485 0.15580906 67
0.26294726 1.2577081 0.0098780617 73
0.2703886 1.2450651 0.028889447 100
0.25287926 1.2748138 0.051247578 100
0.26907116 1.2473035 0.068003096 51
0.27044612 1.2449673 0.087290429 57
0.26718247 1.2505124 0.10837951 79
0.28212351 1.2251272 0.12192347 85
0.25308797 1.2744591 0.15684435 66
0.26557475 1.2569306 0.0098431576 88
0.2719655 1.2459897 0.028889447 100
0.25756967 1.2706351 0.05072464 84
0.26464811 1.258517 0.069465525 49
0.28098971 1.2305404 0.084474608 59
0.26283616 1.261619 0.11066922 78
0.28265134 1.2276957 0.12237337 100
0.26355755 1.260384 -0.0099129668 87
0.26255751 1.262096 0.15270324 68
0.27254 1.2494147 0.0096686333 75
0.27187762 1.2505592 0.029098792 100
0.26756573 1.2580097 0.049330149 100
0.26661143 1.2596585 0.069465525 49
0.28086165 1.235036 0.085100345 58
0.26874557 1.255971 0.10914274 85
0.28156239 1.2338252 0.12372308 75
0.26647055 1.2599019 0.15166797 69
0.27213949 1.2538003 0.0097384425 75
0.26949391 1.2584066 0.029517479 100
0.26422417 1.2675821 0.050201707 85
0.27614591 1.2468245 0.067515619 51
0.28043765 1.2393519 0.08572609 58
0.27426973 1.2500912 0.10761628 79
0.28310195 1.2347128 0.12372308 83
0.2651681 1.2659386 -0.0099827768 86
0.26232395 1.2708907 0.15477379 67
0.27374536 1.254719 0.0097384425 90
0.27902672 1.2454523 0.028680105 100
0.26883543 1.263334 0.049678773 86
0.28166032 1.2408314 0.066540658 52
0.28297368 1.2385269 0.085413218 58
0.27197483 1.2578256 0.10914274 78
0.29043403 1.2254369 0.12102367 86
0.26781279 1.2651284 0.15270324 68
0.27732307 1.2521513 0.0096686333 75
0.28257123 1.2428713 0.02847076 100
0.26360735 1.2764034 0.050898954 83
0.2773599 1.252086 0.068003096 51
0.28939092 1.2308125 0.083848871 59
0.27359402 1.258745 0.10914274 78
0.29386437 1.2229025 0.12012386 86
0.26944792 1.2660761 -0.0099478718 86
0.26375028 1.2761507 0.15580906 75
0.27518004 1.2601242 0.0098082526 74
0.28235257 1.2473325 0.028680105 100
0.27228636 1.2652849 0.049678773 86
0.27524522 1.260008 0.068978049 50
0.29011554 1.2334877 0.084161744 59
0.27442706 1.2614671 0.10952436 85
0.28980756 1.2340369 0.12282328 85
0.272246 1.2653569 -0.0099129668 87
0.27033147 1.2687714 0.15322088 76
0.28466785 1.2470996 0.0095290141 76
0.28596187 1.2447729 0.02847076 100
0.27401692 1.2662513 0.049678773 86
0.27695733 1.260964 0.068978049 50
0.28885472 1.2395711 0.085100345 58
0.28282368 1.2504157 0.10685304 81
0.29237607 1.2332393 0.12237337 68
0.27397683 1.2663233 -0.0099129668 87
0.27864677 1.2579262 0.14959741 70
0.28826648 1.2445209 0.009459204 93
0.28183296 1.2561848 0.029098792 100
0.27478856 1.2689562 0.049853086 85
0.28250781 1.2549613 0.068003096 51
0.28954136 1.2422096 0.085413218 58
0.28829509 1.2444689 0.10532656 82
0.29587704 1.230723 0.12147357 77
0.27941856 1.2605621 0.15011504 78
0.28800508 1.2489403 0.0095290141 76
0.28544873 1.2536135 0.028889447 100
0.27557576 1.2716618 0.050027397 85
0.28991833 1.2454427 0.066540658 52
0.29024324 1.2448488 0.08572609 58
0.2833575 1.2574364 0.10799789 79
0.29842204 1.2298976 0.12102367 77
0.27464271 1.2733674 0.15373851 68
0.28395715 1.2603981 0.0097384425 75
0.29094806 1.2475117 0.02847076 100
0.28112885 1.2656115 0.049330149 87
0.28589997 1.2568169 0.068003096 51
0.29943806 1.2318621 0.083223134 60
0.28974149 1.2497358 0.1060898 81
0.28300357 1.2621558 -0.0097733475 88
0.27455905 1.2777216 0.15477379 67
0.28946024 1.2542797 0.0095988233 61
0.29261646 1.2484131 0.02847076 100
0.28569236 1.2612833 0.048807215 88
0.29136288 1.2507432 0.067028143 51
0.28769708 1.257557 0.10761628 79
0.28661799 1.2595627 -0.0097035384 89
0.2799941 1.2718749 0.15270324 68
0.29782367 1.2428801 0.0093544899 93
0.29437166 1.2493533 0.02847076 100
0.2940574 1.2499425 0.047587037 90
0.2893903 1.2586943 0.068003096 51
0.29687628 1.2446566 0.10456333 67
0.28465027 1.2675828 -0.0098431576 87
0.28910762 1.2592243 0.14856213 71
0.29760626 1.247293 0.0094242999 93
0.29604647 1.2502427 0.02847076 100
0.29107741 1.2596395 0.048458595 88
0.28924179 1.2631108 0.068490572 50
0.29945245 1.2438017 0.10418171 75
0.29081693 1.2601321 0.14856213 79
0.29175901 1.2622941 0.0097035384 90
0.29270253 1.2604954 0.048458595 88
0.29917771 1.2481515 0.06629692 70
0.29828903 1.2498457 0.10532656 75
0.28526443 1.2746749 0.15270324 68
0.2953245 1.2596443 0.0096337283 90
0.28614193 1.2772989 0.050027397 85
0.29810029 1.2543075 0.067028143 51
0.29996553 1.2507215 0.10532656 75
0.28794259 1.2738369 -0.0099129668 97
0.28881055 1.2721682 0.15166797 69
0.29520217 1.2640848 0.0097035384 90
0.29887265 1.2569673 0.047935657 59
0.29979238 1.2551838 0.067028143 51
0.29894558 1.2568259 0.10647142 66
0.28786984 1.2783031 -0.0099827768 100
0.29233593 1.2696428 0.15063268 78
0.29876 1.2613889 0.048284281 59
0.29935825 1.2602189 0.14752686 71
0.29661655 1.2696621 0.15011504 78
0.29836226 1.2705436 0.15011504 78
0.29494089 1.2817931 0.15322088 76
