# .PCD v0.7 - Point Cloud Data file format
VERSION 0.7
FIELDS x y z intensity
SIZE 4 4 4 4
TYPE F F F F
COUNT 1 1 1 1
WIDTH 777
HEIGHT 1
VIEWPOINT 0 0 0 1 0 0 0
POINTS 777
DATA ascii
0.084748566 0.005697608 0.046893016 31
0.064083129 0.019748449 0.015602452 83
0.050054997 0.003962934 0.047939736 37
0.050676316 0.010719001 0.047625721 22
0.048029006 0.01246655 0.047625721 100
0.041084647 0.0074903369 0.04804441 72
0.036197066 0.0059567094 0.048253752 35
0.039134741 0.016022205 0.047730394 28
0.038758159 0.021109104 0.047521047 19
0.03727901 0.024543822 0.047416378 9
0.030129671 0.019771576 0.047835063 9
0.027202845 0.02668649 0.047625721 9
0.024611354 0.028515935 0.047625721 9
-0.0044994354 0.55725861 0.010366729 13
0.013456225 0.56629324 0.010017681 14
0.010876477 0.56746411 0.010052586 28
0.0120821 0.5699501 0.010017681 29
0.015140474 0.57321 0.0099478718 29
0.021939635 0.57790613 0.0098082526 29
0.0099827647 0.57568824 0.010017681 29
0.0093078017 0.57757449 0.010017681 29
0.0048668385 0.57813525 0.010087491 28
0.021197677 0.58595502 0.0097733475 29
0.02623105 0.5897541 0.0096686333 30
0.025636196 0.591492 0.0096686333 30
0.02122581 0.59204781 0.0097384425 30
0.018710375 0.59326345 0.0097733475 29
0.033293903 0.60011566 0.0094941091 30
0.02699858 0.60006654 0.0095988233 45
-0.076837063 0.56632829 0.03454173 27
0.037832439 0.60556096 0.0093893949 46
-0.077544153 0.56851757 0.03454173 27
0.0067640543 0.59767538 0.0099478718 14
-0.078243673 0.57070935 0.03454173 27
0.01761502 0.60316062 0.0097384425 30
0.0017537475 0.6002894 0.010017681 29
-0.079619646 0.57510012 0.03454173 27
-0.0026599765 0.60103488 0.010087491 14
-0.080296159 0.57729912 0.03454173 27
-0.037673652 0.5924589 0.010715778 13
-0.080931723 0.57939029 0.03454173 27
-0.045954823 0.59222484 0.010855397 13
-0.046541095 0.5942021 0.010855397 13
-0.081712902 0.58623129 0.011483683 12
-0.040065646 0.60057843 0.010715778 13
-0.086828351 0.58955562 0.011553493 11
-0.064344168 0.59824079 0.011134636 12
-0.064939976 0.60038632 0.011134636 12
-0.080994725 0.59844422 0.011413874 12
-0.081589699 0.60064787 0.011413874 12
-0.066682458 0.60683513 0.011134636 12
-0.11755687 0.59586561 0.01204216 11
-0.11038423 0.60007352 0.011902541 11
-0.10321999 0.60434592 0.011762922 11
-0.11931461 0.60274881 0.01204216 11
-0.1160109 0.60604221 0.011972351 11
-0.11269236 0.60931051 0.011902541 11
-0.12880933 0.60790914 0.012181779 10
-0.12161207 0.61222744 0.01204216 11
-0.15333128 0.60736454 0.012600637 10
-0.17729288 0.60449612 0.013019496 9
-0.18176895 0.60616201 0.013089305 18
-0.17843056 0.60957754 0.013019496 28
-1.0506334 1.1351242 0.028656852 3
-1.0214219 1.1284606 0.084470235 5
-1.0447853 1.1337901 0.14310972 6
-1.0279844 1.1354669 0.028272899 8
-0.99103814 1.1269101 0.082900152 15
-1.029983 1.1359298 0.14188954 19
-1.0111268 1.137309 0.02799366 21
-1.0014479 1.1350317 0.083528183 78
-1.0209384 1.1396174 0.1411923 71
-0.99038571 1.1381083 0.027644612 38
-1.0001643 1.140445 0.083528183 100
-1.0138252 1.1437097 0.14066938 100
-0.97548825 1.140182 0.027400278 49
-0.9813934 1.1416149 0.082586139 100
-1.0047665 1.1472867 0.13997212 87
-0.98001176 1.1469398 0.027504992 28
-0.97426909 1.145525 0.08227212 100
-1.0034399 1.1527116 0.13997212 87
-0.97480673 1.1513078 0.027435184 25
-0.97876173 1.1522969 0.082586139 64
-0.99822885 1.1571651 0.13962349 81
-0.98121947 1.1585957 0.027574802 32
-0.97741801 1.1576309 0.082586139 36
-0.99300557 1.1615868 0.13927488 73
-0.96823448 1.1609464 0.027365373 61
-0.98379225 1.1649525 0.083004825 46
-0.98198205 1.1644864 0.13840333 89
-0.96105629 1.1647273 0.027260659 67
-0.98626906 1.1713136 0.083214171 84
-0.97866803 1.169328 0.13822901 89
-0.95193726 1.1679509 0.027121039 75
-0.96555251 1.1715584 0.082167454 100
-0.98304254 1.1761925 0.13875194 99
-0.95633262 1.1747479 0.027225753 78
-0.95063967 1.1732183 0.081434749 98
-0.97584289 1.1799903 0.13822901 100
-0.96648675 1.1831574 0.027435184 83
-0.94729596 1.1779289 0.081330076 100
-0.96094626 1.1816479 0.13700883 100
-0.94968742 1.1839277 0.027155945 96
-0.95171088 1.1844862 0.081644088 100
-0.95381111 1.1850659 0.13648589 94
-0.94053048 1.1870049 0.027016325 96
-0.95025486 1.1897255 0.081644088 86
-0.95427185 1.1908494 0.1366602 92
-0.94283956 1.1935569 0.027086135 83
-0.93717796 1.1919506 0.081016064 78
-0.95655268 1.1974477 0.13700883 100
-0.96825773 1.2065008 0.027574802 51
-0.9241789 1.193828 0.080388032 52
-0.95122176 1.2016029 0.1366602 100
-0.95727843 1.2084755 0.027400278 39
-0.92284018 1.1984572 0.080388032 22
-0.95177156 1.2068734 0.13683452 89
-0.93080288 1.2063857 0.026946515 66
-0.92325145 1.2041603 0.080492698 26
-0.94641513 1.2109866 0.13648589 85
-0.91394144 1.2069764 0.026667276 78
-0.92555457 1.2104428 0.080702044 30
-0.93150264 1.2122183 0.13526571 92
-0.91623551 1.2132411 0.026737086 81
-0.91444904 1.2127011 0.080178685 64
-0.93567151 1.2191166 0.13578865 98
-0.92232782 1.2206978 0.026876707 89
-0.90907532 1.2166411 0.079969339 100
-0.93218952 1.2237166 0.13561434 99
-0.91692549 1.2246504 0.026806897 88
-0.90750736 1.2217314 0.079969339 92
-0.91346902 1.2235792 0.13404553 84
-0.91524929 1.230024 0.026806897 79
-0.90584189 1.2270705 0.079969339 74
-0.90989584 1.2283432 0.13387123 56
-0.89457673 1.2290794 0.026457848 81
-0.9080444 1.2333593 0.080178685 68
-0.90828711 1.2334363 0.13387123 43
-0.8929655 1.2341191 0.026457848 83
-0.9007141 1.2366114 0.079864666 89
-0.91235059 1.2403542 0.13439415 45
-0.89513963 1.240391 0.026527658 93
-0.88768142 1.2379634 0.079236634 100
-0.91448885 1.2466892 0.13474278 54
-0.9011696 1.2476816 0.026667276 99
-0.88801879 1.2433528 0.079341307 100
-0.90154511 1.2478052 0.13369691 77
-0.88052088 1.2464256 0.02631823 100
-0.88825268 1.2490007 0.07944598 100
-0.89986843 1.2528691 0.13369691 82
-0.86739558 1.2478327 0.0261088 96
-0.89405781 1.256821 0.079864666 100
-0.90186483 1.2594529 0.13404553 77
-0.87328964 1.2553591 0.02624842 93
-0.87722677 1.2567017 0.079027295 100
-0.90391904 1.2658041 0.13439415 87
-0.87545341 1.2613796 0.02631823 92
-0.8718285 1.26013 0.078817949 100
-0.90038329 1.2699734 0.13421984 99
-0.88128239 1.2689855 0.026457848 77
-0.86633712 1.2637751 0.07860861 100
-0.90051049 1.275689 0.13439415 66
-0.86453158 1.2684127 0.02617861 78
-0.85904068 1.2664779 0.07829459 63
-0.89130908 1.2778478 0.13369691 38
-0.86466688 1.2740184 0.026213514 88
-0.86106187 1.272734 0.078503937 25
-0.89140433 1.2835445 0.13387123 36
-0.85349208 1.2755649 0.026038991 99
-0.85554022 1.2763028 0.07829459 29
-0.88772851 1.2878976 0.13369691 28
-0.85923475 1.283198 0.02617861 100
-0.85376436 1.2812059 0.07829459 72
-0.88778406 1.2935948 0.13387123 15
-0.85359138 1.2869774 0.0261088 100
-0.84813291 1.2849669 0.078085244 100
-0.85781127 1.2885317 0.13125655 13
-0.84428209 1.289083 0.025969181 100
-0.84445506 1.2891474 0.077980578 100
-0.87279731 1.2996991 0.13282534 1
-0.8349753 1.2911298 0.025829561 100
-0.85198098 1.2975285 0.078503937 44
-0.87093967 1.3046622 0.13282534 1
-0.8331477 1.2959611 0.025829561 92
-0.83519632 1.2967401 0.077666558 51
-0.85416645 1.3039536 0.13143086 7
-0.84063655 1.3043723 0.026004085 71
-0.82775611 1.2994229 0.077352546 57
-0.87089211 1.3159986 0.13317397 41
-0.84249097 1.3106709 0.026073895 74
-0.83148521 1.3063977 0.077666558 72
-0.84297532 1.310859 0.13073361 90
-0.82579678 1.3094459 0.025794657 88
-0.82598001 1.3095176 0.077457212 57
-0.84488386 1.3169298 0.13108224 100
-0.81460971 1.3105626 0.025620133 100
-0.83522958 1.3187308 0.078085244 80
-0.83185214 1.3173929 0.13003637 99
-0.81642753 1.3168087 0.025689943 100
-0.82217997 1.3191106 0.077457212 91
-0.83363253 1.3236938 0.130385 99
-0.82202309 1.3243333 0.025829561 100
-0.81849962 1.3229097 0.077352546 97
-0.83733076 1.330518 0.13090792 100
-0.82007974 1.3291192 0.025829561 100
-0.81471211 1.3269286 0.077247873 100
-0.82429761 1.3308403 0.12986206 100
-0.80712444 1.3290892 0.025620133 100
-0.79993099 1.3261257 0.076515168 100
-0.81690365 1.333118 0.12933913 100
-0.77885944 1.317445 0.17646681 16
-0.80127567 1.3327584 0.025550323 100
-0.80331689 1.3336086 0.07682918 100
-0.82208842 1.3414263 0.13003637 100
-0.78774279 1.3271224 0.17792924 18
-0.79940206 1.3372364 0.025550323 100
-0.79407567 1.3349974 0.076410495 100
-0.81283909 1.3428848 0.12933913 100
-0.78405792 1.3307862 0.1776855 24
-0.79741389 1.3419433 0.025550323 100
-0.78657979 1.3373444 0.076096483 78
-0.82000107 1.3515309 0.13021068 100
-0.77295583 1.3315614 0.17646681 18
-0.82124358 1.3574325 0.026038991 60
-0.80855757 1.3519979 0.077457212 40
-0.80707663 1.3513634 0.12916481 45
-0.77838522 1.3390722 0.17744176 9
-0.81724614 1.3616602 0.026004085 83
-0.81191438 1.3593529 0.077771232 78
-0.82139343 1.3634549 0.13073361 39
-0.78357786 1.3470907 0.17841671 8
-0.78778774 1.354187 0.025480513 100
-0.82093459 1.3686616 0.078399263 100
-0.80663663 1.3624181 0.12951343 97
-0.79075283 1.3554819 0.17963541 26
-0.79295617 1.3623142 0.025620133 100
-0.80045706 1.3656225 0.077352546 100
-0.82633168 1.3770347 0.13160518 100
-0.77951652 1.3563867 0.17841671 35
-0.79646546 1.3692036 0.025724847 100
-0.80212396 1.3717216 0.077561885 100
-0.81338948 1.376735 0.1305593 100
-0.76305574 1.3543355 0.17646681 33
-0.80906504 1.3802179 0.026004085 100
-0.80923122 1.3802925 0.078085244 100
-0.80773479 1.3796206 0.13021068 100
-0.78465289 1.3692569 0.17963541 29
-0.79428333 1.3789455 0.025759751 100
-0.80720001 1.3847966 0.078085244 100
-0.79844636 1.3808312 0.12951343 100
-0.78085011 1.3728604 0.17939167 21
-0.78658694 1.381373 0.025655037 100
-0.81038636 1.3922591 0.078399263 100
-0.80706948 1.3907421 0.1305593 100
-0.76960558 1.3736055 0.17817298 14
-0.79726225 1.3916667 0.025899371 100
-0.7992478 1.3925829 0.077875905 100
-0.81223994 1.3985779 0.13125655 100
-0.74776965 1.3688294 0.17549185 13
-0.79838055 1.3987602 0.025969181 100
-0.79673773 1.397994 0.077875905 100
-0.81331712 1.4057252 0.13160518 100
-0.77414101 1.3874571 0.17939167 10
-0.79809767 1.4040792 0.026004085 100
-0.81272107 1.4109573 0.078922622 100
-0.80398983 1.4068506 0.13090792 100
-0.77388245 1.3926896 0.17963541 5
-0.79237419 1.406832 0.025934275 100
-0.80697912 1.4137607 0.078713275 100
-0.79827029 1.4096291 0.1305593 100
-0.78077775 1.4013305 0.18085411 1
-0.78664726 1.4095538 0.025864467 100
-0.81024176 1.4208431 0.079027295 100
-0.80333084 1.4175365 0.13125655 100
-0.78969628 1.4170576 0.025969181 100
-0.79705638 1.4206126 0.078399263 100
-0.81530112 1.4294245 0.13265105 100
-0.79473418 1.4249992 0.0261088 100
-0.7984826 1.426825 0.07860861 100
-0.81668919 1.4356933 0.13299966 100
-0.80309182 1.4352171 0.02631823 100
-0.79427379 1.430882 0.078503937 100
-0.8070882 1.4371818 0.13230242 100
-0.79371196 1.4361477 0.02617861 100
-0.80460089 1.441546 0.079236634 100
-0.797728 1.4381387 0.13160518 100
-0.78422445 1.4372563 0.026038991 100
-0.81475276 1.4525237 0.079969339 100
-0.80964333 1.4499685 0.13299966 100
-0.7890287 1.4455123 0.02617861 100
-0.79809648 1.4500868 0.079131968 100
-0.80904037 1.4556077 0.13317397 100
-0.79735583 1.4556236 0.026388038 100
-0.79571432 1.4547884 0.079131968 100
-0.82262021 1.4684799 0.13474278 100
-0.79495436 1.4603226 0.026388038 100
-0.79686946 1.4613056 0.079341307 100
-0.81840116 1.4723572 0.13456847 100
-0.79608816 1.4668519 0.026457848 100
-0.80154294 1.4696758 0.07976 100
-0.80178624 1.4698017 0.13317397 100
-0.78301173 1.4659932 0.02624842 99
-0.80086285 1.4753137 0.079864666 100
-0.80639988 1.4782047 0.13387123 100
-0.78765172 1.4743688 0.026388038 96
-0.78955644 1.4753718 0.079341307 100
-0.80744535 1.4847916 0.13421984 100
-0.79578155 1.4846611 0.026597468 39
-0.78885001 1.4809802 0.07944598 36
-0.81022102 1.492329 0.13474278 71
0.098483741 1.3289711 0.13967219 5
0.158402 1.25827 0.010925206 13
0.13888571 1.2826042 0.03443706 27
0.1286692 1.2953429 0.05891728 22
0.10013357 1.330923 0.11388429 9
0.14834183 1.2708137 0.12478908 18
0.20129979 1.2047822 0.128672 8
0.14267981 1.2778735 0.17444403 7
0.16509143 1.2533767 0.010785587 39
0.16431624 1.2543502 0.032448292 59
0.15408662 1.2671968 0.055605363 49
0.15924633 1.260717 0.077021427 14
0.15869778 1.2614059 0.099492319 12
0.1574302 1.2629979 0.12249938 81
0.1480653 1.2747585 0.17289113 14
0.17041785 1.249945 0.010680873 100
0.17583615 1.2430942 0.031610917 100
0.14708602 1.2794459 0.056825545 100
0.16087577 1.2620101 0.077021427 29
0.17013252 1.2503059 0.096989371 25
0.16028506 1.2627571 0.12211776 100
0.18371674 1.23313 0.13632034 45
0.14974132 1.2760885 0.17289113 35
0.16345063 1.2622765 0.010925206 100
0.17625633 1.2459682 0.031715591 100
0.14886677 1.2808492 0.056825545 100
0.16872537 1.255559 0.075802729 30
0.17425135 1.2485217 0.096363634 37
0.17049482 1.2533057 0.11944643 100
0.19616723 1.2206115 0.13227122 39
0.15389651 1.2744439 0.17185585 43
0.15656495 1.2746623 0.01116954 100
0.17669207 1.2488451 0.03182026 91
0.1531024 1.2791038 0.056476921 100
0.17286363 1.2537558 0.075315252 30
0.18321118 1.240483 0.094486415 26
0.16977003 1.257724 0.12020966 100
0.19055337 1.231065 0.13497064 30
0.15090868 1.2819177 0.1739264 42
0.17546454 1.2538936 0.010680873 80
0.18081078 1.2469864 0.031610917 61
0.16463792 1.2678815 0.055082429 75
0.16847938 1.2629184 0.076533951 29
0.17760119 1.2511332 0.096363634 25
0.17988649 1.2481806 0.11753834 39
0.18858662 1.2369401 0.13632034 30
0.14560336 1.2924738 0.17703223 27
0.18072742 1.2503768 0.010576159 67
0.18117732 1.2497916 0.031715591 30
0.16507682 1.2707362 0.055256739 49
0.18463391 1.2452949 0.073609084 77
0.18040264 1.2507993 0.096050762 51
0.18626028 1.2431793 0.11601187 13
0.19132471 1.2365911 0.13587044 22
0.15440241 1.2846223 0.1739264 63
0.17512742 1.2612008 0.010785587 52
0.17558414 1.2606024 0.032343622 30
0.16803581 1.270493 0.055082429 50
0.18749955 1.2449894 0.073365346 46
0.1880753 1.244235 0.094486415 52
0.20101598 1.2272786 0.11181407 21
0.19295561 1.2378402 0.13587044 30
0.1690934 1.2691072 0.16823238 60
0.1745156 1.2657596 0.010855397 39
0.17738482 1.2619714 0.032343622 30
0.16626397 1.2766544 0.055605363 49
0.19044143 1.2447324 0.073121607 62
0.19339389 1.2408342 0.093547814 52
0.1801728 1.2582903 0.11906482 13
0.21114486 1.2173972 0.12957181 40
0.17325807 1.2674199 0.16719711 67
0.17144132 1.2734604 0.010995016 38
0.17190254 1.2728471 0.032971654 29
0.17402178 1.2700286 0.054733805 50
0.18971476 1.2491578 0.073609084 62
0.19860107 1.2373396 0.092609204 53
0.2042971 1.2297642 0.11181407 14
0.20333943 1.2310379 0.13317102 38
0.18080169 1.2610117 0.16460891 69
0.18507761 1.2586904 0.010645968 53
0.18791223 1.2548944 0.031715591 30
0.18283457 1.2616942 0.053687938 52
0.19368115 1.2471688 0.073121607 78
0.19897082 1.2400851 0.092922069 53
0.19995034 1.2387733 0.11372216 13
0.21419802 1.2196934 0.12957181 32
0.1847437 1.2591375 0.16357364 69
0.19035825 1.255142 0.010541254 95
0.20150116 1.2401106 0.03066887 32
0.1892992 1.2565706 0.05299069 52
0.20598847 1.2340574 0.070927955 48
0.19826108 1.2444813 0.093547814 78
0.20743459 1.2321067 0.11181407 14
0.21344873 1.2239938 0.13047162 32
0.18415242 1.2635133 0.16460891 69
0.18257189 1.269279 0.010820492 91
0.20669571 1.2364984 0.030354854 65
0.17446694 1.2802924 0.055431053 74
0.20525724 1.238453 0.071415432 96
0.20460284 1.2393422 0.092296332 80
0.20090419 1.2443682 0.1144854 13
0.21965572 1.2188877 0.128672 24
0.18587732 1.2647874 0.16460891 69
0.19611317 1.2544115 0.010471444 82
0.20596981 1.2409194 0.030564198 64
0.18330237 1.2719473 0.054385185 100
0.20338154 1.2444623 0.072146654 63
0.21556547 1.2277845 0.089793384 83
0.21066904 1.2344869 0.11181407 14
0.22352377 1.2168909 0.1277722 16
0.18646708 1.2676153 0.16512655 68
0.19311032 1.2621191 0.010611063 81
0.20644319 1.2437342 0.03066887 64
0.19324455 1.2619339 0.053165004 100
0.20387441 1.2472763 0.072390392 47
0.20904756 1.2401431 0.091983467 93
0.21459764 1.2324899 0.11105084 14
0.24339074 1.1927868 0.12057377 8
0.19160873 1.2641896 0.16357364 69
0.20184025 1.2536244 0.010401634 83
0.21043271 1.2416887 0.030459527 65
0.1949639 1.2631762 0.053165004 100
0.20438275 1.2500926 0.072634131 78
0.20953664 1.2429335 0.092296332 100
0.21736109 1.2320646 0.11066922 14
0.23803711 1.2033439 0.12327318 17
0.19897938 1.2575984 0.16098544 72
0.20577177 1.2515228 0.010331824 98
0.21664482 1.2363131 0.03004084 66
0.19196653 1.2708342 0.053862248 100
0.21059445 1.2447766 0.071659178 80
0.21570197 1.2376319 0.091044858 100
0.21546999 1.2379565 0.11181407 21
0.23494264 1.2107172 0.12507279 16
0.20059824 1.2587597 0.16098544 72
0.20051122 1.2625062 0.010541254 95
0.21711874 1.2391026 0.030145511 98
0.19602299 1.2688313 0.053513627 100
0.21684897 1.2394829 0.070684217 81
0.21276364 1.24524 0.092296332 100
0.20915237 1.250329 0.1144854 27
0.22746086 1.2245283 0.128672 16
0.19783452 1.2662784 0.163056 70
0.2045356 1.2604536 0.010471444 96
0.22565913 1.2304647 0.029517479 100
0.19547173 1.2733215 0.053862248 100
0.21048784 1.2520032 0.072390392 63
0.22011232 1.2383394 0.090731993 95
0.20065606 1.2659614 0.11791996 58
0.23578265 1.2160923 0.12597258 33
0.20401892 1.2611871 0.16098544 80
0.19708306 1.2747673 0.010750682 92
0.22040179 1.2414151 0.030145511 98
0.2017974 1.2680244 0.053165004 100
0.21444735 1.2499316 0.071902916 64
0.22854054 1.2297745 0.088854775 98
0.20463932 1.2639598 0.11715672 99
0.22840863 1.2299632 0.12957181 64
0.20794952 1.2592252 0.15995017 80
0.21024823 1.2595677 0.010401634 97
0.22318807 1.240922 0.03004084 99
0.20580983 1.2659632 0.05281638 100
0.21272933 1.2559925 0.072634131 63
0.22564244 1.2373853 0.090106249 96
0.22427493 1.2393558 0.11105084 91
0.22779405 1.2342849 0.13047162 88
0.2052536 1.2667648 0.16202073 78
0.21649668 1.2541634 0.010262015 98
0.21916896 1.250284 0.030564198 97
0.20980361 1.26388 0.052467756 100
0.22118428 1.2473581 0.071171694 81
0.21943191 1.2499021 0.092296332 100
0.2248016 1.2421067 0.11143246 100
0.22720575 1.2386165 0.13137141 94
0.21356502 1.2584194 0.15891489 73
0.21593153 1.2586261 0.010331824 84
0.22422919 1.2464895 0.030250182 65
0.21152964 1.2650646 0.052467756 100
0.22397295 1.2468643 0.070927955 48
0.22556862 1.2445304 0.091044858 100
0.23420784 1.2318943 0.10876112 87
0.22994336 1.2381316 0.13092151 96
0.21309134 1.2627803 0.15995017 80
0.21651635 1.261444 0.010366729 83
0.23150179 1.2393603 0.029726824 67
0.20542863 1.2777836 0.053687938 78
0.22675416 1.2463568 0.070684217 81
0.23055458 1.2407563 0.090106249 100
0.23031017 1.2411165 0.11066922 85
0.23486209 1.2344084 0.12957181 96
0.20938978 1.2719462 0.16253836 70
0.20706326 1.279191 0.010715778 39
0.21640664 1.265318 0.031296901 31
0.21722001 1.2641103 0.052119136 54
0.23285452 1.2408963 0.069709264 99
0.23882061 1.2320379 0.088229038 100
0.22318301 1.2552565 0.11372216 100
0.2353965 1.2371221 0.13002171 100
0.21869808 1.2619157 0.15891489 73
0.22217789 1.2604351 0.010296919 42
0.22701693 1.2531958 0.030459527 32
0.22116122 1.2619561 0.051770512 54
0.22015929 1.263455 0.072877869 100
0.23055559 1.2479017 0.091044858 100
0.23360693 1.2433368 0.11066922 85
0.23378015 1.2430778 0.13137141 94
0.22256434 1.2598569 0.15787962 73
0.23035645 1.2514668 0.010087491 28
0.20865217 1.2841591 0.032343622 30
0.2171984 1.2712862 0.05264207 53
0.24037638 1.2363741 0.068734311 84
0.23752147 1.2406744 0.089480512 100
0.23835316 1.2394216 0.10952436 85
0.23634577 1.2424452 0.13092151 96
0.21983084 1.2673211 0.15995017 72
0.23093882 1.2542493 0.010122396 28
0.22143772 1.2686696 0.031296901 31
0.22771975 1.259135 0.051247578 55
0.23763752 1.2440826 0.069709264 66
0.24242681 1.2368138 0.08854191 98
0.23783332 1.2437854 0.1102876 92
0.24228552 1.2370281 0.1291219 96
0.21944305 1.2716968 0.16098544 72
0.22168735 1.2720968 0.010471444 27
0.23192474 1.2564404 0.030459527 32
0.21089271 1.2886052 0.054210871 51
0.23929429 1.24517 0.069709264 83
0.24189603 1.2411911 0.089167647 84
0.23411688 1.253088 0.11219569 100
0.24818358 1.2315754 0.1273223 97
0.22013909 1.2744646 0.16150309 70
0.23759285 1.2514327 0.010017681 29
0.23797348 1.2508461 0.03004084 33
0.2268042 1.2680584 0.051944822 54
0.23663253 1.2529125 0.070684217 81
0.25214499 1.2290072 0.086664692 100
0.23794249 1.2508938 0.11143246 84
0.24979663 1.2326262 0.1273223 97
0.22821158 1.2658896 0.15839726 73
0.24377203 1.2459021 0.0098780617 44
0.24414513 1.2453223 0.029622151 67
0.23410961 1.2609183 0.051073264 55
0.23634073 1.2574509 0.071171694 81
0.24963397 1.2367922 0.087916173 84
0.24722779 1.2405316 0.10876112 87
0.24946618 1.2370529 0.12822211 97
0.24057168 1.2508757 0.15322088 76
0.24113029 1.2537098 0.010017681 72
0.23828194 1.2581705 0.030354854 65
0.23582515 1.262018 0.051073264 83
0.24765924 1.243485 0.068978049 50
0.24913898 1.2411677 0.08854191 70
0.25309846 1.2349669 0.10723466 81
0.25004953 1.2397417 0.128672 97
0.23289493 1.2666068 0.15787962 73
0.24479324 1.2513001 0.0099478718 73
0.25158268 1.2405934 0.029203463 100
0.23310447 1.269733 0.051770512 81
0.25127438 1.2410796 0.068490572 50
0.25062069 1.2421105 0.08854191 70
0.24299541 1.2541353 0.11143246 91
0.25361398 1.2373902 0.1277722 89
0.23238748 1.2708635 0.15891489 73
0.23689017 1.2675951 0.010262015 84
0.25003606 1.2467036 0.029517479 100
0.23060635 1.2775813 0.052467756 80
0.24657723 1.2522004 0.069953002 49
0.25647867 1.236465 0.087290429 71
0.24991518 1.2468957 0.10952436 78
0.26355019 1.2252269 0.12417299 100
0.23105118 1.2768744 0.1604678 64
0.23553967 1.2738285 0.010366729 69
0.24755529 1.2545772 0.029936166 99
0.24090827 1.2652271 0.051073264 83
0.25044876 1.2499412 0.069465525 49
0.26028216 1.2341862 0.086664692 57
0.24542814 1.2579852 0.11181407 84
0.26212516 1.2312332 0.12552269 90
0.23495683 1.2747624 0.15943253 65
0.25098747 1.2528222 0.0099129668 87
0.25135177 1.2522339 0.029726824 100
0.24158978 1.2679968 0.051247578 82
0.25003552 1.2543592 0.069953002 49
0.26294428 1.2335153 0.086351827 58
0.25953749 1.2390163 0.10723466 81
0.2596328 1.2388623 0.1273223 97
0.24689212 1.2594349 0.15425615 67
0.25162774 1.2555667 0.0099478718 87
0.25721949 1.2464668 0.029308135 100
0.25167477 1.2554902 0.049853086 85
0.24861026 1.2604773 0.070684217 32
0.26146144 1.2395635 0.087290429 57
0.25398153 1.2517362 0.10990598 85
0.26025096 1.2415334 0.1277722 89
0.24051121 1.2736576 0.15839726 65
0.25228354 1.2583127 0.0099827768 87
0.25680503 1.2508965 0.029517479 100
0.23988813 1.2786435 0.052119136 81
0.25755775 1.2496619 0.068978049 50
0.26721549 1.2338213 0.086038955 58
0.2546429 1.2544428 0.1102876 85
0.26595643 1.2358863 0.12597258 90
0.23824859 1.2813327 0.1604678 64
0.25916487 1.2507938 0.0098082526 74
0.26572165 1.2399545 0.028784776 100
0.24269673 1.2780181 0.051944822 81
0.25204176 1.2625694 0.070684217 32
0.26883626 1.2348056 0.086038955 58
0.25836802 1.2521112 0.10952436 78
0.27464482 1.2252032 0.12282328 93
0.24403489 1.275806 0.15839726 65
0.25569981 1.2603792 0.0099827768 87
0.25811392 1.2563567 0.029726824 100
0.25164875 1.2671293 0.05072464 84
0.2568275 1.2585002 0.069953002 49
0.27554297 1.2273154 0.084474608 59
0.25803214 1.256493 0.1102876 78
0.27523264 1.2278326 0.12327318 85
0.24580234 1.2768708 0.15839726 65
0.26338363 1.2509943 0.0097733475 89
0.25453138 1.2658499 0.030250182 100
0.25219211 1.2697756 0.050898954 83
0.2583636 1.2594188 0.069953002 49
0.27394751 1.2332662 0.085413218 58
0.26056692 1.2557212 0.10990598 78
0.27567479 1.2303675 0.12372308 83
0.25826547 1.2595835 -0.0099478718 86
0.25332963 1.2678667 0.15529142 67
0.26709962 1.248549 0.0097035384 90
0.2664279 1.2496853 0.029203463 100
0.25393847 1.2708122 0.050898954 83
0.26613495 1.2501808 0.068490572 50
0.27657154 1.2325265 0.085100345 58
0.27125591 1.2415184 0.10647142 81
0.27430835 1.2363548 0.12507279 83
0.25900173 1.2622472 0.15322088 68
0.2689392 1.2496318 0.0097035384 90
0.27231094 1.2438779 0.028784776 100
0.24780509 1.2856972 0.052293446 80
0.26998806 1.2478418 0.068003096 51
0.27135852 1.2455032 0.087290429 57
0.26711294 1.2527483 0.10876112 79
0.28102729 1.2290034 0.12282328 85
0.25894055 1.2666945 0.15425615 67
0.26559022 1.259254 0.0098780617 88
0.27396679 1.2448442 0.028784776 100
0.25761753 1.272969 0.050898954 83
0.26567188 1.2591136 0.069465525 49
0.27699107 1.2396418 0.086038955 58
0.26682642 1.2571274 0.10952436 85
0.28556925 1.2248852 0.12147357 86
0.26458523 1.2609828 -0.0099129668 76
0.25873435 1.2710478 0.15529142 67
0.26721421 1.2601944 0.0098780617 73
0.27554294 1.245757 0.028784776 100
0.26127824 1.2704842 0.05055033 100
0.27126318 1.2531757 0.068490572 50
0.27854994 1.2405446 0.086038955 72
0.26550025 1.2631655 0.11066922 85
0.28610539 1.2274475 0.12192347 85
0.27121118 1.2532659 -0.0097384425 88
0.26232818 1.2686641 0.15425615 67
0.27091342 1.2577074 0.0098082526 59
0.27323741 1.2536461 0.029203463 100
0.26104787 1.2749474 0.050898954 100
0.26506397 1.2679293 0.070440479 49
0.2870619 1.2294877 0.083848871 59
0.27112383 1.2573396 0.10914274 85
0.2818965 1.2385143 0.12462288 92
0.26892704 1.2611785 -0.0098780617 87
0.26886806 1.2612816 0.15166797 77
0.27854028 1.2482442 0.0095988233 61
0.27492732 1.2546093 0.029203463 100
0.26576281 1.2707548 0.05037602 100
0.27954274 1.2464781 0.067271881 51
0.28379181 1.2389922 0.085413218 58
0.27864149 1.2480658 0.10685304 88
0.29026735 1.227584 0.12147357 86
0.26390922 1.2740204 0.15529142 67
0.27726817 1.2544163 0.0097035384 90
0.28249973 1.2451242 0.028575432 100
0.26360264 1.2786885 0.051073264 83
0.27828595 1.2526085 0.068003096 51
0.28639963 1.2381973 0.085100345 58
0.28031191 1.2490101 0.10685304 88
0.29091015 1.230186 0.12192347 76
0.26946136 1.2682824 0.15322088 68
0.27213603 1.2675868 0.0099478718 73
0.28221232 1.2495427 0.028784776 100
0.26538002 1.2796851 0.051073264 83
0.28287575 1.2483546 0.067271881 51
0.28707245 1.2408392 0.085413218 58
0.28198561 1.2499486 0.10685304 81
0.29631856 1.2242818 0.12012386 77
0.27213603 1.2675868 -0.0099478718 86
0.26555112 1.2793789 0.1563267 66
0.28550097 1.2475619 0.0095290141 92
0.28582323 1.2469802 0.028575432 100
0.2768141 1.2632463 0.049330149 87
0.27973822 1.2579668 0.068490572 50
0.2887176 1.2417543 0.085413218 58
0.27795532 1.2611859 0.10914274 92
0.29790583 1.2251645 0.12012386 77
0.27581236 1.2650551 -0.0098780617 87
0.27949879 1.2583991 0.14959741 70
0.28227079 1.257199 0.0097035384 90
0.28163511 1.2583559 0.029203463 100
0.28612757 1.2501807 0.047935657 89
0.2784898 1.2640795 0.069221787 67
0.29694283 1.2304997 0.083223134 60
0.28998622 1.2431589 0.10494494 75
0.2994166 1.225998 0.12012386 69
0.27841857 1.264209 -0.0098431576 87
0.28298062 1.2559073 0.14856213 71
0.28397307 1.2581306 0.0097035384 90
0.28716448 1.2522748 0.028784776 100
0.28589845 1.2545978 0.048284281 88
0.28496581 1.256309 0.068003096 51
0.29666123 1.2348492 0.083848871 59
0.29163942 1.2440636 0.10494494 75
0.29075184 1.2456923 0.12507279 92
0.27727455 1.2704217 -0.0099478718 86
0.27728266 1.2704067 0.15270324 68
0.28386295 1.262621 0.0097733475 89
0.29652852 1.2391771 0.0279474 100
0.28199425 1.2660801 0.049330149 87
0.29052421 1.2502911 0.067028143 51
0.2927331 1.2462025 0.08572609 58
0.29151237 1.248462 0.10570818 81
0.27911857 1.271403 0.15270324 68
0.2865285 1.2617844 0.0097384425 90
0.29439503 1.2471011 0.028366089 100
0.28749111 1.2599876 0.048632905 88
0.28657764 1.2616926 0.068490572 50
0.29999405 1.2366502 0.083848871 59
0.29318407 1.2493614 0.10570818 81
0.28086245 1.2723604 -0.0099478718 86
0.28269506 1.2689397 0.15166797 69
0.28730857 1.264467 0.0097733475 89
0.29231381 1.2550457 0.028784776 100
0.29387686 1.2521034 0.047761347 90
0.28922692 1.2608562 0.068246834 51
0.28933242 1.2606575 0.10799789 79
0.28637037 1.266233 -0.0098082526 88
0.28262559 1.2732818 0.15270324 76
0.29649228 1.2512273 0.0094941091 92
0.29680115 1.250641 0.02847076 100
0.29463267 1.2547574 0.047935657 89
0.29001671 1.2635198 0.068490572 50
0.29836693 1.2476686 0.10494494 75
0.28437611 1.2742271 -0.0099478718 86
0.29248753 1.2588294 0.1480445 79
0.29940516 1.2497516 0.028366089 100
0.29541728 1.2573862 0.067515619 51
0.28882891 1.2699993 0.15115032 77
0.29069287 1.2706819 0.049330149 87
0.28702208 1.2777696 0.15322088 76
0.29606488 1.2645289 0.0097035384 90
0.29335225 1.2698116 0.049155839 58
0.28875738 1.27876 -0.0099827768 100
0.28791368 1.2804029 0.15373851 68
0.29779264 1.2654122 0.0097035384 100
0.2987141 1.2636023 0.048458595 59
0.29963443 1.2617943 0.067759357 85
0.29416376 1.2725405 -0.0098431576 100
0.29670843 1.2675419 0.14959741 78
0.29849672 1.2768722 0.049504463 28
