# .PCD v0.7 - Point Cloud Data file format
VERSION 0.7
FIELDS x y z intensity
SIZE 4 4 4 4
TYPE F F F F
COUNT 1 1 1 1
WIDTH 741
HEIGHT 1
VIEWPOINT 0 0 0 1 0 0 0
POINTS 741
DATA ascii
0.057560742 0.0096780062 0.015811881 79
0.047871828 0.00061780214 0.048149079 37
0.052871138 0.014056504 0.047416378 22
0.049132228 0.014131486 0.047521047 100
0.038733542 0.0042570829 0.048253752 70
0.03383404 0.0027320981 0.048463095 34
0.039003193 0.016111374 0.047730394 28
0.037501097 0.019549012 0.047625721 19
0.028224289 0.011379063 0.048253752 17
0.025579393 0.013205051 0.048253752 8
0.0088187456 0.0005480051 0.049300469 7
-0.61108559 0.57215762 0.020558935 26
-0.59007221 0.57983088 0.020174982 40
-0.59072906 0.58381164 0.020174982 42
-0.59137207 0.58779466 0.020174982 37
-0.59002537 0.59208828 0.020140078 39
-0.59459311 0.5954659 0.020209886 45
-0.59123963 0.6000514 0.020140078 60
-0.58391029 0.60518664 0.020000458 61
-0.59236997 0.60782349 0.020140078 61
-0.59689075 0.61126375 0.020209886 45
-0.61131018 0.61339748 0.02045422 21
-0.64753789 0.61276639 0.021082507 19
-0.67386597 0.6136533 0.02153627 17
-0.71012431 0.61348987 0.022164555 14
-0.75436693 0.61284715 0.022932462 13
-0.79264456 0.61298817 0.023595653 15
-0.81898779 0.61450756 0.024049416 3
-1.017652 1.1270251 0.084260888 3
-1.0371416 1.1314638 0.14241248 6
-1.035841 1.136995 0.028412517 8
-0.99110049 1.126641 0.082900152 11
-1.0300469 1.1356541 0.14188954 16
-1.0072975 1.1361212 0.02792385 13
-1.0054002 1.1356751 0.08373753 73
-1.0190635 1.1388874 0.14101799 61
-0.9962849 1.1392326 0.027749326 42
-1.0060568 1.1415662 0.083842203 100
-1.0119524 1.1429739 0.14049506 100
-0.97943968 1.1408582 0.027470088 38
-0.99504536 1.1446422 0.083318844 100
-1.0028958 1.1465459 0.13979781 86
-0.98797649 1.1480479 0.027644612 31
-0.98416311 1.1471105 0.082795486 100
-1.0017054 1.1514225 0.13979781 86
-0.97888654 1.1514777 0.027504992 23
-0.98089963 1.1519799 0.082690813 60
-1.0061638 1.1582837 0.14032075 82
-0.97941655 1.15757 0.027539898 30
-0.97948927 1.1575884 0.082690813 37
-0.99314219 1.1610482 0.13927488 75
-0.96837085 1.1604164 0.027365373 53
-0.98006135 1.1634223 0.082795486 37
-0.97440118 1.1619669 0.13770607 89
-0.9534542 1.1621809 0.027121039 66
-0.97674614 1.1682568 0.082690813 84
-0.98073512 1.1692972 0.13840333 91
-0.9482097 1.1664035 0.027051231 74
-0.96183091 1.1700076 0.081958108 96
-0.97933203 1.174638 0.13840333 92
-0.95454234 1.1737039 0.027190849 83
-0.95078033 1.1726944 0.081434749 96
-0.970213 1.1779087 0.13770607 100
-0.95891267 1.1805282 0.027295563 89
-0.94936556 1.1779306 0.081434749 100
-0.96685737 1.1826897 0.13753176 100
-0.94212061 1.1812787 0.027016325 92
-0.95378083 1.1844926 0.081748761 100
-0.96163899 1.1866586 0.13718314 94
-0.94067591 1.1864846 0.027016325 92
-0.95232493 1.1897392 0.081748761 92
-0.96017534 1.1919327 0.13718314 94
-0.93913943 1.1919454 0.027016325 83
-0.93540353 1.1908869 0.08091139 82
-0.96053571 1.1980081 0.13735744 99
-0.96072191 1.2037632 0.027435184 53
-0.92240709 1.1927621 0.080283359 56
-0.96286243 1.2043779 0.13770607 100
-0.96119541 1.2093289 0.027470088 37
-0.9267506 1.1993152 0.080597371 22
-0.94610828 1.2049428 0.13631158 91
-0.92896086 1.2055624 0.026911611 64
-0.92141122 1.203339 0.080388032 26
-0.93884724 1.2084739 0.13578865 84
-0.9160102 1.2070366 0.026702182 75
-0.92379421 1.2093571 0.080597371 26
-0.9392944 1.2139779 0.13596296 91
-0.91830438 1.2133073 0.026771991 75
-0.91842753 1.2133443 0.080388032 54
-0.9377355 1.2191738 0.13596296 99
-0.92439729 1.2207685 0.026911611 83
-0.90923113 1.2161317 0.079969339 100
-0.92853719 1.2220342 0.13526571 100
-0.92472512 1.2265036 0.026946515 85
-0.9095729 1.2218132 0.080074012 90
-0.92124039 1.225425 0.13474278 85
-0.90404075 1.2256687 0.026597468 88
-0.91179854 1.2280998 0.080283359 74
-0.90633327 1.2263871 0.1335226 60
-0.90244132 1.2307415 0.026597468 85
-0.91399807 1.2344075 0.080492698 66
-0.90473121 1.231468 0.1335226 46
-0.89320832 1.2333635 0.026457848 83
-0.89715487 1.2346306 0.079655327 85
-0.91069967 1.2389793 0.13421984 43
-0.89158207 1.2383984 0.026457848 93
-0.88982576 1.2378278 0.079341307 100
-0.91663319 1.2465379 0.1349171 52
-0.89373761 1.2446767 0.026527658 100
-0.89577335 1.2453461 0.07976 100
-0.90549725 1.2485431 0.13404553 77
-0.88448197 1.2471886 0.026388038 100
-0.89410526 1.2503898 0.07976 100
-0.90003687 1.2523631 0.13369691 82
-0.87522656 1.2496417 0.02624842 96
-0.89999133 1.2579759 0.080178685 100
-0.89834434 1.2574217 0.13369691 78
-0.86975759 1.2533249 0.02617861 96
-0.88126284 1.2572416 0.079236634 100
-0.90229231 1.2644006 0.13421984 85
-0.8718434 1.2595799 0.02624842 99
-0.87011105 1.2589834 0.078713275 100
-0.89302236 1.2668724 0.1335226 100
-0.88145655 1.2684859 0.026457848 85
-0.88348478 1.2691922 0.079550654 100
-0.89880544 1.2745274 0.13421984 80
-0.86273235 1.2675016 0.026143705 75
-0.86854655 1.2695491 0.078817949 65
-0.89327687 1.2782581 0.13387123 38
-0.86287099 1.2731006 0.02617861 81
-0.86679417 1.2744977 0.078817949 31
-0.88774008 1.2819562 0.1335226 37
-0.85375661 1.27483 0.026038991 96
-0.85204631 1.274215 0.078085244 21
-0.88612467 1.2864704 0.1335226 31
-0.85198587 1.279727 0.026038991 93
-0.85590893 1.2811532 0.078399263 63
-0.88431305 1.2914803 0.1335226 16
-0.85770577 1.2873771 0.02617861 100
-0.85599071 1.2867467 0.078503937 100
-0.86191314 1.2889234 0.13160518 13
-0.84089512 1.2867167 0.025899371 100
-0.8485617 1.2895648 0.078189917 100
-0.88063747 1.301481 0.1335226 1
-0.83150405 1.2889981 0.025759751 100
-0.83916932 1.2918777 0.077771232 46
-0.87121946 1.3039181 0.13282534 1
-0.83342296 1.2952368 0.025829561 92
-0.84107357 1.2981415 0.077980578 51
-0.8637591 1.3067544 0.13230242 7
-0.83344811 1.3007789 0.025864467 72
-0.82989782 1.2994168 0.077457212 59
-0.86931759 1.3145407 0.13299966 33
-0.83904487 1.3084961 0.026004085 72
-0.83549029 1.3071182 0.077875905 76
-0.84511596 1.3108497 0.13090792 86
-0.82598501 1.3089656 0.025794657 83
-0.82430857 1.308309 0.077352546 59
-0.84507471 1.316443 0.13108224 100
-0.81851703 1.311558 0.025689943 99
-0.83913535 1.3197172 0.07829459 76
-0.84315878 1.3213093 0.13108224 99
-0.81661838 1.3163316 0.025689943 100
-0.82422608 1.319373 0.077561885 91
-0.83752578 1.3246899 0.13073361 97
-0.81841141 1.3225963 0.025759751 100
-0.81489223 1.3211751 0.0771432 95
-0.83558112 1.3295298 0.13073361 100
-0.82027489 1.3286409 0.025829561 100
-0.82045478 1.3287143 0.077561885 100
-0.83002812 1.3326172 0.130385 100
-0.79372436 1.3178167 0.17817298 21
-0.80352384 1.3273296 0.025550323 100
-0.8092621 1.3296924 0.077038527 100
-0.8225289 1.3351551 0.12986206 100
-0.78446168 1.3194805 0.17719802 16
-0.79797512 1.3302801 0.025480513 100
-0.81293148 1.3364966 0.077352546 99
-0.80408901 1.3328211 0.12829325 100
-0.7716338 1.3193314 0.17573559 16
-0.79232353 1.333434 0.025410704 100
-0.79989606 1.3366125 0.076724514 100
-0.81497592 1.3429422 0.12951343 100
-0.77702981 1.3270144 0.17671055 20
-0.80129546 1.3430343 0.025620133 100
-0.78677779 1.3368778 0.076096483 87
-0.81470114 1.3487191 0.12968774 100
-0.76401395 1.3272246 0.17524812 18
-0.81399304 1.3540447 0.025899371 61
-0.79947907 1.3478299 0.076933853 42
-0.7980203 1.3472054 0.12829325 56
-0.77848452 1.3388402 0.17744176 11
-0.80827504 1.3572152 0.025829561 71
-0.8102867 1.3580849 0.077666558 68
-0.81428534 1.3598137 0.13003637 26
-0.79471177 1.3513515 0.17987914 7
-0.79155523 1.3555534 0.025550323 100
-0.81371707 1.3652265 0.077980578 100
-0.81221813 1.3645723 0.13003637 93
-0.79267436 1.3560419 0.17987914 28
-0.79499286 1.3626518 0.025655037 100
-0.80980343 1.3691778 0.077875905 100
-0.82654351 1.3765541 0.13160518 100
-0.77790457 1.3551221 0.17817298 45
-0.80022424 1.3705939 0.025794657 100
-0.80222899 1.3714856 0.077561885 100
-0.81713623 1.3781165 0.13090792 100
-0.7776677 1.3605605 0.17841671 36
-0.80734712 1.379162 0.025969181 100
-0.80387121 1.377602 0.077771232 100
-0.80238801 1.3769363 0.12968774 100
-0.75940245 1.3576449 0.17622307 22
-0.79246181 1.3781204 0.025724847 100
-0.80901927 1.3856206 0.078189917 100
-0.79844636 1.3808312 0.12951343 100
-0.78446656 1.3744986 0.17987914 17
-0.79407543 1.3842311 0.025794657 100
-0.81060344 1.3917842 0.078399263 100
-0.80003756 1.3869557 0.12986206 100
-0.75898319 1.3681942 0.17671055 15
-0.79737073 1.3914316 0.025899371 100
-0.80298382 1.3940204 0.078085244 100
-0.80873114 1.3966712 0.13090792 100
-0.7586897 1.3735912 0.17695428 11
-0.79338044 1.3952872 0.025864467 100
-0.80079728 1.3987393 0.078085244 100
-0.81376058 1.4047732 0.13160518 100
-0.75657481 1.3781557 0.17695428 9
-0.80204946 1.4050736 0.026073895 100
-0.80582541 1.4068472 0.078503937 100
-0.80432302 1.4061415 0.13090792 100
-0.78498882 1.39706 0.18109785 5
-0.7925964 1.4063634 0.025934275 100
-0.80900854 1.4141424 0.078817949 100
-0.80209428 1.4108652 0.13090792 100
-0.77920431 1.4000158 0.18061037 3
-0.78675884 1.4093205 0.025864467 100
-0.80855364 1.419744 0.078922622 100
-0.80524117 1.4181598 0.13143086 100
-0.78992206 1.41659 0.025969181 100
-0.80088097 1.4218783 0.07860861 100
-0.80476481 1.4237524 0.13160518 100
-0.7948485 1.4247646 0.0261088 100
-0.79500574 1.4248412 0.078399263 100
-0.81322271 1.4337103 0.13265105 100
-0.79614455 1.4312183 0.02617861 100
-0.79988247 1.4330543 0.078817949 100
-0.80374438 1.4349513 0.13195379 100
-0.79024464 1.4341373 0.0261088 100
-0.80292851 1.4404227 0.079131968 100
-0.8085559 1.4432113 0.13265105 100
-0.79161257 1.4403658 0.02617861 100
-0.80784446 1.4484763 0.079550654 100
-0.80631608 1.4477127 0.13265105 100
-0.79283577 1.4468449 0.02624842 100
-0.79833382 1.4496162 0.079131968 100
-0.8110587 1.4560301 0.13334829 100
-0.79759508 1.4551533 0.026388038 100
-0.799514 1.456129 0.079341307 100
-0.81753582 1.4652917 0.13421984 100
-0.79875392 1.4616781 0.026457848 100
-0.79711074 1.4608355 0.079341307 100
-0.80800909 1.4664245 0.1335226 100
-0.79633135 1.466382 0.026457848 99
-0.80356103 1.4701215 0.079864666 100
-0.80556983 1.4711605 0.1335226 100
-0.78325468 1.4655279 0.02624842 99
-0.80642122 1.4776134 0.080178685 100
-0.79958111 1.474045 0.13317397 100
-0.79143685 1.475764 0.026457848 96
-0.78980261 1.4749043 0.079341307 100
-0.81651098 1.4889562 0.13509139 100
-0.79249805 1.4823167 0.026527658 48
-0.77321953 1.4720879 0.078503937 48
-0.80343312 1.4881189 0.13404553 84
0.15054801 1.2673512 0.011134636 12
0.13727728 1.2838743 0.03454173 27
0.098359555 1.3323301 0.063100755 19
0.14184541 1.2781866 0.12669717 17
0.19245428 1.2151743 0.13182132 7
0.09151721 1.3408494 0.19618483 5
0.16217569 1.2561671 0.010855397 39
0.14770213 1.2743108 0.033809029 56
0.1685625 1.2481607 0.053513627 52
0.15139076 1.2696868 0.078483857 14
0.14841422 1.2734182 0.10199527 11
0.14965433 1.2718635 0.12478908 66
0.15605795 1.2638361 0.16926765 14
0.16139197 1.260653 0.010925206 100
0.16930571 1.2506613 0.032134276 90
0.14673048 1.2791646 0.056825545 95
0.1691598 1.2508454 0.075315252 30
0.17225021 1.2469435 0.096363634 25
0.15994114 1.2624848 0.12211776 100
0.1882332 1.2267635 0.13452072 38
0.15538529 1.268237 0.17030293 43
0.15807575 1.2682258 0.011064826 100
0.17213657 1.2503512 0.032029606 100
0.15827584 1.2679714 0.055431053 100
0.15602854 1.2708282 0.078240119 28
0.17383391 1.2481935 0.096363634 25
0.16279027 1.2622325 0.12173614 100
0.19456929 1.2218342 0.13272113 47
0.14748442 1.2816899 0.17444403 42
0.16482681 1.2633541 0.010925206 100
0.18004513 1.2438614 0.031506244 93
0.15274709 1.2788265 0.056476921 100
0.16519642 1.2628807 0.076777689 29
0.18288282 1.2402267 0.094486415 26
0.17063779 1.255911 0.11982805 100
0.18903235 1.2323501 0.13542053 38
0.15530673 1.275548 0.17185585 36
0.17014101 1.2598878 0.010820492 91
0.17794695 1.2498207 0.03182026 61
0.15687835 1.2769921 0.056128297 72
0.16561657 1.2657228 0.077021427 29
0.17233965 1.2570523 0.097615108 24
0.1878905 1.236997 0.11486702 54
0.18220866 1.2443247 0.13856985 29
0.14633134 1.2905941 0.1765146 41
0.17315865 1.259692 0.010785587 52
0.16509131 1.2701752 0.033076324 29
0.17089015 1.2626398 0.054385185 51
0.1734893 1.2592623 0.075802729 45
0.1789462 1.2521713 0.096363634 37
0.19080189 1.2367653 0.1144854 13
0.18038419 1.2503027 0.13991955 22
0.1458858 1.2951322 0.17754987 54
0.1747846 1.2609389 0.010785587 65
0.18615702 1.2460591 0.031401575 31
0.16647664 1.2718092 0.055256739 49
0.19198972 1.2384274 0.072390392 47
0.17934766 1.2549685 0.096676499 50
0.18400657 1.2488728 0.11715672 19
0.20801261 1.2174628 0.13002171 32
0.16639888 1.2719109 0.16926765 59
0.17175266 1.2686838 0.010925206 39
0.1879043 1.2473893 0.031401575 31
0.16470632 1.2779738 0.055779677 49
0.18891045 1.2460629 0.073365346 62
0.19425902 1.2390113 0.093234941 53
0.19050992 1.2439542 0.11563025 13
0.21436557 1.2125027 0.12822211 40
0.1694085 1.2717743 0.16875002 66
0.17340845 1.2699354 0.010925206 39
0.16785875 1.2773027 0.03328567 28
0.17838064 1.2633346 0.054036561 51
0.19407427 1.2425009 0.072634131 63
0.19106215 1.2464997 0.094486415 52
0.20035228 1.2341667 0.11295892 13
0.21114478 1.2198393 0.13002171 40
0.17572394 1.2668614 0.16667947 67
0.18473652 1.2584355 0.010645968 66
0.18398541 1.2594399 0.032029606 30
0.18607101 1.2566509 0.053165004 52
0.18859273 1.2532789 0.07409656 76
0.19627669 1.2430038 0.093547814 52
0.19727162 1.2416734 0.1144854 13
0.21271709 1.2210195 0.13002171 32
0.18555927 1.2573353 0.163056 70
0.18516597 1.2612494 0.010680873 93
0.20466352 1.234996 0.030354854 32
0.1876868 1.2578552 0.053165004 52
0.20084938 1.2401316 0.071902916 64
0.2002027 1.2410024 0.092922069 79
0.20703146 1.2318075 0.11181407 14
0.21189079 1.2252644 0.13092151 32
0.18026644 1.2678467 0.16616182 76
0.18942711 1.2594268 0.010611063 81
0.21948266 1.2186306 0.029203463 68
0.17656332 1.2768875 0.055082429 75
0.20030227 1.2446653 0.072390392 95
0.19732711 1.2487036 0.094173551 78
0.21462962 1.2252179 0.10990598 14
0.22057661 1.2171457 0.12822211 32
0.1833266 1.2677073 0.16564418 68
0.18869057 1.2638476 0.010680873 80
0.20682046 1.2390671 0.030459527 65
0.17589343 1.281339 0.055431053 74
0.20656675 1.239414 0.071415432 96
0.20358205 1.2434934 0.092922069 92
0.21382254 1.2294965 0.11066922 14
0.22091055 1.2198085 0.128672 16
0.1838384 1.2704797 0.16616182 68
0.19041663 1.2651057 0.010680873 80
0.21198091 1.2354141 0.030145511 98
0.18587631 1.2713573 0.054210871 100
0.20237476 1.2486408 0.072634131 94
0.21568432 1.230315 0.090106249 96
0.20619899 1.2433752 0.11372216 13
0.24195048 1.1941495 0.12102367 17
0.19239905 1.2623762 0.163056 70
0.19907886 1.2565641 0.010471444 96
0.20885289 1.2430121 0.030564198 64
0.1991955 1.2564025 0.052467756 100
0.19931912 1.2562311 0.073609084 77
0.21259058 1.2378297 0.09135773 94
0.21810642 1.2301818 0.1102876 14
0.2501983 1.1856853 0.11832426 8
0.19855401 1.2572919 0.16098544 72
0.20319214 1.2545948 0.010401634 97
0.20942649 1.2458835 0.03066887 96
0.2009806 1.2576849 0.052467756 100
0.20341417 1.2542845 0.073121607 78
0.21085864 1.2438824 0.092296332 100
0.20836955 1.2473603 0.11410378 13
0.24038258 1.2026286 0.12282328 8
0.19359657 1.2680026 0.16409127 69
0.20480102 1.2557422 0.010401634 83
0.21910527 1.2356141 0.029936166 66
0.19567484 1.2685839 0.053513627 100
0.21307153 1.2441044 0.071415432 64
0.20785475 1.2514451 0.093547814 100
0.20767984 1.2516912 0.11486702 20
0.22714365 1.224303 0.128672 16
0.19860724 1.2644577 0.16253836 70
0.20419329 1.2602122 0.010471444 82
0.2207326 1.2367663 0.029936166 66
0.19512042 1.2730739 0.053862248 100
0.21701705 1.2420335 0.070927955 48
0.2254788 1.2300382 0.089167647 100
0.19804651 1.2689259 0.1186832 52
0.23884127 1.2110956 0.12462288 25
0.19476745 1.2735742 0.16512655 68
0.20123175 1.2679077 0.010611063 94
0.21884465 1.2427632 0.030250182 98
0.1979337 1.272616 0.053687938 100
0.20833424 1.2577682 0.073121607 62
0.22700611 1.2311118 0.089167647 100
0.20420837 1.2636583 0.11715672 99
0.23024341 1.2264901 0.128672 56
0.20308936 1.2652557 0.16202073 70
0.21218905 1.2560463 0.010331824 84
0.21374047 1.253814 0.030878214 95
0.20773783 1.2624507 0.052467756 100
0.21465597 1.2524968 0.072146654 63
0.22531623 1.2371588 0.090106249 100
0.2228269 1.2407404 0.11143246 84
0.22524565 1.2372602 0.13137141 86
0.20931703 1.2601786 0.15995017 72
0.21153107 1.2604555 0.010401634 97
0.21988437 1.2483512 0.030459527 97
0.20258284 1.2734219 0.053513627 100
0.21625781 1.2536062 0.072146654 95
0.22125721 1.246362 0.091670595 100
0.22327462 1.2434386 0.11181407 98
0.22901067 1.2351269 0.13047162 96
0.21313891 1.2581257 0.15891489 73
0.22010952 1.2517929 0.010192205 85
0.23179531 1.2347262 0.029517479 67
0.19767648 1.2845554 0.054559495 100
0.22027558 1.2515503 0.071659178 64
0.22300538 1.2475636 0.091670595 100
0.22944874 1.2381533 0.1102876 99
0.2340205 1.2314764 0.1291219 96
0.2127474 1.262545 0.15995017 72
0.21608761 1.2611527 0.010366729 83
0.22772357 1.2440374 0.03004084 66
0.20274529 1.2807779 0.054036561 77
0.23303503 1.2362248 0.069221787 83
0.23125449 1.2388437 0.089793384 100
0.21886119 1.257073 0.1144854 100
0.23774382 1.2292986 0.12822211 97
0.20786574 1.2732463 0.163056 70
0.22012645 1.2590576 0.010296919 42
0.21941149 1.2601177 0.030982886 63
0.21353275 1.2688332 0.05264207 53
0.23030576 1.2439662 0.07019674 82
0.2373935 1.2334582 0.08854191 84
0.22613782 1.2501454 0.1125773 100
0.23724991 1.2336711 0.1291219 96
0.21511391 1.266489 0.1604678 88
0.21729919 1.2667949 0.010436539 41
0.21992725 1.2628707 0.031087559 31
0.22738391 1.2517363 0.05072464 56
0.22967005 1.2483225 0.070684217 81
0.2334362 1.2426989 0.090106249 96
0.23537886 1.2397981 0.10990598 85
0.23228306 1.2444208 0.13182132 100
0.21568722 1.269202 0.16098544 80
0.2300204 1.2512435 0.010087491 43
0.2193518 1.2672889 0.031296901 31
0.22126111 1.2644173 0.051944822 54
0.23345622 1.2460761 0.07019674 49
0.23500547 1.243746 0.090106249 96
0.23693851 1.2408388 0.10990598 92
0.23601601 1.2422262 0.13092151 96
0.22483188 1.2590469 0.15736198 74
0.2228047 1.2656529 0.010366729 27
0.22540396 1.2617153 0.030878214 31
0.21192604 1.2821324 0.053687938 52
0.23503667 1.2471231 0.07019674 82
0.22787204 1.2579765 0.092609204 100
0.23417521 1.2484281 0.11143246 100
0.24295166 1.2351332 0.128672 97
0.21900538 1.2714083 0.16098544 80
0.2213369 1.2718674 0.010471444 27
0.2315852 1.2562183 0.030459527 32
0.22472078 1.2667003 0.051944822 54
0.24005017 1.2432923 0.069465525 99
0.24264938 1.2393234 0.088854775 98
0.23593086 1.2495825 0.11143246 91
0.25213191 1.2248435 0.12552269 99
0.21449509 1.2823148 0.16409127 77
0.22409296 1.271278 0.010436539 41
0.231022 1.2606205 0.03066887 32
0.2285417 1.2644354 0.051596198 54
0.23837528 1.2493104 0.07019674 82
0.24851435 1.2337155 0.087603301 99
0.23217231 1.2588512 0.11334054 89
0.2483308 1.2339978 0.1277722 97
0.23199099 1.25913 0.1563267 74
0.23677081 1.2556641 0.010087491 43
0.24364755 1.2450018 0.029622151 67
0.23251581 1.2622616 0.051247578 55
0.2390582 1.2521175 0.070440479 65
0.247004 1.2397976 0.08854191 84
0.24460703 1.2435141 0.10952436 85
0.24897724 1.236738 0.12822211 97
0.23378587 1.2602923 0.1563267 74
0.24053958 1.253332 0.010017681 58
0.24199355 1.2510612 0.029936166 66
0.22662973 1.2750572 0.052467756 80
0.24386984 1.2481307 0.069709264 99
0.24856356 1.2407997 0.08854191 70
0.24935478 1.2395639 0.10837951 87
0.24422196 1.2475808 0.13092151 88
0.23333013 1.2645922 0.15736198 74
0.2423977 1.2545167 0.010017681 87
0.24919534 1.2438095 0.029412808 67
0.22963926 1.2746131 0.052293446 53
0.24677193 1.2476267 0.069465525 49
0.25460854 1.2352829 0.087290429 71
0.24168971 1.2556319 0.11181407 98
0.2575472 1.2306541 0.12597258 99
0.23005444 1.2739592 0.15995017 64
0.24400613 1.2555342 0.010017681 72
0.24757355 1.2498734 0.029726824 100
0.23662579 1.2672448 0.051421888 82
0.24835747 1.2486296 0.069465525 49
0.25194022 1.2429447 0.08854191 70
0.25376934 1.2400423 0.10799789 79
0.26323244 1.2250268 0.12417299 100
0.23378742 1.2717485 0.15891489 65
0.24040148 1.2650766 0.010192205 85
0.24925047 1.2509263 0.029726824 100
0.23941982 1.2666464 0.051247578 82
0.24792498 1.2530458 0.069953002 49
0.26197192 1.2305834 0.086038955 58
0.24083862 1.2643776 0.11334054 96
0.26068953 1.2326341 0.12597258 99
0.23758936 1.2695735 0.15787962 65
0.24837273 1.2559067 0.0099827768 87
0.25295365 1.2485271 0.029517479 100
0.24527159 1.2609024 0.05055033 84
0.25162235 1.2506717 0.069465525 49
0.26350087 1.231536 0.086038955 72
0.25904649 1.2387118 0.10723466 73
0.26016971 1.2369024 0.12687239 82
0.24536088 1.2607586 0.15477379 67
0.25111941 1.255254 0.0099478718 73
0.25253099 1.2529621 0.029726824 100
0.24280754 1.2687489 0.051247578 82
0.25538412 1.2483299 0.068978049 50
0.26200581 1.2375791 0.086977564 57
0.25656599 1.2464111 0.10876112 87
0.26282328 1.236252 0.12642249 99
0.24302331 1.2683985 0.15684435 66
0.25585938 1.2511241 0.0098431576 88
0.25934309 1.2454258 0.029203463 100
0.24446315 1.2697649 0.051247578 82
0.25800738 1.2476106 0.068734311 67
0.2584061 1.2469584 0.08854191 56
0.26121959 1.2423564 0.10761628 72
0.27046984 1.2272258 0.12372308 92
0.24064708 1.2760067 0.15891489 65
0.2577931 1.252301 0.0098431576 88
0.26642856 1.2380477 0.028680105 100
0.25163382 1.2624671 0.05037602 100
0.25478384 1.2572678 0.069953002 49
0.26646465 1.2379881 0.086664692 71
0.25497958 1.2569448 0.11066922 85
0.27735645 1.2200108 0.12147357 77
0.24067873 1.280549 0.15995017 64
0.25321096 1.2635496 0.010052586 86
0.26386517 1.245832 0.029098792 100
0.24813479 1.271991 0.051247578 82
0.25333232 1.2633477 0.070684217 65
0.27209005 1.2321544 0.085413218 73
0.25963119 1.2528729 0.10952436 78
0.27081618 1.2342727 0.12507279 100
0.255272 1.2601222 -0.0099827768 86
0.24834681 1.2716385 0.15684435 66
0.2621915 1.2526116 0.0098082526 74
0.26151919 1.2537391 0.029517479 100
0.26018158 1.255982 0.049504463 86
0.25819278 1.2593169 0.069953002 49
0.27277404 1.2348664 0.08572609 58
0.26240849 1.2522478 0.10914274 78
0.27251971 1.2352929 0.12507279 100
0.25414535 1.2661039 0.15477379 67
0.26481202 1.2518426 0.0097733475 100
0.26007304 1.2598493 0.029831495 99
0.26382434 1.2535113 0.049155839 87
0.26183921 1.2568654 0.069465525 49
0.26828027 1.2459828 0.087603301 57
0.26600921 1.2498199 0.10837951 79
0.28001964 1.2261484 0.12237337 76
0.25382417 1.2704072 0.15580906 67
0.26641145 1.2527857 0.0097733475 89
0.26372221 1.2573638 0.029622151 100
0.25432903 1.273355 0.051073264 100
0.2694878 1.2475483 0.068003096 51
0.27686372 1.2349916 0.085413218 73
0.26660755 1.2524518 0.10876112 79
0.27462471 1.2388033 0.12552269 90
0.25744212 1.2680552 0.15477379 67
0.26297849 1.2623613 0.0099478718 73
0.27338687 1.2445067 0.028784776 100
0.25901008 1.2691689 0.05055033 100
0.26607427 1.2570508 0.069221787 50
0.2744278 1.2427211 0.086664692 57
0.26623151 1.2567811 0.10952436 78
0.28403229 1.2262454 0.12192347 85
0.26197141 1.2640889 -0.0099827768 86
0.25714949 1.2723606 0.15580906 67
0.26678655 1.2599475 0.0098780617 88
0.27912602 1.2386007 0.028366089 100
0.26183867 1.268507 0.05037602 100
0.27282855 1.249495 0.068003096 51
0.28308234 1.2317564 0.084474608 59
0.26506999 1.262917 0.11066922 92
0.28765678 1.2238429 0.12102367 86
0.26578578 1.2616787 -0.0099129668 87
0.26479352 1.2633953 0.15270324 68
0.27139786 1.2556802 0.0097733475 89
0.27471867 1.2498912 0.028994121 100
0.26349339 1.26946 0.05037602 84
0.26256722 1.2710744 0.070927955 48
0.28363216 1.2343525 0.084787481 59
0.275498 1.2485325 0.10723466 81
0.28431496 1.2331622 0.12327318 85
0.27219874 1.254284 0.14959741 70
0.28010032 1.2445307 0.0095290141 76
0.27450451 1.254369 0.029203463 100
0.26828101 1.265311 0.049853086 85
0.27814561 1.2479674 0.067515619 51
0.27849954 1.2473451 0.086977564 57
0.27628314 1.2512419 0.10761628 94
0.28697777 1.2324389 0.12282328 85
0.26728988 1.2670536 0.15322088 76
0.27970967 1.248906 0.0095988233 76
0.28003898 1.2483225 0.028784776 100
0.27090436 1.2645074 0.049678773 86
0.2816835 1.2454088 0.067028143 51
0.28396764 1.2413616 0.08572609 58
0.27884546 1.2504373 0.10723466 73
0.29138622 1.2282172 0.12147357 86
0.26514161 1.274718 0.15529142 75
0.27471727 1.262157 0.0098431576 88
0.28577754 1.2423831 0.028366089 100
0.2669695 1.2760086 0.05072464 84
0.2738204 1.2637604 0.069465525 49
0.28867242 1.2372077 0.084787481 59
0.27494186 1.2617555 0.10952436 85
0.29409885 1.2275062 0.12102367 86
0.27276489 1.2656474 -0.0099129668 87
0.26991087 1.27075 0.15373851 68
0.28023237 1.2560732 0.0097035384 90
0.28346866 1.2502421 0.028784776 100
0.27154955 1.2717181 0.050201707 85
0.27545929 1.2646735 0.069465525 49
0.29501611 1.2294357 0.083223134 60
0.27466869 1.266098 0.1102876 85
0.29372609 1.23176 0.12192347 85
0.27635083 1.2630671 -0.0098431576 87
0.27157295 1.2716761 0.15373851 68
0.282895 1.2552601 0.0096686333 75
0.27936801 1.2616677 0.029412808 100
0.28002787 1.260469 0.048981529 87
0.28484559 1.2517165 0.067515619 51
0.29185864 1.2389755 0.084787481 59
0.29249606 1.2378175 0.1038001 76
0.29533949 1.2326517 0.12192347 85
0.2742165 1.2710267 -0.0099827768 86
0.28077832 1.2591056 0.14959741 70
0.29217336 1.242103 0.0093893949 93
0.28099993 1.2625625 0.029412808 100
0.28165582 1.2613616 0.048981529 87
0.28834739 1.2491087 0.067028143 51
0.29436204 1.2380953 0.084474608 59
0.28746185 1.2507303 0.10647142 81
0.29313892 1.240335 0.12372308 83
0.28054985 1.2633867 0.15063268 70
0.29009736 1.2500789 0.0095290141 76
0.29231572 1.2459812 0.028366089 100
0.28250998 1.2640939 0.049155839 87
0.28632489 1.2570472 0.068003096 51
0.29513896 1.2407663 0.084787481 59
0.29109493 1.2482363 0.10570818 73
0.27684167 1.2745641 0.15373851 68
0.28695983 1.2597466 0.0097035384 90
0.29389554 1.2468331 0.028366089 100
0.27189443 1.2877964 0.051421888 82
0.28794146 1.257919 0.068003096 51
0.29763615 1.2398686 0.084474608 59
0.28803751 1.25774 0.10761628 79
0.28506747 1.2632699 -0.0097733475 88
0.27851635 1.2754672 0.15373851 68
0.28884226 1.2607529 0.0097035384 90
0.29760489 1.2442868 0.028156744 100
0.28979641 1.25896 0.048458595 88
0.29261452 1.2536643 0.067271881 34
0.28991222 1.2587423 0.10761628 72
0.28414518 1.2695794 -0.0098780617 87
0.28318185 1.2713897 0.1521856 77
0.29327175 1.2563111 0.0095988233 91
0.29731423 1.2486535 0.028366089 100
0.28955901 1.263344 0.048807215 58
0.29143959 1.2597816 0.068003096 51
0.29336748 1.2561297 0.10685304 81
0.2876704 1.2669215 -0.0098082526 88
0.29476672 1.2534792 0.14649157 81
0.29598737 1.2554686 0.047935657 89
0.29691768 1.2536905 0.067028143 51
0.29879165 1.250109 0.10532656 75
0.29116678 1.2646817 0.14959741 70
0.29974192 1.2521787 0.02847076 70
0.29484516 1.2616134 0.048458595 88
0.29102874 1.2689666 0.15063268 70
0.2910929 1.2731307 0.049504463 57
0.2984722 1.2587905 0.10685304 73
0.28831351 1.2785318 -0.0099827768 100
0.29277202 1.2698675 0.15063268 78
0.29363766 1.2722723 0.0098431576 100
0.29545581 1.26871 -0.0097733475 100
0.29618755 1.2672764 0.14959741 70
0.29921746 1.2660347 0.068246834 85
0.29376364 1.2768221 -0.0099129668 100
0.29882833 1.2750964 0.15115032 77
0.29965022 1.2776592 0.15166797 77
