# .PCD v0.7 - Point Cloud Data file format
VERSION 0.7
FIELDS x y z intensity
SIZE 4 4 4 4
TYPE F F F F
COUNT 1 1 1 1
WIDTH 737
HEIGHT 1
VIEWPOINT 0 0 0 1 0 0 0
POINTS 737
DATA ascii
0.081364512 0.0007430315 0.047207031 40
0.060558319 0.014883995 0.015707165 76
0.047871828 0.00061780214 0.048149079 36
0.047384083 0.0057127476 0.047939736 22
0.042512834 0.004142046 0.048149079 100
0.039842546 0.0059181452 0.048149079 71
0.036063671 0.0060464144 0.048253752 43
0.02891773 0.0012319684 0.048672438 24
0.036374688 0.017899692 0.047730394 19
0.037148893 0.024633348 0.047416378 9
0.021029115 0.0066384673 0.048672438 8
0.022940874 0.015040219 0.048253752 8
0.0088187456 0.0005480051 0.049300469 7
-0.73358053 0.57839662 0.022653224 12
-0.74416846 0.58166254 0.022827748 36
-0.74676567 0.58567381 0.022862652 45
-0.7533434 0.589378 0.022967367 52
-0.75195354 0.59396893 0.022932462 57
-0.73480517 0.60153651 0.022618318 75
-0.73337322 0.60605139 0.022583414 81
-0.73592216 0.61028576 0.022618318 73
-0.74835616 0.6131115 0.022827748 52
-0.78467268 0.6136843 0.023456035 37
-0.86267203 0.60929608 0.024817321 16
-0.91493171 0.6087876 0.025724847 4
-1.0314095 1.1295776 0.084993593 5
-1.0489244 1.1335602 0.14345835 6
-1.035969 1.1364413 0.028412517 8
-0.99122483 1.1261032 0.082900152 9
-1.0262921 1.1342055 0.14154093 13
-1.009372 1.1360345 0.027958754 13
-1.0094166 1.136045 0.083946876 73
-1.019192 1.1383396 0.14101799 61
-0.9886331 1.1368378 0.027609708 36
-1.002301 1.1400965 0.083632857 100
-1.0120826 1.1424286 0.14049506 100
-0.97179478 1.138442 0.027330469 42
-0.99905843 1.1450429 0.083528183 100
-1.0088365 1.1474103 0.14032075 87
-0.97826701 1.1456612 0.027470088 33
-0.97640508 1.1452035 0.082376793 100
-1.0075097 1.1528493 0.14032075 87
-0.98470718 1.15293 0.027609708 22
-0.97896177 1.1514964 0.082586139 70
-0.99843127 1.1563543 0.13962349 81
-0.97948414 1.1573031 0.027539898 27
-0.97762078 1.1568311 0.082586139 42
-0.99707323 1.161757 0.13962349 68
-0.96650225 1.1596537 0.027330469 50
-0.97432667 1.1616641 0.082481466 38
-0.97639924 1.1621966 0.13788038 87
-0.95352262 1.1619185 0.027121039 63
-0.98261362 1.1695015 0.083004825 82
-0.98080486 1.1690301 0.13840333 91
-0.95608145 1.1679239 0.027190849 72
-0.96776348 1.1710104 0.08227212 100
-0.97947317 1.1741042 0.13840333 92
-0.9527517 1.1726611 0.027155945 78
-0.95092076 1.1721705 0.081434749 94
-0.97997779 1.1799563 0.13857763 100
-0.95512503 1.1792154 0.027225753 92
-0.94943672 1.1776689 0.081434749 100
-0.95923895 1.180334 0.13683452 100
-0.9459762 1.1823413 0.027086135 92
-0.94800454 1.1829004 0.081434749 100
-0.95779747 1.1855998 0.13683452 94
-0.9368965 1.185149 0.026946515 89
-0.94277972 1.1867915 0.081225403 94
-0.95641094 1.1905975 0.13683452 94
-0.93543833 1.1903367 0.026946515 85
-0.92594129 1.1876493 0.080388032 86
-0.95301658 1.1953108 0.1366602 100
-0.96856219 1.2054406 0.027574802 52
-0.91871482 1.1911472 0.080074012 62
-0.9553532 1.201653 0.13700883 99
-0.9574315 1.2079493 0.027400278 39
-0.93449742 1.2012863 0.081016064 24
-0.95001072 1.2057934 0.1366602 91
-0.92918867 1.2047879 0.026911611 63
-0.93121892 1.2053846 0.08091139 26
-0.94481117 1.2093799 0.13631158 84
-0.91616267 1.2065248 0.026702182 74
-0.92394751 1.2088426 0.080597371 28
-0.93372053 1.2117524 0.13544002 89
-0.91838175 1.213051 0.026771991 74
-0.91659278 1.2125112 0.080283359 50
-0.93972129 1.2194897 0.13613728 98
-0.91873866 1.2187582 0.026806897 78
-0.90166861 1.2135426 0.079550654 100
-0.93623775 1.2241049 0.13596296 100
-0.92480475 1.2262462 0.026946515 85
-0.90583557 1.2203779 0.079864666 91
-0.91751307 1.2239906 0.13439415 87
-0.91175348 1.2278056 0.026737086 88
-0.91187853 1.2278447 0.080283359 76
-0.91021544 1.2273239 0.13387123 61
-0.89489692 1.2280707 0.026457848 83
-0.91217524 1.2335484 0.080388032 66
-0.9048118 1.231214 0.1335226 46
-0.89336997 1.2328596 0.026457848 83
-0.90492445 1.236565 0.080074012 80
-0.90706879 1.2372526 0.13387123 43
-0.8955496 1.2391298 0.026527658 89
-0.89188868 1.2379416 0.07944598 100
-0.92058963 1.247256 0.13526571 52
-0.90158588 1.2464151 0.026667276 100
-0.89412433 1.2439661 0.079655327 100
-0.90953368 1.2490236 0.13439415 73
-0.88093609 1.245177 0.02631823 100
-0.89435655 1.2496337 0.07976 100
-0.90596181 1.2534875 0.13421984 85
-0.87176973 1.2473736 0.02617861 96
-0.89275807 1.2544206 0.07976 100
-0.90057296 1.2570446 0.13387123 80
-0.88120073 1.2569417 0.026388038 96
-0.87756616 1.2557051 0.079027295 100
-0.90049237 1.2635055 0.13404553 82
-0.87957805 1.2616851 0.026388038 93
-0.87783629 1.261086 0.079131968 100
-0.89696378 1.2676647 0.13387123 100
-0.87793976 1.266423 0.026388038 85
-0.87242693 1.2645066 0.078922622 100
-0.90283316 1.2750772 0.13456847 84
-0.86496598 1.2671781 0.02617861 77
-0.86701065 1.2678965 0.078713275 70
-0.89551109 1.2779107 0.13404553 43
-0.86124998 1.2716911 0.026143705 83
-0.86894006 1.2744248 0.078922622 29
-0.88988525 1.2818707 0.13369691 33
-0.86146051 1.2770443 0.02617861 99
-0.85410196 1.2744007 0.078189917 19
-0.8863048 1.2859691 0.1335226 30
-0.85959262 1.282214 0.02617861 100
-0.85036653 1.2788615 0.078085244 61
-0.88253146 1.2905495 0.13334829 18
-0.85037762 1.2841289 0.026038991 96
-0.8486715 1.2835026 0.078085244 100
-0.86957544 1.2911772 0.13230242 13
-0.84098524 1.2864739 0.025899371 100
-0.85239702 1.2907112 0.078399263 100
-0.86578792 1.2956831 0.1321281 1
-0.83177561 1.2882746 0.025759751 100
-0.84131235 1.2918516 0.077875905 53
-0.87149876 1.303174 0.13282534 1
-0.82986671 1.2933357 0.025759751 96
-0.83565539 1.295531 0.077666558 48
-0.85090607 1.3013151 0.13108224 5
-0.83372587 1.3000546 0.025864467 74
-0.83204001 1.2994087 0.077561885 57
-0.86029977 1.3102341 0.1321281 28
-0.84678608 1.3106561 0.026143705 74
-0.83390874 1.3056717 0.077771232 72
-0.84539896 1.3101192 0.13090792 86
-0.82077354 1.3058207 0.025689943 81
-0.83212477 1.3102579 0.077771232 68
-0.84916717 1.3169196 0.13143086 100
-0.81508082 1.3093717 0.025620133 96
-0.83013541 1.31532 0.077771232 72
-0.82862335 1.3147225 0.12968774 99
-0.8132847 1.3138955 0.025620133 100
-0.82089919 1.3169333 0.077352546 95
-0.83791274 1.3237209 0.13073361 99
-0.8149913 1.320384 0.025689943 100
-0.81332833 1.3197136 0.077038527 100
-0.83772177 1.3295493 0.13090792 100
-0.82056719 1.3279233 0.025829561 100
-0.82444686 1.3295027 0.077771232 100
-0.8284772 1.3311434 0.13021068 100
-0.77562517 1.3096285 0.17573559 15
-0.81111568 1.3299 0.025689943 100
-0.80576319 1.3276982 0.07682918 100
-0.80982798 1.3293703 0.12864187 100
-0.77731007 1.315994 0.17622307 13
-0.80176634 1.3315791 0.025550323 100
-0.80565268 1.3331935 0.076933853 100
-0.81154698 1.3356423 0.1289905 100
-0.78089565 1.3229086 0.17695428 16
-0.79610974 1.334747 0.025480513 100
-0.79999501 1.3363769 0.076724514 100
-0.81140143 1.3411624 0.12916481 100
-0.78444904 1.3298547 0.1776855 20
-0.79781276 1.3410025 0.025550323 100
-0.78329748 1.3348529 0.075887136 94
-0.81306857 1.3474655 0.12951343 100
-0.76969188 1.3290889 0.17597933 18
-0.81429869 1.3533304 0.025899371 66
-0.79610854 1.3455529 0.076724514 40
-0.80198628 1.3480661 0.12864187 65
-0.7806074 1.3389251 0.1776855 13
-0.80307454 1.3541262 0.025724847 67
-0.81242818 1.3581643 0.077771232 63
-0.82008153 1.3614683 0.1305593 20
-0.79501599 1.3506474 0.17987914 12
-0.79552788 1.3564489 0.025620133 100
-0.80670494 1.3613204 0.077561885 100
-0.8161822 1.3654511 0.130385 86
-0.78570193 1.3521662 0.17890419 24
-0.79347259 1.3611422 0.025620133 100
-0.80646068 1.3668571 0.077666558 100
-0.81956631 1.3726236 0.13090792 100
-0.78002769 1.3552262 0.17841671 38
-0.79688352 1.3682632 0.025724847 100
-0.80071837 1.3699667 0.077457212 100
-0.8174544 1.3774006 0.13090792 100
-0.76890594 1.3558362 0.17719802 30
-0.80573505 1.37787 0.025934275 100
-0.80772823 1.3787637 0.077980578 100
-0.80441779 1.3772793 0.12986206 100
-0.76141888 1.358 0.17646681 18
-0.79631764 1.3793007 0.025794657 100
-0.8128733 1.3867933 0.078399263 100
-0.79865938 1.3803605 0.12951343 100
-0.77382642 1.3691218 0.17841671 17
-0.7869069 1.3806732 0.025655037 100
-0.81252867 1.3923767 0.078503937 100
-0.80376977 1.3883758 0.13021068 100
-0.76269883 1.3696153 0.17719802 15
-0.79566318 1.3903592 0.025864467 100
-0.80853409 1.3962928 0.078399263 100
-0.81245929 1.3981023 0.13125655 100
-0.7533868 1.3708695 0.17622307 15
-0.80255491 1.3992703 0.026038991 100
-0.79728526 1.3968186 0.077875905 100
-0.81387132 1.4045353 0.13160518 100
-0.7710796 1.3846266 0.17890419 10
-0.80035013 1.4039878 0.026038991 100
-0.80593663 1.4066106 0.078503937 100
-0.80082709 1.4042118 0.1305593 100
-0.7689262 1.3892343 0.17890419 7
-0.7945146 1.4069852 0.025969181 100
-0.80551106 1.412195 0.07860861 100
-0.79500395 1.407217 0.13021068 100
-0.78687042 1.4090872 0.025864467 100
-0.81046897 1.4203683 0.079027295 100
-0.8053543 1.4179232 0.13143086 100
-0.7936371 1.4180936 0.026038991 100
-0.80099469 1.4216425 0.07860861 100
-0.80667347 1.4243815 0.13177948 100
-0.80238467 1.4275579 0.02624842 100
-0.79894084 1.4258835 0.07860861 100
-0.81715363 1.434739 0.13299966 100
-0.80367178 1.434036 0.02631823 100
-0.80202252 1.4332271 0.078922622 100
-0.80409235 1.4342424 0.13195379 100
-0.79059225 1.4334356 0.0261088 100
-0.80864948 1.4423718 0.07944598 100
-0.79819411 1.4371976 0.13160518 100
-0.78826827 1.4381111 0.0261088 100
-0.80986816 1.4488945 0.079655327 100
-0.80298728 1.4454594 0.13230242 100
-0.79307193 1.4463761 0.02624842 100
-0.80035478 1.4500438 0.079236634 100
-0.80951864 1.4546587 0.13317397 100
-0.80139989 1.4564942 0.026457848 100
-0.79441136 1.4529442 0.079027295 100
-0.8071205 1.4594002 0.13317397 100
-0.80267566 1.462795 0.026527658 100
-0.79924995 1.4610405 0.07944598 100
-0.80660015 1.4648051 0.13334829 100
-0.7931425 1.4638414 0.026388038 100
-0.8003785 1.4675794 0.079655327 100
-0.79177552 1.4631352 0.1321281 100
-0.78704387 1.4669111 0.02631823 100
-0.80843931 1.478063 0.080283359 100
-0.8051272 1.4763366 0.13369691 100
-0.79168314 1.4752958 0.026457848 100
-0.79535216 1.4772246 0.079655327 100
-0.80970758 1.4847709 0.13439415 100
-0.78226918 1.4759958 0.02631823 59
-0.7753517 1.4723301 0.07860861 57
-0.8108508 1.4911418 0.13474278 85
0.13775751 1.2827263 0.011483683 12
0.098065168 1.3320935 0.063100755 19
0.13173792 1.2902131 0.12975012 16
0.18733689 1.2210619 0.13362093 7
0.091218382 1.3406093 0.19618483 5
0.15576816 1.2638457 0.011029921 25
0.15126428 1.2694876 0.033495013 28
0.16218054 1.255813 0.054385185 25
0.15369326 1.2664449 0.077996381 14
0.14577374 1.2763655 0.10262101 11
0.15437853 1.2655865 0.12326261 55
0.1937767 1.2162333 0.13182132 15
0.14865416 1.2727573 0.17237349 7
0.16237751 1.2588825 0.010890301 100
0.18146273 1.2348115 0.031087559 94
0.15265313 1.2711473 0.055953987 97
0.16767478 1.2522014 0.07555899 15
0.16463691 1.2560329 0.098240845 24
0.1682215 1.2515119 0.11944643 100
0.18678337 1.228101 0.13497064 30
0.14672288 1.2786267 0.1739264 35
0.16046205 1.2650144 0.010995016 100
0.17081761 1.2518549 0.032134276 100
0.14586782 1.2835604 0.057174169 100
0.16821712 1.2551595 0.075802729 30
0.17619362 1.2450231 0.095737889 25
0.16027617 1.2652507 0.12249938 100
0.19449043 1.2217721 0.13272113 47
0.15097913 1.277065 0.17289113 42
0.1596429 1.2694546 0.011064826 100
0.17487741 1.2499623 0.031924933 91
0.15738836 1.2723392 0.055779677 100
0.15882629 1.2704995 0.077996381 28
0.18263665 1.2400346 0.094486415 39
0.16554752 1.2618997 0.12135452 100
0.18999034 1.2306256 0.13497064 38
0.15742135 1.272297 0.17082056 36
0.17250678 1.2566613 0.010750682 92
0.18153563 1.2450213 0.031506244 62
0.17144367 1.2580318 0.054036561 100
0.17039678 1.2593815 0.076046467 29
0.179519 1.2476213 0.095737889 25
0.18299583 1.2431389 0.11639348 72
0.19287544 1.2304022 0.13452072 31
0.15097669 1.2844177 0.17444403 42
0.18022457 1.2499899 0.010576159 67
0.16361058 1.2715558 0.033180997 57
0.17063227 1.2624412 0.054385185 51
0.17081022 1.2622102 0.076290213 44
0.17387164 1.2582363 0.097615108 37
0.18456683 1.2443534 0.11639348 13
0.16942918 1.2640029 0.14396867 21
0.14678985 1.29339 0.17703223 48
0.17938808 1.2543898 0.010645968 66
0.17619869 1.2585583 0.032238949 30
0.17347804 1.2621142 0.054210871 51
0.1965695 1.2319336 0.071415432 48
0.19109723 1.2390859 0.093547814 52
0.19329971 1.2362072 0.11410378 13
0.2006734 1.2265699 0.13272113 31
0.16261443 1.2763128 0.17082056 65
0.17373732 1.2651691 0.010855397 52
0.15848687 1.2852391 0.033913698 27
0.16064689 1.2823964 0.056302611 48
0.18849516 1.2457476 0.073365346 46
0.19504502 1.2371278 0.092922069 53
0.19009647 1.2436402 0.11563025 13
0.20808446 1.2199676 0.13047162 40
0.17013958 1.2699039 0.16823238 60
0.17314672 1.2697382 0.010925206 39
0.15316272 1.2962385 0.03454173 27
0.1781224 1.26314 0.054036561 51
0.18426523 1.2549942 0.074584037 76
0.20151696 1.2321169 0.091670595 54
0.18828866 1.2496587 0.1167751 13
0.20738932 1.2243297 0.13137141 31
0.17546383 1.2666655 0.16667947 67
0.18199819 1.2613815 0.010715778 53
0.17885482 1.2655787 0.032448292 29
0.19050866 1.2500178 0.052467756 53
0.19301525 1.2466708 0.073121607 78
0.19831482 1.2395945 0.092922069 66
0.20282671 1.2335699 0.1125773 13
0.20656151 1.2285829 0.13227122 31
0.18174502 1.2617196 0.16460891 69
0.18738016 1.2579122 0.010611063 81
0.19258747 1.2509056 0.031401575 31
0.18751654 1.2577286 0.053165004 52
0.20186943 1.2384166 0.071659178 32
0.19296837 1.250393 0.094799288 64
0.20452812 1.2348392 0.1125773 13
0.20591974 1.2329668 0.13317102 31
0.18354976 1.2630661 0.16460891 69
0.19137514 1.2558941 0.010541254 95
0.21197495 1.2279837 0.029831495 66
0.18203694 1.2685462 0.054210871 76
0.20342466 1.2395684 0.071659178 64
0.20160174 1.2420382 0.092922069 79
0.20607147 1.2359823 0.1125773 13
0.21555755 1.2231297 0.13002171 32
0.18403962 1.2658329 0.16512655 68
0.19324347 1.2572675 0.010541254 81
0.21845546 1.2228323 0.029412808 67
0.18513092 1.2683479 0.054036561 77
0.18998531 1.2617176 0.074827775 100
0.20458373 1.2417786 0.092609204 93
0.21018282 1.2341313 0.11181407 14
0.23111445 1.2055423 0.12462288 16
0.18138123 1.2734692 0.16719711 82
0.18780553 1.2681521 0.010750682 92
0.21173728 1.2352371 0.030145511 65
0.19147214 1.2631092 0.053339314 78
0.19862211 1.2532754 0.073365346 93
0.21428171 1.2317376 0.090419121 100
0.19325137 1.2606621 0.11791996 13
0.23599848 1.2018689 0.12327318 17
0.18191677 1.2762513 0.16771474 82
0.19899395 1.2565029 0.010471444 96
0.20877036 1.2429526 0.030564198 97
0.19211614 1.2660357 0.053513627 100
0.20388016 1.2497305 0.072634131 78
0.20672998 1.2457806 0.092922069 100
0.2214722 1.2253475 0.10914274 14
0.25126594 1.1840527 0.11787435 8
0.1905567 1.2681972 0.16460891 85
0.20060918 1.2576642 0.010471444 96
0.21266702 1.2408344 0.030354854 65
0.19376302 1.2672198 0.053513627 100
0.20778519 1.2476482 0.072146654 79
0.20830962 1.2469163 0.092922069 100
0.21612352 1.23601 0.11143246 14
0.2344813 1.210387 0.12507279 16
0.19446099 1.2662456 0.16357364 77
0.20231357 1.2588809 0.010471444 82
0.21431261 1.242009 0.030354854 97
0.19319138 1.2717075 0.053862248 100
0.21865851 1.2358983 0.07019674 66
0.20768672 1.2513256 0.093547814 100
0.20523605 1.2547715 0.11563025 20
0.22811449 1.2226022 0.12822211 16
0.19507575 1.269058 0.16409127 69
0.20162958 1.263298 0.010541254 95
0.21011898 1.2512769 0.030878214 95
0.19255841 1.2761428 0.054210871 100
0.21218947 1.248345 0.071902916 64
0.21726134 1.2411631 0.09135773 100
0.2011829 1.2639306 0.11753834 53
0.23298961 1.2188917 0.12687239 24
0.19673264 1.2702322 0.16409127 69
0.20105797 1.2677859 0.010611063 81
0.22211897 1.2377412 0.029936166 66
0.19661462 1.2741246 0.053862248 100
0.21272179 1.2511468 0.072146654 63
0.22571129 1.2326165 0.089480512 97
0.20290917 1.2651451 0.11753834 99
0.22449118 1.2343571 0.13092151 56
0.20624319 1.260389 0.1604678 88
0.20499539 1.2656578 0.010541254 100
0.22138983 1.2421044 0.030145511 98
0.20967057 1.2589412 0.052119136 100
0.2143192 1.2522626 0.072146654 79
0.21821913 1.2466598 0.091983467 93
0.21913359 1.245346 0.1125773 82
0.22046638 1.2434311 0.13317102 85
0.21007854 1.258355 0.15943253 73
0.21598983 1.2538139 0.010262015 98
0.22547442 1.2400755 0.029936166 66
0.20475885 1.270082 0.053165004 100
0.22068459 1.2470136 0.071171694 81
0.216685 1.2528069 0.092922069 100
0.22319198 1.2433815 0.11181407 98
0.2233938 1.2430892 0.13272113 94
0.21085864 1.2612464 0.15995017 72
0.21985731 1.2516201 0.010192205 85
0.22816429 1.2395017 0.029831495 99
0.21092504 1.2646507 0.052467756 100
0.22675771 1.2415535 0.07019674 66
0.21940476 1.2522802 0.092609204 100
0.21921346 1.2525593 0.11372216 100
0.23047349 1.236133 0.13047162 100
0.20593593 1.2719289 0.163056 70
0.21037903 1.269362 0.010541254 81
0.22314805 1.2505871 0.030459527 65
0.207138 1.2741275 0.053339314 78
0.22625548 1.2460181 0.070684217 81
0.23228356 1.2371547 0.089480512 100
0.22760883 1.2440282 0.11143246 84
0.23656777 1.2308555 0.128672 97
0.20995075 1.2699918 0.16202073 78
0.21763226 1.2621994 0.010366729 41
0.21468404 1.2665653 0.031401575 31
0.21104163 1.2719593 0.05299069 79
0.2278358 1.247089 0.070684217 65
0.23825637 1.2316574 0.088229038 98
0.22368908 1.2532299 0.11334054 96
0.23155433 1.2415823 0.13137141 94
0.22242182 1.2551066 0.15684435 82
0.21703911 1.2666206 0.010436539 41
0.21188366 1.2743101 0.03182026 30
0.21825561 1.2648063 0.052119136 54
0.22499785 1.25475 0.071659178 80
0.24418914 1.2261256 0.086977564 100
0.2274799 1.251048 0.1125773 100
0.2331199 1.2426357 0.13137141 94
0.21865329 1.2642131 0.15943253 73
0.22533619 1.2577343 0.01022711 28
0.23126534 1.2488272 0.030145511 32
0.21437818 1.2741964 0.05299069 52
0.23540694 1.2426053 0.069709264 83
0.23366287 1.2452254 0.090419121 100
0.23125264 1.2488463 0.11181407 100
0.23684862 1.2404395 0.13047162 96
0.22350541 1.2604847 0.15787962 73
0.22492209 1.2622584 0.010296919 28
0.2418274 1.236659 0.029308135 34
0.21073872 1.283736 0.053862248 51
0.23057777 1.2536941 0.071171694 81
0.24193814 1.2364913 0.08854191 98
0.24166486 1.2369051 0.10876112 87
0.24394438 1.2334534 0.12822211 97
0.22317615 1.2649022 0.15891489 73
0.22217059 1.2700229 0.010436539 41
0.22147492 1.2710841 0.031401575 31
0.22446075 1.2665298 0.051944822 54
0.23762557 1.2464502 0.069953002 99
0.24456987 1.2358584 0.088229038 98
0.24213845 1.2395669 0.10914274 85
0.24975684 1.2279469 0.12642249 99
0.22058222 1.2724457 0.16098544 72
0.21964434 1.2779264 0.010576159 40
0.22984743 1.2622391 0.030773543 32
0.2328006 1.2576985 0.050898954 55
0.23829162 1.2492559 0.07019674 82
0.24843341 1.2336628 0.087603301 99
0.24172074 1.2439837 0.10990598 85
0.25143734 1.2290443 0.12642249 99
0.22769246 1.2655523 0.15839726 73
0.24085543 1.2487804 0.0099478718 43
0.23798189 1.2532307 0.030145511 32
0.23333886 1.2604215 0.051073264 55
0.23126826 1.2636282 0.072146654 100
0.25318721 1.2296818 0.086664692 86
0.24222925 1.2466527 0.1102876 85
0.24767581 1.2382175 0.128672 97
0.23562503 1.2568808 0.15529142 75
0.2394613 1.2550161 0.010052586 86
0.24307048 1.2493792 0.029831495 66
0.22985268 1.2700233 0.051944822 54
0.24494022 1.2464589 0.069465525 49
0.24856356 1.2407997 0.08854191 70
0.2525306 1.2346038 0.10723466 73
0.25367901 1.2328101 0.12687239 82
0.22708008 1.2743537 0.1604678 72
0.24643472 1.247605 0.0098780617 73
0.25216138 1.2385951 0.029098792 68
0.23044384 1.2727637 0.052119136 81
0.24652189 1.2474679 0.069465525 49
0.25224569 1.2384624 0.087916173 84
0.24143547 1.2554704 0.11181407 98
0.25730604 1.2305009 0.12597258 90
0.23082688 1.2721611 0.15943253 73
0.24383664 1.2554272 0.010017681 72
0.25486436 1.2379426 0.028994121 100
0.23432648 1.2705058 0.051770512 81
0.24607244 1.2518823 0.069953002 49
0.25599036 1.2361574 0.087290429 71
0.24836862 1.2482418 0.10990598 85
0.25891528 1.2315198 0.12597258 99
0.22742882 1.2814422 0.16202073 63
0.2422646 1.2615246 0.010122396 85
0.24581912 1.2558472 0.03004084 99
0.23810253 1.2681724 0.051421888 82
0.25715277 1.2377448 0.067759357 34
0.26382729 1.2270839 0.085413218 58
0.25308165 1.2442473 0.10876112 79
0.25941321 1.2341343 0.12642249 90
0.24142843 1.2628601 0.15580906 67
0.2503978 1.2524564 0.0099129668 87
0.25181648 1.2501719 0.029622151 100
0.24623701 1.2591567 0.05037602 84
0.24211338 1.2657971 0.071659178 80
0.26133609 1.2348423 0.086664692 71
0.24964327 1.2536715 0.11066922 92
0.25700408 1.2418182 0.12822211 97
0.24119866 1.2672701 0.15684435 66
0.25409794 1.2500428 0.0098431576 88
0.25341043 1.2511581 0.029622151 100
0.24263346 1.2686416 0.051247578 82
0.24896738 1.2583661 0.070440479 49
0.25769648 1.2442049 0.088229038 56
0.25846007 1.2429661 0.10799789 72
0.26061541 1.2394695 0.1273223 97
0.24082196 1.2715805 0.15787962 65
0.25055864 1.2596024 0.010017681 87
0.25300765 1.2555982 0.029831495 99
0.24021778 1.2765102 0.051944822 81
0.24756673 1.2644944 0.071171694 81
0.26450685 1.2367964 0.086664692 57
0.25396678 1.25403 0.1102876 85
0.266323 1.2338269 0.12552269 90
0.2466065 1.2660644 0.15580906 67
0.2511462 1.262302 0.010052586 86
0.2649838 1.2395074 0.028784776 100
0.23983133 1.280941 0.052293446 100
0.25435874 1.25701 0.069953002 49
0.26605636 1.2377405 0.086664692 57
0.25964862 1.248296 0.10876112 79
0.26988515 1.2314334 0.12462288 92
0.2362234 1.2868844 0.16202073 63
0.25810966 1.2548282 0.0098780617 73
0.26258591 1.2473933 0.029203463 100
0.25198257 1.2650054 0.05055033 84
0.26433676 1.244485 0.068003096 51
0.27490473 1.2269317 0.084474608 59
0.25431529 1.2611307 0.11143246 77
0.269568 1.235796 0.12552269 90
0.2550154 1.2599678 -0.0099827768 86
0.25007704 1.2681704 0.15580906 67
0.25766754 1.2592267 0.0099478718 73
0.2631461 1.2500582 0.029308135 100
0.25566965 1.2625701 0.050201707 100
0.26591179 1.2454298 0.068003096 51
0.27540821 1.2295372 0.084787481 73
0.26198778 1.2519966 0.10914274 92
0.27211377 1.2350506 0.12507279 92
0.25664183 1.2609433 -0.0099827768 86
0.25767624 1.2592121 0.15270324 68
0.26863748 1.2448119 0.0096337283 90
0.26287115 1.2545428 0.029517479 100
0.2554456 1.2670738 0.05055033 84
0.26563227 1.2498833 0.068490572 50
0.27306622 1.2373382 0.086038955 58
0.26976144 1.2429152 0.10685304 73
0.27083978 1.2410954 0.12642249 90
0.25257736 1.271914 0.1563267 74
0.26818612 1.2491897 0.0097035384 90
0.2725794 1.2417195 0.028680105 100
0.25911561 1.264613 0.050201707 85
0.26923782 1.2474015 0.068003096 51
0.27261472 1.2416594 0.086664692 57
0.26934072 1.2472265 0.10761628 79
0.28228238 1.2252207 0.12192347 76
0.25522274 1.2712324 0.15580906 67
0.26591477 1.257129 0.0098431576 88
0.27632254 1.2392825 0.02847076 100
0.25791925 1.2708391 0.05072464 100
0.26898938 1.2518568 0.068490572 50
0.27733073 1.2375537 0.08572609 58
0.26317945 1.2618194 0.11066922 78
0.28395265 1.2261989 0.12192347 76
0.25122252 1.2823222 0.15891489 65
0.26152173 1.2684529 0.010052586 86
0.27788025 1.2401874 0.02847076 100
0.26357371 1.2649072 0.050027397 100
0.27058882 1.2527862 0.068490572 50
0.28086165 1.235036 0.085100345 58
0.26481193 1.2627678 0.11066922 85
0.28449079 1.2287652 0.12237337 85
0.26352507 1.2649913 -0.0099827768 86
0.26453522 1.2632459 0.15270324 68
0.27330369 1.2521628 0.0097035384 90
0.27364081 1.2515754 0.029098792 100
0.26935625 1.2590415 0.049330149 87
0.27236021 1.2538069 0.068490572 50
0.28551751 1.2308793 0.084161744 59
0.27443734 1.2501874 0.10761628 79
0.28326419 1.2348059 0.12372308 83
0.26442188 1.26764 0.15373851 68
0.27985191 1.2443893 0.0095290141 76
0.27721599 1.249018 0.028889447 100
0.26604983 1.2686262 0.050201707 85
0.27789539 1.2478249 0.067515619 51
0.28020468 1.2437698 0.086351827 58
0.2760312 1.2510985 0.10761628 87
0.28673568 1.2323011 0.12282328 68
0.26698771 1.2669792 -0.0099827768 86
0.27372155 1.2551544 0.14959741 70
0.27471021 1.2575654 0.0097733475 89
0.28290144 1.2430578 0.02847076 100
0.26396096 1.2766033 0.050898954 83
0.27476853 1.257462 0.068734311 33
0.28291416 1.2430353 0.086038955 58
0.27779636 1.2520995 0.10761628 79
0.29130626 1.2281721 0.12147357 86
0.26979432 1.2662718 -0.0099478718 75
0.26220405 1.2797149 0.15684435 66
0.2773909 1.2567786 0.0097384425 75
0.28845796 1.2370169 0.028052073 100
0.27254573 1.2654302 0.049678773 86
0.27938166 1.2532239 0.068003096 51
0.29228866 1.2301767 0.083536007 60
0.27948084 1.2530468 0.10761628 79
0.29290715 1.2290723 0.12147357 86
0.2744596 1.2620127 -0.0098431576 87
0.26776084 1.2739743 0.15477379 75
0.27035275 1.2734604 0.010052586 86
0.28427085 1.2484031 0.028680105 100
0.27814659 1.2594287 0.048981529 87
0.27721444 1.261107 0.068978049 50
0.2900598 1.237981 0.084787481 59
0.27640215 1.2625694 0.10952436 85
0.29261866 1.2333741 0.12237337 93
0.27423674 1.2664678 -0.0099129668 87
0.27702618 1.2614459 0.15063268 78
0.29140964 1.2394034 0.0093544899 93
0.27823269 1.2633226 0.029517479 100
0.28081805 1.2586296 0.048807215 88
0.2770147 1.2655336 0.069465525 49
0.29264811 1.2371552 0.084474608 59
0.28570163 1.2497647 0.10647142 81
0.29611832 1.2308559 0.12147357 77
0.27404162 1.2709304 -0.0099827768 86
0.27874333 1.2623957 0.15063268 70
0.28921467 1.2473226 0.0094941091 92
0.28953239 1.2467411 0.02847076 100
0.28061479 1.2630632 0.049155839 87
0.28636023 1.252547 0.067515619 51
0.29238611 1.2415178 0.085100345 58
0.28737795 1.2506844 0.10647142 81
0.29679421 1.2334495 0.12192347 85
0.27579188 1.2718906 -0.0099827768 86
0.27675879 1.2701209 0.15270324 68
0.28707185 1.2552627 0.0096337283 90
0.29690698 1.237111 0.027842728 100
0.27759176 1.2727594 0.050027397 85
0.29372033 1.2429923 0.066053182 52
0.29403359 1.2424141 0.085100345 58
0.28812218 1.2533243 0.10685304 81
0.27754548 1.2728448 -0.0099827768 86
0.27666557 1.2744688 0.15373851 68
0.29049188 1.252564 0.0095639192 91
0.29648378 1.2414219 0.028052073 100
0.27728525 1.2771223 0.05037602 84
0.29144678 1.2507883 0.067028143 51
0.2868523 1.2593319 0.10799789 79
0.2848092 1.2631311 -0.0097733475 88
0.28008169 1.2719221 0.15270324 68
0.28841409 1.2605249 0.0097035384 90
0.29437166 1.2493533 0.02847076 100
0.28468221 1.2675228 0.049330149 87
0.29312661 1.251688 0.067028143 51
0.29225725 1.2533182 0.10647142 73
0.28465027 1.2675828 -0.0098431576 87
0.29092571 1.255815 0.14752686 79
0.29310203 1.2562214 0.0095988233 76
0.29808021 1.2467995 0.028261416 100
0.29126865 1.2596914 0.068003096 51
0.2865628 1.268598 -0.0098431576 87
0.29189053 1.2585144 0.1480445 79
0.2957288 1.2553439 0.0095639192 91
0.2960386 1.2547525 0.028680105 100
0.2948086 1.2571003 0.048109971 59
0.29482201 1.2570747 0.067515619 51
0.2909078 1.264546 0.14959741 70
0.29926816 1.2526793 0.0094941091 92
0.29375511 1.2632924 0.048632905 88
0.29835391 1.2544394 0.067028143 51
0.29263565 1.2654475 0.14959741 70
0.29912332 1.2571071 0.0095639192 91
0.28361917 1.2872103 0.050898954 55
0.29822862 1.2588444 0.067515619 51
0.2890594 1.2766476 0.15270324 68
0.28973463 1.2792605 -0.0099827768 100
0.29944381 1.2602626 0.14752686 71
0.29766989 1.2723577 0.15063268 78
0.29864052 1.2792585 -0.0099129668 100
