# .PCD v0.7 - Point Cloud Data file format
VERSION 0.7
FIELDS x y z intensity
SIZE 4 4 4 4
TYPE F F F F
COUNT 1 1 1 1
WIDTH 755
HEIGHT 1
VIEWPOINT 0 0 0 1 0 0 0
POINTS 755
DATA ascii
0.057826161 0.0095061064 0.015811881 104
0.051279992 0.0055484176 0.047835063 37
0.054231882 0.015552104 0.047311705 22
0.047058284 0.010713875 0.047730394 100
0.037892401 0.0024172664 0.048358422 69
0.032853425 0.00098466873 0.048567768 33
0.035906255 0.010972083 0.04804441 27
0.033127725 0.012861431 0.04804441 18
0.038540661 0.026100159 0.047311705 10
0.020025074 0.0049043298 0.048777111 8
0.012919962 0.00011378527 0.0491958 7
-0.076999664 0.57074261 0.011483683 12
-0.083484411 0.57135653 0.011588397 23
-0.082229614 0.57405037 0.011553493 35
-0.079051852 0.57731932 0.011483683 48
-0.079687357 0.57940638 0.011483683 36
-0.080447376 0.58193564 0.011483683 36
-0.084903836 0.58289677 0.011553493 35
-0.093200803 0.58276761 0.011693113 34
-0.089974463 0.58600664 0.011623302 35
-0.079101384 0.59162641 0.011413874 48
-0.075838149 0.59479177 0.011344064 36
-0.078403711 0.5965547 0.011378969 84
-0.059681714 0.60389596 0.011029921 89
-0.073805392 0.60250169 0.011274255 99
-0.070491433 0.60559559 0.011204445 100
-0.073053062 0.60747457 0.01123935 74
-0.071651995 0.61003989 0.011204445 37
-0.091561556 0.60718328 0.011553493 23
-0.086278319 0.61076808 0.011448778 24
-0.108244 0.60795426 0.011832732 11
-0.10877776 0.61013794 0.011832732 11
-0.11711144 0.61057937 0.011972351 11
-0.1254223 0.61095917 0.01211197 10
-0.13768947 0.61072862 0.012321399 10
-0.18890381 0.60144693 0.013228924 9
-0.1934191 0.60328108 0.013298734 8
-0.18225181 0.60833395 0.013089305 9
-0.19062835 0.6091938 0.013228924 18
-0.20289087 0.60914385 0.013438353 8
-0.2328316 0.60574484 0.013961925 15
-0.23337197 0.60834169 0.013961925 15
-0.25162661 0.60778123 0.014276069 14
-0.2501989 0.61083055 0.014241164 14
-0.27233845 0.60940874 0.014625116 19
-0.28464979 0.60987598 0.014834546 18
-1.0059059 1.1246356 0.083632857 5
-1.039021 1.1321836 0.1425868 4
-1.0357769 1.1372716 0.028412517 8
-0.992984 1.1273607 0.083004825 13
-1.029983 1.1359298 0.14188954 19
-1.0072975 1.1361212 0.02792385 16
-1.0034559 1.135218 0.083632857 75
-1.0151844 1.1379755 0.14066938 65
-0.98461491 1.136446 0.027539898 37
-1.0079994 1.14203 0.083946876 100
-1.0138903 1.1434367 0.14066938 100
-0.973674 1.1391785 0.027365373 48
-0.98928744 1.1429616 0.083004825 100
-1.0010252 1.1458056 0.13962349 87
-0.98791045 1.1483163 0.027644612 30
-0.98021835 1.1464241 0.082586139 100
-1.0016387 1.1516933 0.13979781 86
-0.97875339 1.1520114 0.027504992 23
-0.97689074 1.1515459 0.082481466 66
-1.0021622 1.1578609 0.13997212 81
-0.97934884 1.1578369 0.027539898 31
-0.98910147 1.1603101 0.083214171 35
-0.99693638 1.162297 0.13962349 69
-0.96830267 1.1606814 0.027365373 53
-0.98192686 1.1641871 0.082900152 39
-0.97626227 1.1627295 0.13788038 87
-0.95919031 1.1639585 0.027225753 61
-0.97860914 1.1690276 0.082795486 84
-0.98259324 1.1700677 0.13857763 89
-0.95973903 1.169736 0.027260659 74
-0.9656226 1.1712939 0.082167454 96
-0.97733539 1.1743951 0.13822901 94
-0.96026582 1.1755221 0.027295563 78
-0.94685215 1.1719204 0.081225403 96
-0.9778387 1.1802406 0.13840333 99
-0.95698315 1.1800032 0.027260659 83
-0.9474383 1.1774063 0.081330076 100
-0.96493489 1.1821666 0.13735744 99
-0.9459042 1.1826025 0.027086135 92
-0.94408172 1.1820998 0.081225403 100
-0.96156627 1.1869224 0.13718314 94
-0.93297213 1.1843323 0.026876707 96
-0.94655412 1.188127 0.081434749 88
-0.96401316 1.1930048 0.13753176 94
-0.94306105 1.1927751 0.027086135 85
-0.94316369 1.1928042 0.081330076 84
-0.95294231 1.1955731 0.1366602 100
-0.96841007 1.2059708 0.027574802 50
-0.92816621 1.1944158 0.080597371 54
-0.95903248 1.2032782 0.13735744 100
-0.95727843 1.2084755 0.027400278 42
-0.92092246 1.1978993 0.080283359 24
-0.94794542 1.2057605 0.13648589 89
-0.92504853 1.20469 0.026841801 64
-0.92133564 1.2035958 0.080388032 26
-0.93112618 1.206481 0.13509139 85
-0.91202527 1.2064044 0.026632372 75
-0.92555457 1.2104428 0.080702044 28
-0.93532091 1.213358 0.13561434 91
-0.91623551 1.2132411 0.026737086 78
-0.92400819 1.2155907 0.080702044 60
-0.93376428 1.2185401 0.13561434 99
-0.92232782 1.2206978 0.026876707 81
-0.91098505 1.2172257 0.080074012 100
-0.93599981 1.224883 0.13596296 99
-0.91700476 1.2243944 0.026806897 85
-0.91330963 1.2232499 0.080283359 90
-0.92496735 1.2268608 0.13509139 84
-0.90777737 1.2271192 0.026667276 88
-0.91553015 1.2295502 0.080492698 74
-0.91005582 1.2278336 0.13387123 57
-0.8985489 1.2297851 0.026527658 85
-0.91391701 1.234663 0.080492698 68
-0.90085262 1.2305163 0.13317397 46
-0.90074283 1.2360618 0.026597468 88
-0.90087694 1.236105 0.079864666 85
-0.9144116 1.240453 0.13456847 43
-0.89910716 1.2411231 0.026597468 93
-0.89354283 1.2393141 0.079550654 100
-0.91844469 1.2474099 0.13509139 54
-0.89365476 1.2449287 0.026527658 99
-0.8975876 1.2462225 0.079864666 100
-0.90162843 1.2475519 0.13369691 73
-0.8768093 1.2449129 0.02624842 100
-0.89970642 1.2525342 0.080074012 100
-0.89806229 1.2519869 0.1335226 91
-0.87893313 1.2511668 0.02631823 99
-0.8999061 1.258229 0.080178685 100
-0.89825922 1.2576745 0.13369691 77
-0.86975759 1.2533249 0.02617861 96
-0.87937206 1.256598 0.079131968 100
-0.90229231 1.2644006 0.13421984 85
-0.87562484 1.260882 0.02631823 96
-0.87577635 1.2609341 0.079027295 100
-0.89678997 1.2681698 0.13387123 99
-0.87759274 1.2674198 0.026388038 85
-0.86830932 1.2641851 0.078713275 100
-0.89683586 1.2741246 0.13404553 75
-0.86453158 1.2684127 0.02617861 79
-0.87034315 1.2704604 0.078922622 70
-0.9025839 1.2818205 0.13474278 38
-0.85524827 1.2706628 0.026038991 85
-0.87046891 1.2760856 0.079027295 27
-0.88389701 1.2808697 0.13317397 37
-0.8572548 1.2769203 0.0261088 93
-0.86493558 1.2796872 0.078817949 23
-0.88023061 1.2851967 0.13299966 31
-0.85556608 1.2815843 0.0261088 93
-0.85009998 1.2795947 0.078085244 68
-0.88787538 1.2933438 0.13387123 17
-0.85377175 1.2864873 0.0261088 100
-0.850187 1.2851685 0.078189917 100
-0.85799223 1.2880402 0.13125655 13
-0.84071463 1.2872021 0.025899371 100
-0.84838027 1.2900529 0.078189917 100
-0.8729822 1.2992023 0.13282534 1
-0.83141345 1.2892392 0.025759751 100
-0.83907813 1.2921202 0.077771232 48
-0.87112623 1.3041662 0.13282534 1
-0.83707005 1.2968984 0.025899371 92
-0.83724719 1.2969657 0.077771232 51
-0.84504002 1.299926 0.1305593 7
-0.83708924 1.3024536 0.025934275 74
-0.83167011 1.3003734 0.077561885 57
-0.86550242 1.3133605 0.13265105 37
-0.84650284 1.3113873 0.026143705 75
-0.82804149 1.3042303 0.077457212 76
-0.84511596 1.3108497 0.13090792 86
-0.82226104 1.307507 0.025724847 90
-0.82616824 1.3090374 0.077457212 63
-0.84507471 1.316443 0.13108224 100
-0.8147983 1.3100863 0.025620133 100
-0.8279925 1.3153076 0.077666558 74
-0.83204311 1.3169105 0.13003637 97
-0.81290466 1.314847 0.025620133 100
-0.820517 1.3178902 0.077352546 91
-0.83752578 1.3246899 0.13073361 97
-0.82211977 1.3240938 0.025829561 100
-0.81674415 1.321923 0.077247873 97
-0.83742851 1.3302758 0.13090792 100
-0.82017726 1.3288801 0.025829561 100
-0.81665868 1.3274448 0.077352546 100
-0.82992989 1.3328581 0.130385 100
-0.79730493 1.3195506 0.17866045 21
-0.80722207 1.3288524 0.025620133 100
-0.80741531 1.3289319 0.076933853 100
-0.8225289 1.3351551 0.12986206 100
-0.78996843 1.321748 0.17792924 16
-0.79418451 1.3289795 0.025410704 100
-0.80545598 1.3336668 0.076933853 100
-0.80767006 1.3345876 0.12864187 100
-0.79353303 1.3287086 0.17866045 19
-0.79212672 1.3339025 0.025410704 100
-0.79417425 1.3347628 0.076410495 99
-0.81844956 1.3449621 0.12986206 100
-0.77683526 1.3274777 0.17671055 20
-0.79751366 1.3417081 0.025550323 100
-0.79771048 1.3417916 0.076724514 90
-0.81276602 1.3481791 0.12951343 100
-0.77122647 1.3305552 0.17622307 24
-0.81021482 1.3527079 0.025829561 64
-0.81039351 1.3527844 0.077561885 40
-0.79791957 1.3474406 0.12829325 50
-0.78750867 1.3429806 0.17866045 10
-0.81367856 1.3598338 0.025934275 71
-0.81934971 1.3622868 0.078189917 72
-0.82332569 1.3640065 0.13090792 35
-0.78914446 1.3492221 0.17914793 5
-0.78982455 1.3545196 0.025515418 100
-0.81199032 1.3641899 0.077875905 100
-0.80866951 1.3627411 0.12968774 93
-0.79095715 1.3550138 0.17963541 24
-0.79499286 1.3626518 0.025655037 100
-0.80614799 1.3675671 0.077666558 100
-0.83019 1.378161 0.13195379 100
-0.77608794 1.3543216 0.17792924 37
-0.80011946 1.3708296 0.025794657 100
-0.80029923 1.3709096 0.077457212 100
-0.80974895 1.3751149 0.13021068 100
-0.77212387 1.358371 0.1776855 31
-0.80885202 1.3806922 0.026004085 100
-0.81083995 1.3815856 0.078189917 100
-0.80388731 1.3784611 0.12986206 100
-0.76452655 1.3607717 0.17695428 20
-0.79246181 1.3781204 0.025724847 100
-0.80538064 1.3839724 0.077980578 100
-0.80389088 1.3832976 0.13003637 100
-0.77361721 1.3695838 0.17841671 15
-0.78840548 1.3822048 0.025689943 100
-0.81038636 1.3922591 0.078399263 100
-0.80344576 1.3890845 0.13021068 100
-0.77682632 1.3769083 0.17914793 15
-0.7918151 1.3891532 0.025794657 100
-0.80106133 1.3934197 0.077980578 100
-0.81223994 1.3985779 0.13125655 100
-0.76218933 1.375483 0.17744176 11
-0.79860002 1.3982894 0.025969181 100
-0.80419856 1.4008977 0.07829459 100
-0.80992693 1.4035665 0.13125655 100
-0.76535946 1.3828032 0.17817298 10
-0.80012876 1.4044591 0.026038991 100
-0.80571431 1.4070839 0.078503937 100
-0.80421203 1.4063779 0.13090792 100
-0.77769297 1.3939159 0.18012288 5
-0.79237419 1.406832 0.025934275 100
-0.80878359 1.4146168 0.078817949 100
-0.79827029 1.4096291 0.1305593 100
-0.78257126 1.4021814 0.18109785 3
-0.78292829 1.4080602 0.025794657 100
-0.81012815 1.4210806 0.079027295 100
-0.79962355 1.4160521 0.13090792 100
-0.78598219 1.4155514 0.025899371 100
-0.80053943 1.4225855 0.07860861 100
-0.80801016 1.4261954 0.13195379 100
-0.7948485 1.4247646 0.0261088 100
-0.79680151 1.4257154 0.078503937 100
-0.80963999 1.4319661 0.13230242 100
-0.80679733 1.4367448 0.026388038 100
-0.79080409 1.4288856 0.07829459 100
-0.80362839 1.4351876 0.13195379 100
-0.79024464 1.4341373 0.0261088 100
-0.81187648 1.4448566 0.079655327 100
-0.80498546 1.441442 0.13230242 100
-0.78780144 1.4390452 0.0261088 100
-0.80939382 1.4498436 0.079655327 100
-0.79716951 1.4437301 0.13177948 100
-0.79271764 1.4470793 0.02624842 100
-0.79999846 1.4507508 0.079236634 100
-0.81093901 1.4562676 0.13334829 100
-0.79735583 1.4556236 0.026388038 100
-0.79393429 1.4538826 0.079027295 100
-0.81729311 1.4657691 0.13421984 100
-0.80219167 1.4637392 0.026527658 100
-0.79876715 1.4619823 0.07944598 100
-0.80611485 1.4657519 0.13334829 100
-0.79253644 1.4650133 0.026388038 100
-0.80686396 1.4724303 0.080074012 100
-0.8070944 1.4725497 0.13369691 100
-0.78655702 1.4678442 0.02631823 100
-0.80440372 1.4771624 0.080074012 100
-0.80639988 1.4782047 0.13387123 100
-0.78752869 1.4746023 0.026388038 96
-0.79296738 1.4774674 0.079550654 100
-0.80379504 1.4831713 0.13387123 100
-0.79237372 1.4825511 0.026527658 45
-0.78544587 1.4788737 0.079236634 42
-0.8050676 1.4892892 0.13421984 78
0.15054801 1.2673512 0.011134636 12
0.13727728 1.2838743 0.03454173 27
0.16074082 1.2546602 0.054385185 25
0.14553353 1.2735946 0.12555231 18
0.19733545 1.2090969 0.13002171 8
0.15200308 1.2655394 0.17030293 7
0.16483837 1.253175 0.010785587 39
0.16406268 1.2541482 0.032448292 59
0.15382633 1.2669894 0.055605363 49
0.15156519 1.2698259 0.078483857 14
0.15844053 1.261201 0.099492319 12
0.15350083 1.2673978 0.12364423 67
0.18072644 1.2332439 0.13677025 15
0.14659685 1.2760586 0.17340876 14
0.16271889 1.2591531 0.010890301 100
0.16814983 1.2522936 0.032238949 100
0.1554766 1.2683004 0.055605363 98
0.16431487 1.2571373 0.076290213 29
0.16988108 1.2501069 0.096989371 25
0.16490176 1.2563961 0.12059128 100
0.19315156 1.2207153 0.13272113 39
0.14947641 1.2758789 0.17289113 35
0.16204327 1.2637138 0.010960111 100
0.17362216 1.2489786 0.031924933 100
0.15115052 1.277576 0.056476921 100
0.1538378 1.2741562 0.078727596 28
0.17164332 1.2514969 0.096989371 25
0.1666871 1.2578042 0.12059128 100
0.19360185 1.2235525 0.13317102 46
0.14536518 1.2849385 0.17547931 42
0.15999168 1.269727 0.011064826 100
0.18012783 1.243926 0.031506244 100
0.15896496 1.2710426 0.055605363 98
0.17016774 1.2566881 0.075802729 30
0.18782628 1.2340618 0.093234941 26
0.16709891 1.2606204 0.1209729 100
0.18671513 1.2354856 0.13632034 30
0.15896067 1.2710481 0.17030293 43
0.17039758 1.2600865 0.010820492 91
0.17697522 1.2515945 0.031924933 61
0.16812432 1.2630215 0.054559495 76
0.17316967 1.2565076 0.07555899 30
0.16533694 1.2666202 0.099492319 24
0.18813506 1.2371866 0.11486702 40
0.18245706 1.2445172 0.13856985 29
0.15725079 1.2770598 0.17185585 36
0.17568266 1.2565877 0.010715778 66
0.17248535 1.2607441 0.032448292 29
0.1673317 1.2674435 0.054908119 50
0.18809915 1.2404472 0.072877869 47
0.19107485 1.2365789 0.093234941 39
0.17651868 1.255501 0.11906482 13
0.18284443 1.247278 0.13901976 22
0.15540072 1.282953 0.17340876 57
0.16394418 1.2753055 0.011099731 75
0.1668396 1.2715157 0.033076324 29
0.17382169 1.2623769 0.054210871 51
0.1824303 1.2511091 0.074340299 46
0.18183082 1.2518939 0.096050762 51
0.19720092 1.231776 0.11295892 20
0.20809069 1.2175225 0.13002171 32
0.16648647 1.2719779 0.16926765 59
0.17650059 1.2622457 0.010785587 52
0.18057743 1.2568727 0.032029606 30
0.1730479 1.2667961 0.054559495 50
0.1900273 1.2444184 0.073121607 62
0.19537121 1.2373755 0.092922069 53
0.19754747 1.2345073 0.11334054 13
0.20957661 1.2186538 0.13002171 48
0.16932094 1.271708 0.16875002 66
0.17607492 1.2669368 0.010855397 39
0.1657227 1.2806946 0.033495013 28
0.18702459 1.2523849 0.05281638 53
0.19312817 1.2442734 0.072877869 47
0.20437649 1.2293247 0.091044858 54
0.19469327 1.2421935 0.11486702 13
0.2043502 1.2293596 0.13272113 47
0.17946878 1.2624264 0.16512655 68
0.18730107 1.2553593 0.010576159 54
0.17937401 1.2659671 0.032448292 29
0.1766997 1.2695459 0.054559495 50
0.18400833 1.2597656 0.075071514 60
0.20353663 1.233633 0.091670595 54
0.21271405 1.221352 0.10952436 14
0.20354235 1.2336254 0.13362093 38
0.18226016 1.262105 0.16460891 69
0.19487113 1.2485304 0.010401634 83
0.20244533 1.2383242 0.030564198 32
0.17717096 1.2723811 0.054733805 50
0.19391549 1.249818 0.073365346 62
0.19801271 1.244297 0.093547814 65
0.21772262 1.2177383 0.10837951 14
0.21437243 1.2222526 0.13002171 32
0.18389407 1.2633218 0.16460891 69
0.19171444 1.2561443 0.010541254 81
0.20044547 1.2442975 0.030878214 63
0.17883897 1.2736146 0.054733805 75
0.1966863 1.2493982 0.073121607 78
0.20075941 1.2438716 0.093234941 92
0.20639688 1.2362223 0.1125773 13
0.21934241 1.218657 0.128672 32
0.185532 1.264533 0.16460891 69
0.1889492 1.2640367 0.010680873 80
0.21885076 1.2231214 0.029412808 67
0.18321475 1.2718832 0.054385185 76
0.20095614 1.2476072 0.072634131 78
0.20732668 1.2388902 0.091983467 93
0.21290478 1.2312576 0.11105084 14
0.23149467 1.2058204 0.12462288 16
0.1829606 1.2722311 0.16667947 67
0.19528764 1.2587576 0.010541254 81
0.20862406 1.2403814 0.030459527 65
0.18137032 1.2779343 0.054908119 100
0.20254186 1.248762 0.072634131 78
0.21468478 1.2320304 0.090419121 82
0.20636424 1.2434952 0.11372216 13
0.23294163 1.2068743 0.12462288 16
0.18916687 1.2671914 0.16460891 69
0.19699588 1.2599928 0.010541254 95
0.21143556 1.2399497 0.030354854 65
0.19246253 1.2662854 0.053513627 100
0.20421517 1.249972 0.072634131 63
0.21514493 1.2348008 0.090731993 95
0.2114619 1.239913 0.1125773 13
0.24813777 1.1890045 0.11922406 17
0.19316304 1.265313 0.16357364 69
0.20560372 1.2514026 0.010331824 98
0.21299583 1.2410698 0.030354854 97
0.19411024 1.2674683 0.053513627 100
0.20811874 1.247887 0.072146654 79
0.21324006 1.2407284 0.091670595 100
0.21530664 1.2378397 0.11181407 14
0.24385965 1.1979278 0.12147357 17
0.1981796 1.2617801 0.16202073 70
0.20737046 1.2526616 0.010331824 98
0.21703687 1.2390445 0.030145511 65
0.19939587 1.2638954 0.05299069 100
0.20642534 1.253993 0.072877869 100
0.21611106 1.2403487 0.09135773 94
0.21247786 1.2454668 0.11334054 20
0.22963762 1.2212939 0.1277722 16
0.20222095 1.2599157 0.16098544 80
0.20436445 1.2603329 0.010471444 96
0.21284056 1.2483084 0.03066887 96
0.19759187 1.2699407 0.053513627 100
0.21832556 1.2405272 0.070684217 65
0.22450128 1.231766 0.089480512 97
0.1936962 1.2754674 0.12020966 57
0.23113593 1.2223538 0.1277722 32
0.19271719 1.2768562 0.16616182 91
0.21066374 1.2549826 0.010331824 98
0.2156572 1.2478459 0.030564198 97
0.20162356 1.2679029 0.053165004 100
0.2131418 1.251441 0.072146654 63
0.21592295 1.2474661 0.092296332 100
0.19771382 1.2734908 0.11944643 100
0.23048249 1.2266575 0.128672 65
0.19781116 1.2733517 0.16460891 93
0.21227387 1.2561052 0.010331824 98
0.2195228 1.2456715 0.030354854 97
0.20555019 1.265783 0.05281638 100
0.20567909 1.2655973 0.07409656 61
0.22539777 1.2372154 0.090106249 96
0.21506783 1.2520838 0.11410378 100
0.22643912 1.2357166 0.13092151 96
0.20499355 1.2665842 0.16202073 86
0.2140578 1.2573397 0.010331824 98
0.21786776 1.2518128 0.03066887 96
0.20510805 1.2703229 0.053165004 100
0.22214434 1.2456089 0.070927955 48
0.21702212 1.2530396 0.092922069 100
0.22352254 1.2436097 0.11181407 98
0.22483015 1.2417127 0.13227122 94
0.20681593 1.2678453 0.16202073 70
0.21341679 1.2617514 0.010401634 97
0.23187643 1.2347817 0.029517479 67
0.21352115 1.2615989 0.052119136 100
0.22708699 1.2417792 0.07019674 66
0.22308874 1.2476207 0.091670595 100
0.22509488 1.2446897 0.11181407 98
0.2296983 1.237964 0.13092151 100
0.21174219 1.2641981 0.1604678 72
0.21297458 1.2662904 0.010471444 82
0.23021594 1.2409015 0.029831495 66
0.20860934 1.2727184 0.053165004 100
0.21878138 1.2577395 0.072390392 100
0.23371956 1.2357422 0.089167647 100
0.22021922 1.2556221 0.11410378 100
0.24017394 1.2262377 0.1273223 100
0.20812929 1.2734253 0.163056 70
0.21797594 1.2624313 0.010366729 41
0.21949705 1.2601753 0.030982886 31
0.20916444 1.2754998 0.053339314 52
0.22372991 1.2538974 0.071659178 80
0.23637006 1.2351506 0.088854775 98
0.21634364 1.2648522 0.11601187 99
0.23297307 1.2401887 0.13092151 96
0.21952057 1.2601404 0.15839726 73
0.22645408 1.2536722 0.0101573 42
0.23906365 1.234822 0.029308135 34
0.22763619 1.2519051 0.05072464 56
0.22992057 1.2484902 0.070684217 81
0.2358804 1.2395808 0.089480512 97
0.23344174 1.2432263 0.11066922 100
0.23903257 1.2348685 0.1291219 96
0.22024512 1.2629541 0.15891489 73
0.22584713 1.258074 0.01022711 28
0.21850723 1.2691257 0.031401575 31
0.2171109 1.2712281 0.05264207 53
0.23370552 1.2462418 0.07019674 82
0.23634645 1.2422653 0.089793384 100
0.23501274 1.2442734 0.11066922 92
0.24057585 1.2358972 0.1291219 96
0.21760646 1.2704819 0.16098544 72
0.22323734 1.2659382 0.010366729 27
0.22473434 1.2636662 0.030982886 31
0.22991216 1.2558076 0.050898954 55
0.23545316 1.2473979 0.07019674 99
0.23699266 1.2450613 0.090106249 96
0.23675317 1.2454247 0.11066922 92
0.24442986 1.2337736 0.12822211 89
0.21838018 1.2733101 0.16150309 70
0.2226944 1.270366 0.010436539 27
0.22199982 1.2714278 0.031401575 31
0.22716224 1.2635357 0.051596198 54
0.23703802 1.2484382 0.07019674 82
0.24613923 1.2345248 0.087916173 84
0.23725674 1.2481039 0.11105084 98
0.25130334 1.2266302 0.12597258 99
0.22110856 1.2727903 0.16098544 72
0.22662064 1.2681508 0.010366729 41
0.23245209 1.2591678 0.030564198 32
0.23322633 1.2579751 0.050898954 55
0.23762912 1.2511928 0.070440479 65
0.25206488 1.2289553 0.086664692 86
0.23678958 1.2524861 0.11181407 98
0.25077695 1.2309391 0.12687239 99
0.22917691 1.2642131 0.15787962 73
0.23477384 1.2591352 0.0101573 57
0.24705917 1.2400723 0.029308135 34
0.23160836 1.2640471 0.051421888 55
0.23277447 1.2622377 0.071902916 96
0.247168 1.2399032 0.08854191 100
0.24583587 1.2419703 0.10914274 85
0.25125149 1.233567 0.1273223 89
0.22663155 1.2717696 0.15995017 72
0.2494117 1.2400168 0.0097384425 75
0.24116939 1.2529049 0.03004084 66
0.23333487 1.2651556 0.051421888 82
0.23877269 1.2566526 0.070927955 48
0.25093865 1.2376292 0.087916173 84
0.25065842 1.2380674 0.10799789 87
0.24552199 1.246099 0.13047162 88
0.23462996 1.2631304 0.15684435 74
0.24025413 1.2578931 0.010087491 71
0.25454774 1.2353787 0.028889447 100
0.22857139 1.2762952 0.052467756 80
0.24889985 1.2442749 0.068978049 50
0.25249103 1.2386184 0.087916173 84
0.24274197 1.2539744 0.11143246 91
0.25650272 1.2322993 0.12642249 90
0.23108986 1.2723281 0.15943253 65
0.24639097 1.2523096 0.0099478718 73
0.25101686 1.244961 0.029412808 100
0.23051777 1.2775257 0.052467756 80
0.25283819 1.2420677 0.068490572 67
0.25850195 1.2330703 0.086664692 71
0.25192371 1.2435204 0.10876112 79
0.25827998 1.2334229 0.12642249 99
0.2268461 1.2833583 0.16253836 63
0.23633558 1.271968 0.010331824 84
0.25471032 1.2425623 0.029203463 100
0.23748156 1.270134 0.051596198 82
0.24388587 1.2598851 0.070927955 48
0.26003915 1.2340344 0.086664692 57
0.24621305 1.2561607 0.11143246 91
0.26188371 1.2310824 0.12552269 90
0.24595356 1.2565761 0.15373851 68
0.24968097 1.254365 0.0099478718 87
0.24794191 1.2571698 0.03004084 99
0.23922926 1.2712219 0.051596198 82
0.24768987 1.2575763 0.070440479 65
0.2616607 1.2350438 0.086664692 71
0.25722286 1.2422012 0.10799789 72
0.25938734 1.2387103 0.1273223 89
0.24358189 1.2642019 0.15580906 67
0.24814448 1.2604673 0.010052586 86
0.24851227 1.2598698 0.030145511 100
0.2408931 1.2722497 0.051596198 82
0.25971293 1.2416704 0.068003096 51
0.2611337 1.2393619 0.087290429 71
0.25467429 1.2498574 0.10952436 85
0.25787902 1.2446502 0.128672 97
0.24117219 1.2717962 0.15787962 65
0.25411162 1.254743 0.0099129668 87
0.25967506 1.2456286 0.029203463 100
0.24169797 1.2750798 0.051770512 81
0.2583409 1.2478143 0.068734311 50
0.25873917 1.2471619 0.08854191 70
0.26052654 1.2442336 0.10799789 72
0.27383503 1.2224308 0.12237337 93
0.24301344 1.2729247 0.15787962 65
0.25157592 1.2625628 0.010052586 86
0.26332375 1.2431723 0.028994121 100
0.24440697 1.2743955 0.051596198 82
0.26507011 1.2402899 0.067515619 51
0.27055901 1.2312303 0.085413218 58
0.25497958 1.2569448 0.11066922 92
0.27533689 1.2233441 0.12237337 85
0.24067873 1.280549 0.15995017 64
0.25132343 1.2670813 0.010122396 85
0.26917461 1.2373719 0.028575432 100
0.25036234 1.2686808 0.050898954 83
0.25452694 1.2617497 0.070440479 49
0.2722514 1.2322513 0.085413218 58
0.26283321 1.2479258 0.10837951 72
0.27198192 1.2326998 0.12462288 92
0.25250185 1.26512 0.15477379 67
0.27038535 1.2388718 0.0095290141 92
0.25742725 1.2606007 0.029936166 100
0.2571201 1.2611157 0.050027397 85
0.26225978 1.2524972 0.068978049 50
0.2737858 1.2331698 0.085413218 58
0.26341408 1.2505617 0.10876112 79
0.27451596 1.2319455 0.12417299 92
0.25711378 1.2611263 0.15322088 68
0.26701608 1.2484996 0.0097035384 90
0.25821069 1.2633889 0.03004084 99
0.25182265 1.2741904 0.051247578 82
0.26908264 1.2450054 0.067759357 34
0.26542976 1.251182 0.08854191 70
0.26817548 1.2465392 0.10761628 79
0.2772029 1.2312746 0.12372308 75
0.25399888 1.2705106 0.15580906 67
0.26455554 1.2563338 0.0098431576 88
0.27400216 1.2402389 0.028575432 100
0.25349623 1.2751764 0.051247578 82
0.27166417 1.2442223 0.067515619 51
0.27402633 1.2401977 0.086351827 58
0.2697573 1.2474712 0.10761628 87
0.27873406 1.2321768 0.12372308 100
0.25761598 1.2681572 0.15477379 67
0.26231644 1.2642899 0.0099827768 87
0.27271354 1.2464259 0.028889447 100
0.25935864 1.2693719 0.05055033 84
0.27140707 1.2486706 0.068003096 51
0.27475789 1.2429132 0.086664692 86
0.26953408 1.2518888 0.10837951 79
0.28337061 1.2281152 0.12237337 93
0.25944379 1.2692256 0.15477379 67
0.26595744 1.2617779 0.0099129668 87
0.27129814 1.2525313 0.029203463 100
0.26300922 1.2668823 0.050201707 100
0.26902455 1.2564677 0.068978049 50
0.28423154 1.230139 0.084161744 59
0.266224 1.2613164 0.1102876 78
0.2887899 1.2222469 0.12057377 86
0.26895788 1.2565831 -0.0098082526 88
0.26496574 1.2634948 0.15270324 68
0.27173698 1.2558746 0.0097733475 89
0.27108341 1.2570158 0.029412808 100
0.26879296 1.2610152 0.049504463 86
0.2727825 1.2540491 0.068490572 50
0.28395638 1.2345383 0.084787481 73
0.27290511 1.253835 0.10837951 94
0.279796 1.2418027 0.12552269 99
0.26577419 1.2662863 -0.0099827768 86
0.2725369 1.2544779 0.14959741 78
0.27828991 1.2481019 0.0095988233 91
0.27467361 1.2544652 0.029203463 100
0.26550063 1.270606 0.05037602 84
0.2832166 1.2394329 0.06629692 70
0.28257024 1.2405703 0.08572609 58
0.28130129 1.2428031 0.10570818 73
0.28136206 1.2426962 0.12552269 74
0.26841792 1.2654728 0.15270324 68
0.27308673 1.2612414 0.0098431576 88
0.27832791 1.2519436 0.028994121 100
0.26920655 1.2681248 0.050027397 85
0.27120975 1.2645712 0.069709264 83
0.2851845 1.2397801 0.085413218 58
0.2810252 1.2471586 0.10647142 81
0.29066923 1.2300502 0.12192347 76
0.26825187 1.2698184 0.15373851 68
0.27276489 1.2656474 0.0099129668 87
0.28382757 1.2458694 0.028575432 100
0.27183256 1.2673143 0.049853086 85
0.28351092 1.2464355 0.067028143 51
0.29349396 1.2285875 0.083223134 60
0.27685866 1.2583286 0.10876112 79
0.29124492 1.2326084 0.12237337 85
0.27178872 1.2673926 -0.0099478718 86
0.26991087 1.27075 0.15373851 68
0.2707043 1.2736554 0.010052586 86
0.28169912 1.2538284 0.028994121 100
0.26882601 1.2770426 0.05072464 84
0.28525892 1.247409 0.067028143 51
0.29326051 1.2329797 0.083848871 59
0.27769819 1.2610433 0.10914274 85
0.29672247 1.2267368 0.12057377 77
0.2745834 1.2666602 -0.0099129668 97
0.27924308 1.2582574 0.14959741 70
0.28201574 1.2570587 0.0097035384 90
0.28523064 1.2512157 0.028784776 100
0.27723214 1.2657529 0.049504463 86
0.27727419 1.2656765 0.069465525 49
0.29670173 1.2303671 0.083223134 60
0.28973851 1.2430227 0.10494494 82
0.29448083 1.2344036 0.12237337 85
0.27719587 1.2658188 -0.0098780617 87
0.27713862 1.2659228 0.15166797 69
0.29154578 1.2440386 0.0094242999 93
0.28134388 1.2627501 0.029412808 100
0.2839064 1.2580502 0.048632905 88
0.28678146 1.252777 0.067515619 51
0.29279771 1.2417424 0.085100345 58
0.28873733 1.2491896 0.1060898 88
0.2962659 1.2353812 0.12237337 76
0.28181913 1.2618785 0.15011504 78
0.29026493 1.2501696 0.0095290141 76
0.29058138 1.2495847 0.028575432 100
0.28363043 1.2624348 0.048981529 87
0.28932831 1.2519011 0.067271881 34
0.29032779 1.2500534 0.1060898 81
0.29966488 1.232792 0.12147357 86
0.2825326 1.2644644 0.15063268 78
0.28627104 1.2616464 0.0097384425 75
0.29603347 1.2434471 0.028156744 100
0.2815837 1.2703846 0.049678773 86
0.2919504 1.2510588 0.067028143 51
0.29974976 1.2365192 0.083848871 59
0.29293311 1.2492268 0.10570818 73
0.28059945 1.2722194 -0.0099478718 86
0.28060746 1.2722045 0.15270324 68
0.28986701 1.2590331 0.0096686333 75
0.29581174 1.2478573 0.028366089 100
0.29268879 1.2537284 0.047935657 89
0.28990218 1.2589669 0.068003096 51
0.28907552 1.2605209 0.10799789 72
0.28986701 1.2590331 -0.0096686333 89
0.28780559 1.2629085 0.14959741 70
0.29352644 1.2564454 0.0095988233 91
0.29383889 1.2558527 0.028784776 100
0.29260501 1.258193 0.048284281 88
0.28984445 1.2634289 0.068490572 50
0.29820022 1.2475808 0.10494494 75
0.29539168 1.2529076 -0.0095290141 90
0.29321793 1.2570305 0.14752686 71
0.29429954 1.2591099 0.0096337283 90
0.29368576 1.2602839 0.028994121 100
0.29061845 1.2661512 0.048981529 87
0.29156843 1.264334 0.068490572 50
0.2931295 1.261348 0.14856213 71
0.29584849 1.2598894 0.048284281 88
0.29467437 1.2621526 0.14856213 71
0.2911807 1.2731757 0.049504463 57
0.29666862 1.2625066 0.068003096 68
0.29206097 1.2714643 -0.0098431576 100
0.29109201 1.2733482 0.15166797 69
0.29965499 1.2611178 0.028889447 69
0.29117623 1.2777512 -0.0099478718 100
0.29995733 1.2605247 0.14752686 79
