# .PCD v0.7 - Point Cloud Data file format
VERSION 0.7
FIELDS x y z intensity
SIZE 4 4 4 4
TYPE F F F F
COUNT 1 1 1 1
WIDTH 722
HEIGHT 1
VIEWPOINT 0 0 0 1 0 0 0
POINTS 722
DATA ascii
0.076563388 0.0013418198 0.047311705 90
0.053938657 0.0014423132 0.047939736 66
0.048118889 0.010012388 0.047730394 100
0.03993696 0.0034549832 0.048253752 87
0.039754629 0.0083797574 0.04804441 63
0.031512022 0.0018883944 0.048567768 25
0.034317672 0.01205045 0.04804441 27
0.026028872 0.0056182742 0.048567768 16
0.026768804 0.012382209 0.048253752 8
0.030971766 0.024049938 0.047625721 9
0.016906679 0.0095116496 0.048672438 8
-1.0444665 1.1351815 0.028552137 5
-1.03863 1.1338449 0.085412279 5
-1.021162 1.1298442 0.14101799 6
-1.0159149 1.1343998 0.028063469 10
-0.99260885 1.1289763 0.083004825 24
-1.0315397 1.1380358 0.14206386 37
-0.99711877 1.1357234 0.027749326 28
-0.98940271 1.1338993 0.082900152 88
-1.0224895 1.1417208 0.14136662 84
-0.99194378 1.140188 0.027679516 38
-0.99783343 1.1416019 0.083423518 100
-1.0114956 1.144882 0.14049506 87
-0.98092824 1.1432 0.027504992 42
-0.97906297 1.1427454 0.082481466 100
-0.99082047 1.1456115 0.13875194 92
-0.98155731 1.1490221 0.027539898 23
-0.98550767 1.1499997 0.082900152 99
-0.99336809 1.151945 0.13910057 92
-0.96664876 1.1509558 0.027295563 26
-0.97448641 1.1529245 0.082376793 54
-1.0074844 1.161213 0.14049506 74
-0.96918529 1.1572354 0.027365373 39
-0.97701126 1.1592302 0.082586139 36
-0.99838668 1.1646788 0.13979781 74
-0.97750431 1.1650394 0.027539898 53
-0.96984237 1.1630579 0.08227212 70
-0.98349708 1.1665893 0.13857763 89
-0.96257633 1.1668169 0.027295563 67
-0.98005229 1.1714017 0.082900152 100
-0.97246748 1.1694119 0.13770607 92
-0.94572228 1.1679809 0.027016325 78
-0.96320099 1.1726316 0.082062781 92
-0.96721321 1.1736991 0.13735744 100
-0.95204657 1.1752832 0.027155945 92
-0.94828826 1.1742692 0.081330076 98
-0.96964198 1.1800308 0.13770607 100
-0.95448035 1.1815792 0.027225753 92
-0.93338269 1.1758076 0.080597371 100
-0.972045 1.1863844 0.1380547 99
-0.9531073 1.186566 0.027225753 93
-0.94550186 1.1844583 0.081330076 98
-0.95913571 1.1882367 0.13700883 92
-0.94009286 1.1885656 0.027016325 92
-0.93827742 1.1880556 0.081016064 86
-0.9538303 1.1924244 0.1366602 99
-0.93677336 1.1929574 0.026981421 71
-0.94264609 1.1946281 0.081330076 78
-0.95050484 1.1968639 0.13648589 100
-0.95642394 1.2042373 0.027365373 52
-0.92388266 1.1948571 0.080388032 38
-0.95283455 1.2032027 0.13683452 98
-0.94330579 1.2063903 0.027155945 46
-0.91848141 1.1991358 0.080178685 22
-0.9550615 1.2098256 0.13718314 84
-0.93218619 1.2087622 0.026981421 71
-0.92655009 1.2070937 0.080702044 26
-0.94587535 1.2128145 0.13648589 87
-0.9191528 1.2104875 0.026771991 74
-0.91736287 1.2099508 0.080283359 30
-0.92523593 1.2123113 0.13474278 98
-0.91186601 1.2138702 0.026667276 78
-0.91772932 1.2156504 0.080388032 80
-0.92940229 1.2191948 0.13526571 100
-0.91795331 1.2213209 0.026806897 85
-0.91043752 1.2190102 0.080074012 98
-0.92401654 1.2231851 0.1349171 99
-0.91255027 1.2252536 0.026737086 83
-0.89551228 1.2199502 0.079341307 89
-0.9319374 1.2312884 0.13578865 77
-0.91858119 1.2327601 0.026876707 85
-0.90726727 1.229195 0.080074012 70
-0.90751475 1.229273 0.13369691 50
-0.89790553 1.2318071 0.026527658 81
-0.90565556 1.234279 0.080074012 76
-0.90780097 1.2349633 0.13387123 42
-0.89264113 1.2351264 0.026457848 83
-0.90799159 1.2400756 0.080283359 84
-0.90822929 1.2401521 0.13404553 45
-0.88340443 1.2376783 0.02631823 99
-0.88925308 1.2395865 0.079341307 100
-0.9160499 1.2483294 0.1349171 59
-0.88935882 1.2451864 0.026457848 99
-0.88950175 1.2452337 0.07944598 100
-0.91247934 1.2528194 0.13474278 77
-0.89527804 1.2527419 0.026597468 100
-0.88593966 1.2496228 0.079341307 100
-0.90322596 1.2553966 0.13404553 82
-0.87076682 1.2503502 0.02617861 93
-0.8879562 1.2561619 0.079550654 100
-0.8957749 1.2588054 0.1335226 86
-0.86908132 1.2553067 0.02617861 96
-0.89003009 1.262471 0.07976 100
-0.89028937 1.2625597 0.13317397 100
-0.86737865 1.2602574 0.02617861 92
-0.87320203 1.2622715 0.078922622 100
-0.88479549 1.2662816 0.13282534 99
-0.87698406 1.2691636 0.026388038 83
-0.85450774 1.2613013 0.077980578 91
-0.90562218 1.2791812 0.1349171 59
-0.87343556 1.2732263 0.026353134 74
-0.860403 1.2686189 0.078399263 55
-0.88889796 1.2786927 0.1335226 43
-0.85660619 1.2728071 0.026073895 88
-0.85489243 1.2721946 0.078189917 21
-0.87960905 1.2810297 0.13282534 43
-0.84920055 1.2756751 0.025969181 96
-0.87191445 1.2838839 0.079236634 46
-0.87032133 1.2833081 0.1321281 26
-0.84742695 1.2805561 0.025969181 93
-0.85510427 1.283361 0.078399263 89
-0.86852092 1.2882628 0.1321281 15
-0.84947819 1.2865722 0.026038991 100
-0.84777313 1.2859428 0.078085244 100
-0.87800926 1.2971036 0.13317397 7
-0.85141355 1.2928522 0.0261088 100
-0.83847851 1.2880263 0.077666558 87
-0.87242717 1.3006921 0.13282534 1
-0.83451992 1.2923381 0.025829561 100
-0.84217662 1.2952268 0.077980578 51
-0.86301607 1.3030889 0.1321281 1
-0.83642524 1.2985927 0.025899371 79
-0.84593338 1.3022177 0.07829459 53
-0.84439152 1.30163 0.1305593 13
-0.83270568 1.3027101 0.025864467 71
-0.83288473 1.3027791 0.077666558 63
-0.85926002 1.3129406 0.1321281 52
-0.8382917 1.3104351 0.026004085 75
-0.82915539 1.3068786 0.077561885 68
-0.85735613 1.3178566 0.1321281 100
-0.83276969 1.3135726 0.025934275 90
-0.82736748 1.3114491 0.077561885 61
-0.8351348 1.3145024 0.13021068 100
-0.81785446 1.3132296 0.025689943 100
-0.82918149 1.3177279 0.077771232 89
-0.82767051 1.3171279 0.12968774 99
-0.81585413 1.3182392 0.025689943 100
-0.82901829 1.3235233 0.077875905 95
-0.82750493 1.3229158 0.12986206 100
-0.81022578 1.321501 0.025620133 100
-0.81782311 1.3245813 0.077352546 97
-0.83664495 1.3322124 0.13090792 100
-0.81579214 1.3290386 0.025759751 100
-0.81782502 1.3298707 0.077457212 100
-0.82370955 1.3322792 0.12986206 100
-0.81752843 1.3353306 0.025829561 100
-0.80109626 1.3285377 0.076619841 100
-0.81253213 1.3332652 0.1289905 100
-0.8057074 1.3304439 0.18012288 22
-0.80078405 1.3339374 0.025550323 100
-0.79545218 1.3317115 0.076410495 100
-0.81423479 1.3395531 0.12933913 100
-0.78542417 1.3275249 0.1776855 18
-0.79153544 1.3353076 0.025410704 100
-0.79910368 1.3384968 0.076724514 99
-0.8013224 1.3394318 0.12829325 100
-0.79088527 1.3350337 0.17866045 24
-0.78955406 1.339987 0.025410704 92
-0.79343539 1.3416386 0.076515168 67
-0.80849308 1.3480457 0.12916481 100
-0.75237256 1.3241662 0.17378569 16
-0.81705552 1.3570508 0.025969181 57
-0.80988437 1.3539712 0.077561885 46
-0.8102302 1.3541198 0.12951343 26
-0.7760641 1.339448 0.17719802 5
-0.81856376 1.3636489 0.026038991 94
-0.80407029 1.357362 0.077352546 97
-0.82270283 1.3654443 0.13090792 48
-0.78125256 1.3474642 0.17817298 10
-0.7909413 1.3569579 0.025550323 100
-0.81309301 1.3666543 0.077980578 100
-0.80976957 1.3651996 0.12986206 100
-0.79024142 1.3566517 0.17963541 28
-0.78512305 1.3602517 0.025480513 100
-0.81455046 1.3732615 0.078189917 100
-0.81486791 1.3734018 0.1305593 100
-0.78626662 1.3607574 0.17939167 33
-0.79228956 1.368749 0.025655037 100
-0.80159837 1.3729013 0.077561885 100
-0.81285948 1.3779246 0.1305593 100
-0.76979691 1.3587158 0.17744176 30
-0.79555577 1.3761287 0.025759751 100
-0.79937953 1.3778511 0.077561885 100
-0.8142553 1.3845522 0.13090792 100
-0.76401049 1.3619186 0.17695428 22
-0.80082041 1.3838968 0.025899371 100
-0.80281132 1.3848016 0.077875905 100
-0.80495447 1.3857756 0.13021068 100
-0.78372699 1.3761284 0.17987914 17
-0.79129142 1.3855076 0.025759751 100
-0.81325561 1.3955867 0.07860861 100
-0.79906672 1.3890756 0.12986206 100
-0.7833007 1.3818407 0.18012288 14
-0.79468709 1.3924723 0.025864467 100
-0.81298608 1.400943 0.078713275 100
-0.80966288 1.3994048 0.13108224 100
-0.76144856 1.3770857 0.17744176 9
-0.78877336 1.3957032 0.025794657 100
-0.8034268 1.4025518 0.07829459 100
-0.80915183 1.4052274 0.13125655 100
-0.75022286 1.3776858 0.17622307 5
-0.79935259 1.4061081 0.026038991 100
-0.8013218 1.4070364 0.07829459 100
-0.81064218 1.4114302 0.13160518 100
-0.75717837 1.3862264 0.17744176 3
-0.80615288 1.4151094 0.026213514 100
-0.802697 1.4134655 0.078503937 100
-0.80839497 1.4161758 0.13160518 100
-0.79499155 1.4152781 0.026038991 100
-0.80415732 1.4196755 0.078713275 100
-0.80265194 1.4189532 0.13125655 100
-0.78901786 1.4184601 0.025969181 100
-0.80895728 1.4281164 0.079131968 100
-0.80385071 1.4256434 0.13160518 100
-0.79045385 1.4246521 0.026038991 100
-0.80138344 1.4299898 0.078817949 100
-0.81241077 1.4353755 0.13265105 100
-0.7988072 1.4348655 0.02624842 100
-0.78641528 1.4287572 0.078085244 100
-0.81353706 1.4421263 0.13299966 100
-0.80017644 1.4411147 0.02631823 100
-0.80031997 1.4411861 0.079027295 100
-0.80416411 1.4430969 0.13230242 100
-0.79770762 1.4460589 0.02631823 100
-0.80142134 1.4479218 0.079236634 100
-0.79812628 1.4462689 0.13195379 100
-0.7883206 1.4469142 0.02617861 100
-0.80985934 1.4578083 0.079864666 100
-0.80654377 1.4561312 0.13299966 100
-0.78963131 1.4531653 0.02624842 100
-0.79867476 1.4577773 0.079341307 100
-0.81313556 1.4651518 0.13387123 100
-0.79447204 1.4612615 0.026388038 100
-0.79638654 1.4622457 0.079341307 100
-0.81791049 1.4733124 0.13456847 100
-0.80233473 1.4721819 0.026597468 100
-0.79714197 1.4694856 0.079550654 100
-0.80800325 1.4751253 0.13387123 100
-0.79291207 1.4729531 0.026457848 99
-0.80012339 1.4767278 0.079864666 100
-0.7985968 1.4759288 0.13317397 100
-0.77983969 1.4720351 0.02624842 88
-0.79764825 1.4814364 0.079864666 100
-0.80141026 1.4834223 0.13369691 100
-0.7898615 1.483017 0.026492752 19
-0.81134897 1.4944518 0.1349171 47
0.12836489 1.2925382 0.13051336 5
0.15115595 1.2678387 0.011134636 12
0.1241689 1.3015242 0.035693124 25
0.13392726 1.2893436 0.058220036 22
0.1275993 1.2972422 0.10700117 10
0.14246657 1.2786849 0.12669717 23
0.19787216 1.2095274 0.13002171 8
0.15260878 1.2660253 0.17030293 7
0.15414101 1.267663 0.011099731 75
0.17202982 1.2451737 0.03182026 61
0.15558729 1.2658447 0.055431053 49
0.15085307 1.2717965 0.078727596 14
0.17002243 1.2476972 0.096676499 25
0.15768838 1.2632033 0.12249938 87
0.18363801 1.2305801 0.13587044 15
0.15434265 1.2674094 0.17030293 21
0.16951364 1.2517793 0.010715778 100
0.16502577 1.2574619 0.032552965 100
0.16102505 1.2625277 0.054908119 100
0.15752837 1.2669553 0.077752642 28
0.17291653 1.2474705 0.096363634 37
0.16062915 1.263029 0.12211776 100
0.18041679 1.2379735 0.13767004 45
0.15129206 1.2748518 0.17237349 42
0.16749603 1.2578254 0.010820492 100
0.17412397 1.2493725 0.031924933 100
0.15168229 1.2779934 0.056476921 100
0.16049033 1.2667601 0.077508904 29
0.179461 1.2425659 0.095112152 25
0.1768893 1.2458457 0.11753834 100
0.19167212 1.2269925 0.13407083 46
0.14828867 1.2823215 0.17444403 42
0.16297254 1.2669797 0.010995016 100
0.1879873 1.2348584 0.030878214 95
0.15214485 1.2808834 0.056651235 95
0.16823822 1.260218 0.076290213 29
0.18103012 1.2437921 0.095112152 38
0.17485052 1.2517272 0.1186832 100
0.1943869 1.2266407 0.13362093 31
0.15355071 1.2790782 0.17289113 35
0.1659328 1.2667457 0.010960111 77
0.17739564 1.2519199 0.031924933 61
0.16977337 1.2617784 0.054385185 51
0.16873753 1.263118 0.076533951 59
0.17302006 1.2575791 0.097615108 24
0.18494034 1.2421618 0.11601187 19
0.18406326 1.243296 0.13811995 22
0.15296686 1.2835156 0.1739264 28
0.18106288 1.2506344 0.010576159 54
0.18151239 1.2500489 0.031715591 61
0.16542649 1.2710049 0.055256739 49
0.16925243 1.2660207 0.076777689 100
0.18915802 1.2400885 0.093860678 39
0.17822272 1.2543344 0.1186832 13
0.18809077 1.2414789 0.13722014 22
0.16064331 1.2772362 0.1713382 58
0.18516698 1.2487384 0.010506349 54
0.166242 1.273572 0.033180997 28
0.17200825 1.2660055 0.054559495 50
0.19264412 1.2389269 0.072390392 47
0.19080114 1.2413452 0.093860678 39
0.20252529 1.2259606 0.11143246 14
0.19564468 1.2349894 0.13497064 45
0.17178383 1.2663 0.16719711 67
0.18201429 1.2563878 0.010645968 40
0.16318196 1.2812796 0.033599682 28
0.1665293 1.2768552 0.055605363 49
0.19188777 1.2433375 0.072877869 47
0.20079148 1.2315689 0.091670595 54
0.19464281 1.239696 0.1144854 13
0.20785186 1.2222369 0.13092151 40
0.17235297 1.2691578 0.16771474 67
0.17650872 1.2672629 0.010855397 39
0.15537325 1.2954025 0.03443706 27
0.17428365 1.2702253 0.054733805 50
0.1899657 1.2493464 0.073609084 77
0.19765946 1.239103 0.092922069 53
0.19982168 1.2362242 0.11334054 13
0.20943254 1.2234285 0.13092151 40
0.17641807 1.2673836 0.16667947 67
0.18541884 1.258945 0.010645968 66
0.18586305 1.2583493 0.031924933 30
0.18317792 1.2619504 0.053687938 52
0.18570802 1.2585572 0.074827775 91
0.20402235 1.2339957 0.091670595 54
0.20027769 1.2390176 0.11372216 13
0.21101737 1.2246145 0.13092151 32
0.1816209 1.2640386 0.16512655 68
0.18950731 1.2570002 0.010576159 67
0.19707629 1.2467749 0.031087559 63
0.18371201 1.2648292 0.053862248 77
0.1885967 1.2582303 0.074584037 61
0.20329353 1.2383759 0.092296332 66
0.19958085 1.2433915 0.1144854 13
0.21028748 1.2289276 0.13182132 31
0.18909457 1.2575577 0.16253836 70
0.1957778 1.2516863 0.010436539 82
0.19029313 1.2591445 0.03182026 61
0.18172726 1.2707927 0.054385185 100
0.20424473 1.2401726 0.071659178 80
0.20125586 1.2442369 0.093234941 92
0.2092115 1.2334186 0.11181407 14
0.21865794 1.2205729 0.1291219 24
0.19177255 1.2571328 0.16202073 70
0.19864041 1.2513047 0.010401634 83
0.21202233 1.2329737 0.03004084 66
0.17760384 1.2801213 0.055256739 74
0.20705852 1.2397733 0.071415432 64
0.1982545 1.2518333 0.094486415 100
0.2062009 1.2409481 0.11334054 13
0.23057389 1.2075611 0.12507279 16
0.1866408 1.2677422 0.16512655 68
0.19345397 1.2623681 0.010611063 81
0.21145967 1.2375033 0.030250182 65
0.18657669 1.2718651 0.054210871 100
0.2030434 1.2491257 0.072634131 63
0.21169305 1.2371811 0.09135773 94
0.21261767 1.2359042 0.11181407 14
0.22882745 1.2135195 0.12642249 16
0.18742162 1.2706983 0.16564418 68
0.19050607 1.2701045 0.010750682 92
0.21192786 1.240304 0.030354854 65
0.20112291 1.2553351 0.052293446 80
0.20935264 1.2438865 0.071659178 80
0.21793783 1.2319432 0.090106249 96
0.21653786 1.2338908 0.11105084 14
0.23947716 1.2019792 0.12282328 8
0.19593713 1.2625492 0.16253836 78
0.19922304 1.2615896 0.010541254 95
0.21357158 1.2414812 0.030354854 97
0.19934735 1.2614155 0.05281638 100
0.20409071 1.2547679 0.073121607 62
0.21611017 1.2379235 0.091044858 100
0.20789605 1.2494351 0.1144854 20
0.23532736 1.210992 0.12507279 16
0.1999028 1.260637 0.16150309 70
0.20556444 1.2562838 0.010401634 97
0.22214592 1.2328737 0.029726824 100
0.20106485 1.2626364 0.05281638 100
0.20807973 1.2527326 0.072634131 63
0.21546203 1.24231 0.091670595 100
0.20957166 1.2506263 0.1144854 27
0.23011038 1.2216291 0.1277722 16
0.20050097 1.2634325 0.16202073 70
0.20487809 1.2606946 0.010471444 82
0.21678862 1.2437602 0.030354854 97
0.1935308 1.2768283 0.054210871 100
0.20854041 1.2554876 0.072877869 47
0.20907521 1.2547271 0.093860678 100
0.20213181 1.2645993 0.11753834 66
0.2327309 1.2210934 0.1273223 32
0.20213917 1.2645888 0.16202073 70
0.20659304 1.2618964 0.010471444 96
0.22301757 1.2383698 0.029936166 99
0.19758314 1.2748022 0.053862248 100
0.22046414 1.2420274 0.070684217 65
0.21981543 1.2429565 0.09135773 94
0.20610806 1.262591 0.1167751 100
0.22984535 1.2285897 0.1291219 72
0.20276186 1.2673841 0.16253836 70
0.20358196 1.2695457 0.010611063 81
0.22107616 1.2443185 0.030250182 65
0.20598298 1.2660834 0.05281638 100
0.20045567 1.2740539 0.075315252 100
0.23030829 1.2310054 0.088854775 100
0.21325111 1.2556025 0.11486702 94
0.23017713 1.2311946 0.12957181 96
0.20762879 1.26371 0.16098544 72
0.21439812 1.2575742 0.010331824 98
0.22613108 1.2405281 0.029936166 99
0.20093882 1.2771283 0.053862248 100
0.21234685 1.2605543 0.073121607 62
0.22967947 1.2353729 0.089480512 97
0.22385326 1.2438374 0.11181407 84
0.22736937 1.2387291 0.13137141 94
0.21811682 1.2521715 0.15684435 74
0.22069839 1.2521956 0.010192205 85
0.21096227 1.2664522 0.031506244 93
0.21066529 1.2668871 0.05264207 100
0.21414709 1.2617886 0.073121607 93
0.2280452 1.2414377 0.090419121 100
0.22559217 1.2450297 0.11181407 91
0.22689149 1.243127 0.13227122 94
0.21225992 1.264552 0.1604678 72
0.21452975 1.2649291 0.010436539 68
0.23735061 1.2312608 0.029203463 68
0.20122305 1.2845609 0.054385185 76
0.22923118 1.2432396 0.07019674 82
0.22969279 1.2425586 0.090419121 100
0.23165843 1.2396586 0.1102876 92
0.23510528 1.2345734 0.12957181 88
0.21507218 1.2641288 0.15995017 72
0.21179467 1.2727338 0.010576159 40
0.22112536 1.2588639 0.030878214 31
0.20524555 1.2824689 0.054036561 51
0.23420915 1.2394152 0.069465525 49
0.23244688 1.2420348 0.090106249 96
0.21905375 1.2619433 0.11524864 100
0.23999211 1.230819 0.12822211 97
0.21464241 1.2685007 0.16098544 72
0.21799317 1.267259 0.010436539 27
0.23170611 1.2467206 0.03004084 33
0.21699351 1.2687563 0.052467756 53
0.22703138 1.2537222 0.071415432 96
0.23629031 1.2398547 0.089480512 97
0.22731391 1.253299 0.11295892 82
0.23619208 1.2400018 0.13047162 100
0.21745726 1.2680616 0.1604678 72
0.2219401 1.265081 0.010366729 41
0.2024816 1.2944462 0.032971654 29
0.21653542 1.2732372 0.05281638 53
0.22981837 1.2531917 0.071171694 97
0.2422969 1.2343602 0.088229038 100
0.23334068 1.2478762 0.11143246 91
0.23891103 1.2394699 0.13002171 100
0.22453338 1.2611675 0.15787962 81
0.22806528 1.25954 0.01022711 28
0.18895057 1.3190186 0.03443706 27
0.22267306 1.2677395 0.052119136 54
0.24132356 1.2393792 0.068978049 100
0.23632196 1.2469847 0.090419121 96
0.24256182 1.2374963 0.10876112 87
0.23733941 1.2454376 0.13137141 94
0.22412691 1.2655288 0.15891489 73
0.22103274 1.2740576 0.010506349 40
0.20615137 1.2968595 0.032971654 29
0.2353017 1.2521942 0.05037602 56
0.24187893 1.2421162 0.069221787 100
0.2401481 1.2447683 0.089793384 97
0.24097657 1.2434988 0.10990598 85
0.24965155 1.2302067 0.12687239 99
0.22269109 1.2715166 0.1604678 72
0.23583898 1.2550619 0.010087491 43
0.23622173 1.2544709 0.030250182 32
0.22615588 1.2700126 0.052119136 54
0.23165843 1.2615166 0.071902916 100
0.24825031 1.235899 0.087916173 84
0.24476579 1.241279 0.10914274 85
0.25443789 1.2263453 0.12552269 99
0.22339353 1.2742776 0.16098544 72
0.23096028 1.2661932 0.010296919 42
0.25295246 1.2319894 0.028784776 34
0.22997084 1.2677319 0.051770512 54
0.23973167 1.2525512 0.070440479 49
0.2519336 1.2335739 0.087290429 85
0.23995957 1.2521968 0.11143246 91
0.25068316 1.2355187 0.1277722 97
0.23238117 1.2639832 0.15736198 74
0.23914793 1.257189 0.010087491 57
0.251344 1.2380745 0.029098792 68
0.23599693 1.2621276 0.051073264 83
0.24782452 1.2435906 0.068978049 50
0.2535536 1.2346115 0.087290429 71
0.24903673 1.2416906 0.10876112 79
0.24916533 1.2414892 0.1291219 96
0.23410743 1.2650889 0.15736198 74
0.24512932 1.2515131 0.0099478718 73
0.24870601 1.2458642 0.029517479 100
0.2387825 1.2615373 0.050898954 55
0.25160334 1.2412881 0.068490572 67
0.25306377 1.2389815 0.087916173 56
0.24438369 1.2526908 0.11105084 84
0.25394034 1.237597 0.1277722 81
0.23273724 1.2710853 0.15891489 65
0.24681199 1.2525744 0.0099478718 58
0.24611884 1.2536776 0.029936166 99
0.23308066 1.27443 0.052119136 81
0.25113815 1.2456886 0.068978049 50
0.2504991 1.2467058 0.089167647 70
0.25651479 1.2371308 0.10723466 88
0.26386806 1.2254268 0.12417299 100
0.23654374 1.268918 0.15787962 65
0.24100655 1.2654545 0.010192205 85
0.25195208 1.2479038 0.029517479 100
0.23791814 1.2704065 0.051596198 82
0.24851537 1.2534145 0.069953002 99
0.2562629 1.2409917 0.087916173 70
0.24663743 1.2564256 0.11143246 91
0.26847357 1.2214125 0.12282328 85
0.23002157 1.2830683 0.16202073 63
0.24063334 1.269931 0.010262015 98
0.25152013 1.2523382 0.029726824 100
0.24176365 1.2681044 0.051247578 82
0.24602631 1.261216 0.070927955 48
0.26726398 1.2268963 0.085100345 58
0.25350267 1.2491343 0.10952436 71
0.26389828 1.2323352 0.12552269 90
0.23994699 1.2710401 0.15787962 65
0.25284359 1.2539667 0.0099129668 87
0.25738582 1.2465689 0.029308135 100
0.24975923 1.25899 0.050201707 85
0.25709099 1.2470491 0.068734311 67
0.26575977 1.2329307 0.086038955 58
0.25620422 1.2484933 0.10914274 85
0.26347455 1.2366524 0.12642249 90
0.24574116 1.2655342 0.15580906 67
0.25557512 1.2532933 0.0098780617 73
0.25281653 1.2578214 0.029936166 99
0.2473217 1.2668412 0.050898954 83
0.26185629 1.2429829 0.068003096 51
0.26121113 1.2440419 0.087916173 70
0.26094049 1.2444861 0.10799789 79
0.2630775 1.2409782 0.1273223 89
0.24747273 1.2665932 0.15580906 67
0.25838256 1.2526577 0.0098431576 88
0.25977069 1.25036 0.029412808 100
0.25223571 1.2628312 0.05037602 84
0.25948557 1.250832 0.068978049 50
0.27010119 1.2332621 0.08572609 58
0.25760522 1.2539442 0.10990598 78
0.27085218 1.2320191 0.12462288 83
0.2452988 1.2743125 0.15787962 65
0.26212537 1.2502422 0.0097733475 89
0.26658359 1.242805 0.028889447 100
0.24678725 1.2758298 0.051596198 100
0.26728946 1.2416273 0.067515619 51
0.26359504 1.2477906 0.088229038 56
0.25525874 1.2616974 0.11143246 77
0.27847818 1.2229619 0.12192347 85
0.24507454 1.278687 0.15891489 65
0.25869283 1.2598379 0.0099478718 73
0.26823571 1.2437913 0.028889447 100
0.25670195 1.2631856 0.050201707 100
0.26284948 1.2528484 0.068978049 50
0.27738097 1.2284135 0.084474608 59
0.26099089 1.2559736 0.10990598 78
0.2770727 1.2289318 0.12327318 85
0.25277677 1.2697859 0.15580906 67
0.26243672 1.2574072 0.0098780617 73
0.26583171 1.2516527 0.029308135 100
0.25842527 1.2642064 0.050201707 85
0.26050186 1.2606866 0.069953002 49
0.27396396 1.237869 0.086038955 72
0.26169142 1.2586704 0.1102876 85
0.27669588 1.2332385 0.12417299 75
0.26041308 1.2608371 0.15270324 68
0.27516907 1.2393759 0.0094941091 92
0.26743048 1.2525924 0.029308135 100
0.25402543 1.2754866 0.051247578 100
0.26814881 1.2513657 0.068490572 50
0.26952827 1.2490097 0.087916173 56
0.27124944 1.2460701 0.10723466 81
0.27331024 1.2425506 0.12642249 90
0.26204234 1.2617948 0.15270324 68
0.26475665 1.2610824 0.0099129668 87
0.27212626 1.2483947 0.028994121 100
0.25779313 1.2730711 0.050898954 83
0.26584262 1.2592127 0.069465525 49
0.27715501 1.239737 0.086038955 72
0.26995471 1.2521333 0.10837951 94
0.27887657 1.2367731 0.12462288 92
0.25987956 1.2694789 0.15477379 67
0.26946759 1.2568772 0.0098082526 74
0.27878344 1.2407091 0.02847076 100
0.25656688 1.2792668 0.051421888 82
0.26457891 1.2653617 0.07019674 82
0.28076875 1.2372634 0.085413218 58
0.27555996 1.2463036 0.10685304 73
0.28731784 1.2258972 0.12147357 86
0.25969592 1.2738364 0.15580906 67
0.2711688 1.2578534 0.0098082526 89
0.28042817 1.2416528 0.02847076 100
0.26328963 1.2716391 0.05055033 84
0.27517509 1.2508439 0.068003096 51
0.28926295 1.2261952 0.083223134 60
0.27235323 1.2557811 0.10876112 79
0.28794381 1.2285032 0.12192347 76
0.27104256 1.2580743 0.15063268 70
0.27287343 1.2588238 0.0098082526 74
0.27222607 1.2599657 0.029517479 100
0.27388594 1.2570378 0.048981529 87
0.27489719 1.255254 0.068490572 50
0.28890851 1.2305394 0.083848871 59
0.27986008 1.2465 0.10647142 81
0.29242915 1.2243294 0.12057377 77
0.26892859 1.2657821 -0.0099478718 86
0.26893693 1.2657673 0.15270324 68
0.2814424 1.247587 0.0095639192 91
0.27198017 1.2644141 0.029726824 100
0.27070493 1.2666819 0.049853086 85
0.27172783 1.2648628 0.069709264 99
0.28277194 1.2452226 0.086351827 58
0.2824873 1.2457287 0.1060898 81
0.2921063 1.2286229 0.12147357 77
0.27066088 1.2667601 -0.0099478718 86
0.26688164 1.2734809 0.15477379 67
0.28311113 1.2485216 0.0095639192 91
0.28149056 1.2514272 0.028889447 100
0.27923378 1.2554734 0.048632905 88
0.28796092 1.239826 0.066053182 52
0.287319 1.2409769 0.085413218 58
0.27841175 1.2569473 0.10837951 79
0.29655644 1.2244146 0.12012386 86
0.27240485 1.2677174 0.15270324 68
0.27501693 1.2669004 0.0099129668 87
0.28889093 1.2418298 0.028261416 100
0.27119803 1.2738013 0.05037602 84
0.27990857 1.2580612 0.068490572 50
0.28888229 1.2418454 0.085413218 58
0.28287983 1.252692 0.10723466 81
0.29995188 1.2218424 0.11922406 96
0.26657367 1.2821575 0.15684435 66
0.28252593 1.2573391 0.0097035384 90
0.28285182 1.2567453 0.029098792 100
0.27679279 1.267785 0.049678773 86
0.2844792 1.2537802 0.067759357 34
0.29813442 1.2289004 0.082910269 60
0.28551099 1.2519004 0.10685304 73
0.28156379 1.2590921 -0.0097384425 88
0.2776581 1.2662083 0.15166797 69
0.28414348 1.2582234 0.0097035384 90
0.288288 1.2506124 0.028680105 100
0.28320915 1.2599392 0.048807215 88
0.2851356 1.2564015 0.068003096 68
0.29493412 1.2384074 0.084474608 59
0.29368269 1.2407055 0.10418171 75
0.29930544 1.2303797 0.12102367 86
0.28127453 1.2634921 -0.0098082526 88
0.28854382 1.2501426 0.14649157 81
0.29171747 1.2486815 0.0094941091 92
0.2863417 1.2586446 0.029098792 100
0.28793064 1.2556998 0.048284281 88
0.28889045 1.2539209 0.067515619 51
0.29767257 1.2376448 0.084161744 74
0.29362744 1.2451417 0.10494494 82
0.28305054 1.2647442 0.15063268 70
0.29141882 1.2530613 0.0095639192 91
0.29833189 1.2401469 0.0279474 100
0.28766215 1.2600793 0.048632905 88
0.29143348 1.253034 0.067271881 51
0.29363123 1.2489283 0.086038955 58
0.29427797 1.2477201 0.10532656 82
0.28104582 1.2724394 0.15270324 68
0.28944203 1.2610717 0.0097035384 90
0.28479096 1.2698374 0.049504463 57
0.28948396 1.2609926 0.068246834 51
0.29327005 1.2538569 0.10647142 81
0.28850475 1.2628381 -0.0097384425 88
0.28288916 1.2734218 0.15270324 68
0.2920033 1.2601634 0.0096686333 90
0.28552195 1.2724771 0.049678773 86
0.29111359 1.2618538 0.068246834 51
0.29213274 1.2599175 0.10761628 72
0.2920033 1.2601634 -0.0096686333 89
0.2899588 1.2640477 0.14959741 70
0.29472649 1.2593328 0.0096337283 90
0.29503748 1.2587366 0.028889447 100
0.29381609 1.2610779 0.048458595 59
0.28740916 1.2733593 0.069709264 49
0.29665425 1.2556374 0.10647142 73
0.29177132 1.2649975 0.14959741 70
0.29636163 1.2601552 0.048284281 88
0.29075071 1.2709984 0.15115032 77
0.29797745 1.2610151 0.0096337283 90
0.29798844 1.2609937 0.048284281 59
0.2924135 1.2718554 0.15115032 77
0.29779264 1.2654122 0.0097035384 100
0.29238677 1.276031 0.049678773 57
0.29603204 1.2688706 0.068734311 50
0.29670843 1.2675419 0.14959741 70
0.29789603 1.269948 0.0097733475 100
0.29971418 1.2663424 0.048632905 59
0.29609528 1.273519 -0.0098431576 100
0.29949057 1.2667859 0.14907977 78
0.29687196 1.2761469 -0.0098780617 100
0.29716554 1.2895377 0.05055033 28
