# .PCD v0.7 - Point Cloud Data file format
VERSION 0.7
FIELDS x y z intensity
SIZE 4 4 4 4
TYPE F F F F
COUNT 1 1 1 1
WIDTH 724
HEIGHT 1
VIEWPOINT 0 0 0 1 0 0 0
POINTS 724
DATA ascii
0.059866995 0.012949228 0.015742071 107
0.05190596 0.012300789 0.047521047 24
0.0459553 0.0090487599 0.047835063 100
0.038867176 0.0041678548 0.048253752 78
0.032853425 0.00098466873 0.048567768 41
0.037026286 0.012625754 0.047939736 27
0.038888872 0.021019936 0.047521047 19
0.026093662 0.0079964399 0.048463095 8
0.025711477 0.013113499 0.048253752 8
0.018500626 0.0083968043 0.048672438 8
0.027332604 0.026595294 0.047625721 9
-1.0216718 1.1273636 0.084470235 5
-1.0411534 1.1317933 0.14276111 6
-1.035969 1.1364413 0.028412517 8
-0.98733288 1.1252038 0.082690813 7
-1.0224094 1.1333084 0.1411923 13
-1.0171592 1.1378624 0.028098375 13
-1.0113609 1.1365014 0.084051549 69
-1.0153127 1.137429 0.14066938 53
-0.99258751 1.1374962 0.027679516 36
-1.0062513 1.1407514 0.083842203 100
-1.0082712 1.1412325 0.14014643 100
-0.97768992 1.139587 0.027435184 40
-0.98747629 1.1419547 0.082900152 100
-1.0089025 1.1471381 0.14032075 87
-0.97833258 1.1453944 0.027470088 32
-0.98034972 1.14589 0.082586139 100
-1.0017719 1.1511517 0.13979781 86
-0.97895318 1.1512108 0.027504992 22
-0.96740073 1.1483305 0.081958108 70
-0.99849874 1.1560841 0.13962349 81
-0.9853676 1.1585077 0.027644612 27
-0.97575206 1.1560745 0.082481466 40
-0.98555249 1.1585546 0.13857763 75
-0.96269649 1.1583945 0.027260659 50
-0.9898712 1.1653717 0.083318844 35
-0.97646767 1.1619303 0.13788038 87
-0.9574613 1.1626642 0.027190849 63
-0.98268336 1.169234 0.083004825 82
-0.98280257 1.1692652 0.13857763 89
-0.9638148 1.1699672 0.027330469 71
-0.96197051 1.1694798 0.081958108 98
-0.97754687 1.1735953 0.13822901 98
-0.96047789 1.1747313 0.027295563 78
-0.95092076 1.1721705 0.081434749 94
-0.97420424 1.1784093 0.1380547 100
-0.95905596 1.1800014 0.027295563 88
-0.94372565 1.1758363 0.081120729 100
-0.96507865 1.1816378 0.13735744 100
-0.9460482 1.1820803 0.027086135 92
-0.94615096 1.1821086 0.081330076 100
-0.95786995 1.1853366 0.13683452 98
-0.9368965 1.185149 0.026946515 96
-0.95047444 1.1889399 0.081644088 92
-0.95641094 1.1905975 0.13683452 98
-0.93928653 1.1914256 0.027016325 85
-0.9336285 1.1898246 0.080806717 84
-0.95493358 1.1958532 0.13683452 100
-0.96856219 1.2054406 0.027574802 52
-0.9263944 1.1933492 0.080492698 62
-0.9553532 1.201653 0.13700883 100
-0.96334571 1.2090948 0.027504992 40
-0.93656594 1.2013247 0.081120729 24
-0.95398968 1.2063801 0.13700883 92
-0.92727011 1.204224 0.026876707 61
-0.93121892 1.2053846 0.08091139 26
-0.93716508 1.2071325 0.13561434 84
-0.91616267 1.2065248 0.026702182 72
-0.92586166 1.2094126 0.080702044 26
-0.94135875 1.2140266 0.13613728 89
-0.91463 1.2116401 0.026702182 75
-0.91667002 1.2122552 0.080283359 50
-0.93789214 1.2186544 0.13596296 100
-0.9188953 1.2182455 0.026806897 78
-0.90946454 1.2153676 0.079969339 100
-0.93258494 1.222423 0.13561434 99
-0.92114276 1.2245507 0.026876707 83
-0.90790099 1.2204593 0.079969339 92
-0.92338234 1.2252427 0.1349171 91
-0.90412027 1.225415 0.026597468 88
-0.90997249 1.2272478 0.080178685 78
-0.91021544 1.2273239 0.13387123 63
-0.89870936 1.2292794 0.026527658 83
-0.91217524 1.2335484 0.080388032 64
-0.90291256 1.2306119 0.13334829 45
-0.89328915 1.2331116 0.026457848 83
-0.89343244 1.2331576 0.07944598 82
-0.91457564 1.2399418 0.13456847 43
-0.8954677 1.239382 0.026527658 93
-0.8861081 1.2363427 0.079131968 100
-0.91861135 1.2468973 0.13509139 54
-0.89398593 1.2439208 0.026527658 100
-0.89602202 1.244589 0.07976 100
-0.90196151 1.2465384 0.13369691 77
-0.88093609 1.245177 0.02631823 100
-0.89246112 1.2490042 0.079655327 100
-0.90407091 1.2528596 0.13404553 87
-0.87547749 1.2488954 0.02624842 100
-0.89078027 1.2540364 0.079655327 100
-0.89482194 1.2553942 0.13334829 84
-0.87758392 1.2551552 0.02631823 99
-0.87962669 1.2558495 0.079131968 100
-0.90443748 1.2642813 0.13439415 82
-0.87579614 1.2603843 0.02631823 96
-0.87405902 1.2597868 0.078922622 100
-0.89884788 1.2683127 0.13404553 100
-0.88163048 1.2679862 0.026457848 88
-0.87045425 1.2640986 0.078817949 100
-0.90086323 1.2746762 0.13439415 84
-0.86479229 1.2676719 0.02617861 79
-0.87625724 1.2717049 0.079236634 72
-0.89157468 1.2770931 0.13369691 42
-0.85927838 1.2712672 0.0261088 81
-0.87073368 1.2753417 0.079027295 34
-0.88979584 1.282122 0.13369691 33
-0.85752004 1.2761834 0.0261088 96
-0.85204631 1.274215 0.078085244 19
-0.88612467 1.2864704 0.1335226 30
-0.85950321 1.2824601 0.02617861 99
-0.857786 1.2818358 0.078503937 63
-0.88244063 1.2907996 0.13334829 20
-0.854132 1.2855072 0.0261088 99
-0.8505463 1.2841909 0.078189917 100
-0.8620941 1.2884305 0.13160518 15
-0.84107536 1.286231 0.025899371 100
-0.84687048 1.2883816 0.078085244 100
-0.88269085 1.3016746 0.13369691 3
-0.83177561 1.2882746 0.025759751 100
-0.8338322 1.289046 0.077457212 53
-0.87149876 1.303174 0.13282534 1
-0.83743745 1.2959299 0.025899371 92
-0.83948225 1.296705 0.077875905 51
-0.85286182 1.3017768 0.13125655 5
-0.83746058 1.3014851 0.025934275 75
-0.83017486 1.2986943 0.077457212 57
-0.86588138 1.3123721 0.13265105 30
-0.84305638 1.3092124 0.026073895 75
-0.83204621 1.3049507 0.077666558 72
-0.84911507 1.3115575 0.13125655 86
-0.82812935 1.3089733 0.025829561 81
-0.83203048 1.3104991 0.077771232 61
-0.84907168 1.3171637 0.13143086 100
-0.81880039 1.3108413 0.025689943 99
-0.83199292 1.3160539 0.077875905 72
-0.83603531 1.3176512 0.130385 97
-0.81690425 1.315616 0.025689943 100
-0.81894869 1.3164321 0.077247873 91
-0.84336728 1.326179 0.13125655 100
-0.81870049 1.3218796 0.025759751 100
-0.8151806 1.3204604 0.0771432 97
-0.83772177 1.3295493 0.13090792 100
-0.82056719 1.3279233 0.025829561 100
-0.80409843 1.3212193 0.076619841 100
-0.83216792 1.3326457 0.1305593 100
-0.80751449 1.3281417 0.025620133 100
-0.80401331 1.3267021 0.076724514 100
-0.80992562 1.329133 0.12864187 100
-0.80176634 1.3315791 0.025550323 100
-0.80380815 1.3324274 0.07682918 100
-0.81522685 1.3371711 0.12933913 100
-0.78639525 1.3251933 0.1776855 24
-0.79610974 1.334747 0.025480513 100
-0.79262799 1.3332863 0.076305822 100
-0.80588967 1.33885 0.12864187 100
-0.77712697 1.3267829 0.17671055 20
-0.80527812 1.3438861 0.025689943 100
-0.79443103 1.339293 0.076515168 94
-0.80949992 1.3456738 0.12916481 100
-0.74968189 1.3203442 0.17329821 16
-0.80694395 1.3501858 0.025759751 67
-0.79978138 1.3471233 0.076933853 42
-0.80565017 1.3496325 0.1289905 69
-0.77878219 1.3381447 0.17744176 13
-0.81592602 1.3596742 0.025969181 68
-0.81976289 1.3613307 0.078189917 63
-0.83105689 1.3662063 0.13160518 22
-0.80230612 1.3537946 0.18085411 10
-0.78819531 1.3532529 0.025480513 100
-0.81036681 1.3629165 0.077771232 100
-0.81983513 1.3670433 0.13073361 90
-0.77842289 1.3489937 0.17792924 18
-0.79530293 1.3619474 0.025655037 100
-0.80828875 1.3676614 0.077771232 100
-0.82321364 1.3742285 0.13125655 100
-0.7782107 1.3544266 0.17817298 33
-0.8005386 1.3698869 0.025794657 100
-0.79706782 1.3683453 0.077247873 100
-0.82109612 1.3790182 0.13125655 100
-0.77797681 1.3598653 0.17841671 33
-0.80573505 1.37787 0.025934275 100
-0.80590576 1.3779465 0.077875905 100
-0.80078179 1.3756491 0.12951343 100
-0.78134376 1.3669336 0.17914793 33
-0.79267401 1.3776517 0.025724847 100
-0.80923408 1.3851463 0.078189917 100
-0.80228978 1.3820035 0.12986206 100
-0.75935835 1.3625741 0.17646681 20
-0.785088 1.3798423 0.025620133 100
-0.81434542 1.3932065 0.07860861 100
-0.80739433 1.3900313 0.1305593 100
-0.75908762 1.3679657 0.17671055 15
-0.79747921 1.3911965 0.025899371 100
-0.80853409 1.3962928 0.078399263 100
-0.81245929 1.3981023 0.13125655 100
-0.75699228 1.3725317 0.17671055 13
-0.7989288 1.3975832 0.025969181 100
-0.80633968 1.4010311 0.078399263 100
-0.8174842 1.4062161 0.13195379 100
-0.75308126 1.3762529 0.17646681 9
-0.79853994 1.4031379 0.026004085 100
-0.80412871 1.4057617 0.078399263 100
-0.80082709 1.4042118 0.1305593 100
-0.77072304 1.3900778 0.17914793 7
-0.79292935 1.4056603 0.025934275 100
-0.80934566 1.4134307 0.078817949 100
-0.79522628 1.4067476 0.13021068 100
-0.79209369 1.4052646 0.18231654 3
-0.78348452 1.4068968 0.025794657 100
-0.81249815 1.4207542 0.079131968 100
-0.80917615 1.4191675 0.13177948 100
-0.79386324 1.4176245 0.026038991 100
-0.80122215 1.4211708 0.07860861 100
-0.81587607 1.4282327 0.13265105 100
-0.79878789 1.4258091 0.02617861 100
-0.80073708 1.4267569 0.078713275 100
-0.80998641 1.4312541 0.13230242 100
-0.80367178 1.434036 0.02631823 100
-0.7966432 1.4305882 0.07860861 100
-0.8058812 1.4351199 0.1321281 100
-0.79776114 1.4369833 0.02624842 100
-0.80506939 1.4406 0.079236634 100
-0.80533689 1.4407325 0.13230242 100
-0.78815156 1.4383446 0.0261088 100
-0.80974954 1.4491317 0.079655327 100
-0.80643433 1.4474759 0.13265105 100
-0.79295391 1.4466106 0.02624842 100
-0.80737072 1.4538741 0.079655327 100
-0.81117851 1.4557924 0.13334829 100
-0.79426843 1.4528716 0.02631823 100
-0.79797274 1.4547533 0.079236634 100
-0.81067318 1.461205 0.1335226 100
-0.79899532 1.4612074 0.026457848 100
-0.79912931 1.4612759 0.07944598 100
-0.81002527 1.4668589 0.13369691 100
-0.78958923 1.4620059 0.02631823 100
-0.8003785 1.4675794 0.079655327 100
-0.80239648 1.4686217 0.13317397 100
-0.78361863 1.4648297 0.02624842 100
-0.80856282 1.4778259 0.080283359 100
-0.80348343 1.4751794 0.1335226 100
-0.79180628 1.4750617 0.026457848 99
-0.79370755 1.4760606 0.079550654 100
-0.80806857 1.4836068 0.13421984 99
-0.78580314 1.4778684 0.026388038 52
-0.78064603 1.4751356 0.078922622 55
-0.81437176 1.4930075 0.13509139 87
0.12030858 1.3046194 0.011972351 11
0.13834915 1.2821734 0.03443706 27
0.098163277 1.3321724 0.063100755 19
0.13305861 1.2887559 0.1293685 17
0.18497396 1.2241631 0.13452072 7
0.16084355 1.2576624 0.010890301 26
0.14512259 1.2773628 0.034018371 27
0.16226536 1.2558807 0.054385185 51
0.13892165 1.2851334 0.080921248 13
0.14339787 1.2795241 0.10324675 11
0.15079132 1.2702591 0.12440746 54
0.19628561 1.213249 0.13092151 16
0.1607917 1.2577274 0.16719711 15
0.16743127 1.2526816 0.010750682 100
0.18030328 1.2364411 0.03119223 94
0.14779034 1.2774622 0.056651235 95
0.16529289 1.2553796 0.076046467 29
0.16962975 1.2499079 0.096989371 25
0.15611085 1.2669644 0.12326261 100
0.18565288 1.2296916 0.13542053 30
0.14921159 1.2756691 0.17289113 28
0.16046205 1.2650144 0.010995016 100
0.16711226 1.2565635 0.032448292 100
0.15079626 1.2772975 0.056476921 100
0.16698951 1.2567195 0.076046467 29
0.17863679 1.2419184 0.095112152 38
0.16634664 1.2575364 0.12059128 100
0.18966997 1.2278979 0.13452072 38
0.14620045 1.2831377 0.17496167 35
0.16465461 1.2632196 0.010925206 100
0.17865011 1.2453063 0.031610917 92
0.15992934 1.2692677 0.055431053 100
0.16869083 1.2580535 0.076046467 29
0.18515101 1.2369854 0.093860678 39
0.16442469 1.2635139 0.12173614 100
0.18887097 1.2322241 0.13542053 30
0.1551303 1.2754102 0.17185585 43
0.16882989 1.2614015 0.010855397 100
0.18643215 1.2387089 0.031087559 63
0.16900137 1.2611805 0.054385185 76
0.16796342 1.2625186 0.076533951 29
0.179519 1.2476213 0.095737889 25
0.18540239 1.2400364 0.11563025 67
0.18332025 1.2427206 0.13811995 30
0.15452883 1.2798383 0.17289113 35
0.17769951 1.2530931 0.010645968 53
0.1647422 1.2699063 0.033076324 58
0.16811395 1.2655313 0.054733805 50
0.18405351 1.2448483 0.073609084 62
0.17378643 1.2581706 0.097615108 37
0.18208721 1.2473997 0.11715672 13
0.18837583 1.2392397 0.13677025 15
0.15377399 1.2841387 0.1739264 49
0.17938808 1.2543898 0.010645968 66
0.18954873 1.2411098 0.031087559 31
0.16137123 1.2779378 0.055953987 48
0.18450701 1.2476993 0.073852822 46
0.18629584 1.2453613 0.094799288 51
0.18733481 1.2440033 0.11601187 19
0.1923843 1.2374036 0.13587044 30
0.16378835 1.2747786 0.17030293 58
0.18125072 1.2558092 0.010645968 40
0.17203966 1.2679443 0.032762308 29
0.17296121 1.2667303 0.054559495 50
0.18874431 1.2459368 0.073365346 46
0.20006689 1.2310199 0.091670595 54
0.19627941 1.2360096 0.11372216 13
0.2059637 1.2232511 0.13137141 47
0.17507336 1.2639476 0.16616182 76
0.17323396 1.2698039 0.010925206 39
0.15445682 1.294713 0.03443706 27
0.1746105 1.2679778 0.054559495 50
0.18912962 1.2487173 0.073609084 62
0.2039758 1.229023 0.091044858 54
0.1883724 1.2497218 0.1167751 13
0.21333387 1.2166088 0.1291219 32
0.18485361 1.2543898 0.16253836 70
0.18456605 1.2583079 0.010645968 40
0.16825768 1.2800999 0.033390339 28
0.19306377 1.2469529 0.052119136 54
0.19912863 1.2388488 0.071902916 48
0.19611159 1.2428803 0.093547814 65
0.21122271 1.2226882 0.10990598 14
0.2078892 1.2271426 0.13182132 39
0.1842317 1.2587547 0.16357364 69
0.18499452 1.2611221 0.010680873 80
0.19139609 1.2525086 0.031506244 31
0.17800879 1.2705215 0.054559495 50
0.19476473 1.2479761 0.073121607 62
0.19768167 1.2440512 0.093547814 65
0.20804137 1.2301121 0.11143246 14
0.20940703 1.2282746 0.13182132 31
0.1881592 1.256864 0.16253836 70
0.19391865 1.2528006 0.010471444 82
0.19909444 1.2457829 0.030982886 63
0.17748058 1.2750885 0.054908119 75
0.19887552 1.2460797 0.072634131 63
0.1970765 1.2485189 0.094173551 78
0.20273823 1.2408423 0.11372216 13
0.21455905 1.2248148 0.13047162 32
0.18306604 1.2675153 0.16564418 68
0.19079524 1.2604318 0.010611063 94
0.21365583 1.2292197 0.029831495 66
0.17562574 1.2811432 0.055431053 74
0.20514804 1.2408354 0.071659178 64
0.20917031 1.2353438 0.09135773 94
0.2077817 1.2372397 0.1125773 13
0.22758397 1.2102032 0.12597258 16
0.18129337 1.273405 0.16719711 67
0.19015744 1.2649174 0.010680873 93
0.20938823 1.2384679 0.030354854 65
0.18561384 1.2711666 0.054210871 100
0.20445892 1.2452475 0.072146654 79
0.20847341 1.2397261 0.091983467 93
0.2117238 1.2352556 0.11181407 14
0.23256052 1.2065973 0.12462288 16
0.19214129 1.2621889 0.163056 70
0.20116532 1.2531378 0.010401634 83
0.20743611 1.2444527 0.03066887 64
0.19194302 1.2659107 0.053513627 100
0.19674051 1.2592661 0.07409656 76
0.21234566 1.237653 0.09135773 100
0.21326852 1.2363749 0.11181407 14
0.23401007 1.2076477 0.12462288 8
0.1982989 1.2571077 0.16098544 80
0.20285392 1.2543526 0.010401634 97
0.21258485 1.2407755 0.030354854 97
0.19367626 1.2671576 0.053513627 100
0.20770183 1.2475885 0.072146654 79
0.21628165 1.2356176 0.090731993 95
0.21604219 1.2359517 0.11143246 14
0.23553967 1.208748 0.12462288 8
0.19549978 1.2646133 0.163056 70
0.20678103 1.2522427 0.010331824 84
0.21878031 1.235383 0.029936166 99
0.19301626 1.271583 0.053862248 100
0.2161938 1.2390172 0.070684217 81
0.21324584 1.2431593 0.091983467 93
0.21189722 1.2450541 0.11334054 20
0.23586637 1.2113761 0.12507279 16
0.19826213 1.2642123 0.16253836 70
0.20393667 1.2600311 0.010471444 82
0.21933609 1.2382252 0.03004084 66
0.19255841 1.2761428 0.054210871 100
0.21104434 1.2499666 0.072146654 63
0.21726134 1.2411631 0.09135773 100
0.20797804 1.2543085 0.11524864 47
0.23411375 1.2172999 0.12642249 24
0.19896147 1.2670761 0.163056 70
0.20326734 1.2644506 0.010541254 95
0.22777095 1.2295077 0.029412808 67
0.19652665 1.2740629 0.053862248 100
0.2149173 1.2478373 0.071659178 80
0.22563055 1.2325599 0.089480512 97
0.20056835 1.2682993 0.11830158 91
0.23559877 1.2183449 0.12642249 49
0.20504841 1.2619107 0.16098544 72
0.2119346 1.2558694 0.010331824 98
0.21919081 1.2454407 0.030354854 97
0.20065239 1.2720842 0.053513627 100
0.21893847 1.2458034 0.071171694 81
0.22281522 1.2402316 0.090731993 100
0.21809524 1.2470152 0.11295892 89
0.22722706 1.2338909 0.13047162 88
0.20464694 1.2663431 0.16202073 70
0.21582097 1.2536973 0.010262015 98
0.22303981 1.2432486 0.030145511 98
0.2045843 1.2699615 0.053165004 100
0.21600464 1.2534314 0.072146654 79
0.22549921 1.2396889 0.090419121 100
0.22972247 1.2335759 0.10952436 92
0.21990556 1.2477851 0.13407083 93
0.21068719 1.2611279 0.15995017 72
0.21759605 1.2549188 0.010262015 98
0.22590578 1.2427964 0.03004084 66
0.21092504 1.2646507 0.052467756 100
0.22451296 1.2448282 0.070684217 65
0.22498912 1.2441337 0.091044858 100
0.22920367 1.2379854 0.1102876 99
0.23047349 1.236133 0.13047162 96
0.21030501 1.2655551 0.16098544 72
0.20795444 1.2725496 0.010611063 81
0.22410408 1.2488219 0.030354854 65
0.21256724 1.2657723 0.052467756 100
0.22608936 1.245905 0.070684217 81
0.23100907 1.2386768 0.089793384 100
0.22081551 1.2536536 0.11372216 89
0.23421395 1.233968 0.12957181 96
0.2108632 1.268276 0.16150309 70
0.20867959 1.2754571 0.010645968 40
0.2292144 1.2450475 0.03004084 33
0.21550161 1.2653546 0.052293446 53
0.22561398 1.2503793 0.071171694 81
0.23493993 1.2365686 0.089167647 100
0.22698516 1.2483487 0.11219569 91
0.23700717 1.2335073 0.1291219 100
0.22025958 1.2583085 0.15787962 73
0.21703911 1.2666206 0.010436539 41
0.22634256 1.2527443 0.030459527 32
0.21603659 1.268116 0.052467756 53
0.22720876 1.2514523 0.071171694 81
0.23758891 1.23597 0.088854775 98
0.23403963 1.2412639 0.1102876 85
0.2342051 1.2410171 0.13092151 96
0.22403228 1.2561902 0.15684435 74
0.21894845 1.2678955 0.010436539 41
0.22598687 1.2573099 0.03066887 32
0.21795166 1.2693946 0.052467756 53
0.231258 1.2493821 0.070684217 81
0.23719293 1.2404561 0.089480512 97
0.23693851 1.2408388 0.10990598 100
0.23385805 1.2454717 0.13182132 94
0.221623 1.2638731 0.15891489 73
0.218398 1.2723284 0.010506349 27
0.22100267 1.2683825 0.031296901 31
0.21631661 1.2754812 0.05299069 52
0.23394307 1.2487798 0.070440479 98
0.23222512 1.2513822 0.09135773 94
0.23958316 1.2402359 0.10952436 85
0.24509886 1.2318804 0.1277722 97
0.22326255 1.2649592 0.15891489 73
0.22234517 1.2701373 0.010436539 41
0.22274435 1.269528 0.031296901 31
0.22681776 1.2633103 0.051596198 54
0.23561624 1.2498802 0.070440479 98
0.24581501 1.2343127 0.087916173 84
0.24122649 1.2413166 0.10952436 85
0.25098464 1.2264216 0.12597258 99
0.2218163 1.2709446 0.1604678 72
0.22836661 1.2645159 0.010296919 28
0.23093638 1.2605648 0.03066887 32
0.22628281 1.2677197 0.051944822 54
0.23612699 1.2525841 0.070684217 81
0.24627936 1.2369747 0.088229038 98
0.22673494 1.2670245 0.11524864 100
0.24399981 1.2404796 0.12957181 96
0.22979903 1.2623135 0.15736198 74
0.23877016 1.2521945 0.010017681 43
0.24348176 1.2448947 0.029622151 33
0.22802216 1.2688466 0.051944822 54
0.24211946 1.2470055 0.069709264 66
0.24898249 1.2363724 0.087916173 84
0.24763575 1.2384589 0.10837951 87
0.24564397 1.2415448 0.12957181 96
0.23151949 1.2634282 0.15736198 74
0.24037087 1.253224 0.010017681 72
0.24398071 1.2475903 0.029726824 67
0.23182797 1.2665565 0.051596198 54
0.24477392 1.2463523 0.069465525 66
0.25266215 1.2340416 0.087290429 71
0.25236845 1.2344999 0.10723466 81
0.24931204 1.23927 0.128672 81
0.23732647 1.2579752 0.15529142 75
0.24107137 1.2560432 0.010052586 86
0.25323275 1.2369095 0.028994121 100
0.23365009 1.2677193 0.051596198 82
0.25291091 1.2374159 0.068003096 51
0.25224569 1.2384624 0.087916173 70
0.23932922 1.2587842 0.1125773 82
0.25417003 1.2354349 0.1273223 89
0.23186317 1.2705307 0.15891489 65
0.24063635 1.2605014 0.010122396 85
0.25060248 1.2447 0.029412808 100
0.23220074 1.2738762 0.052119136 81
0.25242633 1.2418082 0.068490572 67
0.25809795 1.2328157 0.086664692 71
0.25151062 1.24326 0.10876112 87
0.26099443 1.2282233 0.12507279 100
0.22948998 1.2781742 0.16098544 64
0.24349675 1.2599367 0.010087491 86
0.25340363 1.2441008 0.029308135 100
0.24461657 1.2581468 0.05037602 84
0.24994633 1.2496272 0.069465525 49
0.25770089 1.2372319 0.087290429 71
0.24283484 1.2609948 0.1125773 96
0.26164234 1.2309315 0.12552269 90
0.23545301 1.2727945 0.15891489 65
0.24520883 1.2610036 0.010087491 71
0.25084695 1.2519209 0.029726824 100
0.23896688 1.271059 0.051596198 82
0.25162235 1.2506717 0.069465525 49
0.26350087 1.231536 0.086038955 72
0.25697565 1.2420478 0.10799789 79
0.26016971 1.2369024 0.12687239 90
0.24332318 1.2640413 0.15580906 67
0.25313273 1.2517968 0.0098780617 73
0.25454214 1.2495095 0.029517479 100
0.24899152 1.2585177 0.050201707 85
0.25530064 1.2482785 0.068978049 50
0.25881547 1.2425741 0.087916173 70
0.2533932 1.2513741 0.10990598 85
0.26171961 1.2378609 0.12687239 99
0.24698997 1.2617662 0.15477379 67
0.25273022 1.2562424 0.0099478718 73
0.25830129 1.2471298 0.029308135 100
0.24446315 1.2697649 0.051247578 82
0.26111367 1.2425296 0.068003096 51
0.26458833 1.2368462 0.086664692 57
0.25712341 1.2490566 0.10914274 92
0.26538748 1.235539 0.12597258 90
0.24669307 1.2661173 0.15580906 67
0.2533069 1.2589351 0.0099827768 87
0.26506576 1.2395571 0.028784776 100
0.24612209 1.2707753 0.051247578 82
0.25856298 1.2502733 0.068978049 50
0.26818755 1.2344126 0.086038955 58
0.26482454 1.2399546 0.10685304 66
0.26895472 1.2331483 0.12507279 92
0.24433115 1.2737267 0.15787962 65
0.25295258 1.2633941 0.010052586 86
0.25949544 1.2525265 0.029517479 100
0.24787199 1.2718329 0.051247578 82
0.25716957 1.2563897 0.069709264 49
0.27184811 1.2320087 0.085413218 58
0.25431529 1.2611307 0.11143246 77
0.27559879 1.2257788 0.12282328 85
0.25007704 1.2681704 0.15580906 67
0.26082924 1.2541274 0.0098431576 88
0.26118153 1.2535375 0.029517479 100
0.24962553 1.2728846 0.051247578 82
0.26599476 1.2454793 0.068003096 51
0.26333293 1.2499357 0.08854191 56
0.26207191 1.2520469 0.10914274 78
0.27219492 1.2350991 0.12507279 92
0.25776163 1.2592632 0.15270324 68
0.26863748 1.2448119 0.0096337283 100
0.26490754 1.2511063 0.029308135 100
0.2595084 1.2602175 0.049853086 85
0.26462027 1.2515911 0.068734311 84
0.27306622 1.2373382 0.086038955 72
0.26675886 1.2479821 0.10799789 79
0.27382013 1.2360659 0.12507279 92
0.25750157 1.2636042 0.15373851 68
0.26430094 1.2561842 0.0098431576 88
0.27072033 1.2452602 0.028889447 100
0.25323176 1.2750211 0.051247578 82
0.26739302 1.2509223 0.068490572 50
0.26877618 1.2485685 0.087916173 56
0.27149662 1.2439392 0.10685304 81
0.28244132 1.2253141 0.12192347 85
0.25539771 1.2713352 0.15580906 67
0.26096433 1.2658165 0.010017681 87
0.27238101 1.2462322 0.028889447 100
0.25298962 1.2794964 0.051596198 82
0.27307242 1.245046 0.067515619 51
0.27641749 1.2393079 0.086038955 58
0.26524276 1.2584772 0.10990598 85
0.28206941 1.2296125 0.12282328 85
0.25131193 1.2823744 0.15891489 65
0.26661554 1.2598486 0.0098780617 73
0.27596205 1.2436925 0.028680105 100
0.26266238 1.2666819 0.050201707 100
0.26470882 1.2631445 0.069953002 49
0.2829212 1.2316632 0.084474608 59
0.26293173 1.2662163 0.11143246 91
0.28652254 1.225438 0.12147357 77
0.27062097 1.2529249 -0.0097384425 88
0.26268652 1.2666402 0.15373851 68
0.27031776 1.2573659 0.0098082526 74
0.26966444 1.2585045 0.029517479 100
0.26935625 1.2590415 0.049330149 87
0.26840803 1.2606939 0.069465525 49
0.28158468 1.2377326 0.085413218 58
0.28127754 1.2382679 0.10494494 82
0.28714398 1.2280451 0.12192347 76
0.26534122 1.2660379 -0.0099827768 86
0.26826805 1.2609378 0.15166797 69
0.27507278 1.2531737 0.0097035384 90
0.27343225 1.2560569 0.029308135 100
0.2632679 1.2739203 0.05072464 84
0.27806219 1.2479199 0.067515619 51
0.2823239 1.2404301 0.08572609 58
0.27814099 1.2477814 0.10685304 88
0.28689706 1.232393 0.12282328 85
0.27006933 1.2619671 0.15166797 69
0.27381241 1.2593548 0.0098082526 89
0.28494737 1.2396258 0.028261416 100
0.26502866 1.2749181 0.05072464 84
0.27778071 1.2523237 0.068003096 51
0.28299671 1.2430819 0.086038955 58
0.27981043 1.2487274 0.10685304 88
0.29330188 1.224823 0.12057377 77
0.26419207 1.2764003 0.15580906 67
0.27747583 1.2568262 0.0097384425 75
0.28853947 1.2370626 0.028052073 100
0.26484644 1.2793868 0.051073264 83
0.28237498 1.2480745 0.067271881 69
0.28947425 1.2353927 0.084474608 59
0.2776472 1.25652 0.10837951 79
0.29489106 1.2257164 0.12057377 77
0.26973608 1.2706522 0.15373851 68
0.27723548 1.2612711 0.0098082526 74
0.28629339 1.2449571 0.02847076 100
0.28210062 1.2525086 0.048284281 88
0.27537295 1.2646255 0.069465525 49
0.29397702 1.2311182 0.083536007 60
0.27934712 1.2574677 0.10837951 87
0.2936455 1.2317153 0.12192347 85
0.27898747 1.2581155 0.14959741 70
0.28272563 1.2551669 0.0096686333 75
0.28786984 1.2458289 0.02847076 100
0.27601123 1.2673552 0.049678773 86
0.2789304 1.2620561 0.068978049 50
0.29264811 1.2371552 0.084474608 59
0.28475434 1.2514843 0.10685304 81
0.29799891 1.2274423 0.12057377 77
0.28060761 1.2590116 0.14959741 70
0.28537959 1.2543421 0.0096337283 90
0.28570199 1.253752 0.028889447 100
0.28061479 1.2630632 0.049155839 87
0.28921556 1.2473209 0.066784397 52
0.29143903 1.2432513 0.085413218 58
0.28831923 1.2489614 0.1060898 81
0.29772854 1.2317394 0.12147357 77
0.27675879 1.2701209 0.15270324 76
0.28897715 1.2517464 0.0095639192 91
0.28548923 1.2581837 0.029098792 100
0.28138837 1.2657523 0.049330149 87
0.28804627 1.2534645 0.067515619 51
0.28744623 1.2545719 0.087290429 57
0.28812218 1.2533243 0.10685304 81
0.28034684 1.2676746 0.15166797 69
0.28782085 1.2579391 0.0096686333 90
0.29286698 1.2485478 0.02847076 100
0.28689265 1.2596666 0.048632905 88
0.28973547 1.2543759 0.067515619 51
0.29381421 1.2467849 0.08572609 58
0.29259861 1.2490473 0.10570818 81
0.28214189 1.2685082 -0.0098780617 87
0.27842814 1.2754197 0.15373851 68
0.28482398 1.2676754 0.0098431576 88
0.294539 1.2494425 0.02847076 100
0.28672972 1.2640986 0.048981529 87
0.29142782 1.2552814 0.067515619 51
0.29057956 1.2568734 0.10723466 73
0.28576431 1.2659106 -0.0098082526 88
0.28746155 1.2627252 0.14959741 70
0.2902995 1.2615256 0.0097035384 90
0.29248199 1.257395 0.028889447 100
0.29590213 1.2509217 0.047587037 90
0.29312336 1.256181 0.067515619 51
0.29899466 1.2450687 0.085100345 58
0.29594925 1.2508326 0.10570818 73
0.28376028 1.2739022 -0.0099478718 86
0.28557315 1.2704711 0.15166797 69
0.2975848 1.2518013 0.0094941091 92
0.29789233 1.2512143 0.02847076 100
0.28833634 1.2694544 0.049330149 87
0.29945138 1.2482383 0.10494494 75
0.28737685 1.2712858 -0.0098780617 97
0.28821826 1.2696798 0.15115032 77
0.29926816 1.2526793 0.0094941091 92
0.29957363 1.2520913 0.02847076 100
0.28824449 1.2739007 0.049678773 86
0.29840726 1.2543367 0.1060898 73
0.29085457 1.2688762 0.15063268 70
0.29274181 1.2694976 0.049155839 58
0.28996724 1.2748848 -0.0099129668 100
0.29082847 1.2732127 0.15166797 69
0.29900637 1.2615418 0.0096337283 100
0.29720518 1.2650692 0.048632905 59
0.29610077 1.2672322 0.14959741 70
0.29447487 1.2747588 0.069465525 66
0.297111 1.2695514 -0.0097733475 100
0.29347464 1.2811546 -0.0099827768 100
0.2943792 1.2793522 0.15270324 76
0.29701921 1.2785118 0.1521856 77
0.29970273 1.2775526 -0.0098780617 100
