# .PCD v0.7 - Point Cloud Data file format
VERSION 0.7
FIELDS x y z intensity
SIZE 4 4 4 4
TYPE F F F F
COUNT 1 1 1 1
WIDTH 753
HEIGHT 1
VIEWPOINT 0 0 0 1 0 0 0
POINTS 753
DATA ascii
0.052796453 0.00085169077 0.015986403 129
0.053402215 0.001788795 0.047939736 61
0.05534941 0.01004833 0.047521047 43
0.035750866 0.0038503408 0.048358422 60
0.043280363 0.020451546 0.047416378 29
0.037293971 0.017272711 0.047730394 19
0.03706032 0.022271037 0.047521047 9
0.02536881 0.010921836 0.048358422 8
0.020572484 0.0093872547 0.048567768 8
0.026834249 0.024504602 0.047730394 9
0.0059216022 0.00014686584 0.049405143 7
-0.16559261 0.57423604 0.012949686 19
-0.17975175 0.57296121 0.013194019 54
-0.18623221 0.57396615 0.013298734 71
-0.186912 0.57653725 0.013298734 79
-0.17983919 0.58111483 0.013159115 82
-0.18239909 0.58304149 0.013194019 73
-0.18304724 0.58559918 0.013194019 63
-0.18177712 0.58876789 0.013159115 73
-0.18046254 0.59179735 0.01312421 74
-0.16746962 0.59761834 0.012879875 86
-0.18363482 0.59644085 0.013159115 82
-0.19196612 0.59692949 0.013298734 79
-0.18866777 0.60041535 0.013228924 81
-0.18145305 0.60475743 0.013089305 100
-0.16836089 0.61034852 0.012844971 38
-0.18261677 0.60999578 0.013089305 37
-0.20272201 0.60835552 0.013438353 25
-0.2189343 0.60767972 0.013717592 16
-0.23516029 0.60711527 0.01399683 15
-0.24356169 0.60825956 0.014136449 15
-0.26765096 0.60632038 0.014555307 13
-0.2662552 0.60956115 0.014520402 13
-0.27859116 0.61013848 0.014729831 13
-0.29486251 0.6100561 0.01500907 12
-0.29934782 0.61227596 0.015078879 11
-0.34311801 0.60704875 0.015846785 9
-0.34171289 0.61051935 0.015811881 13
-0.36196095 0.61018115 0.016160928 20
-0.38419282 0.60964417 0.016544882 27
-1.0299618 1.1269292 0.08488892 3
-1.041657 1.1295712 0.14276111 4
-1.048173 1.1369113 0.028621947 7
-1.0092402 1.127973 0.083842203 5
-1.026799 1.1320041 0.14154093 8
-1.0157237 1.1352196 0.028063469 11
-1.006036 1.1329598 0.08373753 37
-1.0100033 1.1338853 0.14014643 42
-0.98719794 1.1342281 0.027574802 32
-1.0008726 1.1374683 0.083528183 91
-1.0184171 1.1416253 0.14101799 86
-0.98014885 1.1379211 0.027470088 38
-0.99576181 1.1416752 0.083318844 100
-1.0133018 1.1458927 0.14066938 87
-0.990511 1.1461058 0.027679516 37
-0.97311193 1.141858 0.082167454 100
-1.0119803 1.1513474 0.14066938 87
-0.98918873 1.1514809 0.027679516 23
-0.9814977 1.1495748 0.082690813 90
-0.99323469 1.1524837 0.13910057 91
-0.97233361 1.1529487 0.027400278 27
-0.98597413 1.1563801 0.083004825 45
-0.99189013 1.1578683 0.13910057 80
-0.96129972 1.1557873 0.027225753 44
-0.98074561 1.1607512 0.082795486 31
-0.99052685 1.1632481 0.13910057 84
-0.95994383 1.1610603 0.027225753 61
-0.97550541 1.1650907 0.082586139 78
-0.98528725 1.1676241 0.13875194 91
-0.96437186 1.167853 0.027330469 67
-0.96445853 1.1678758 0.082062781 98
-0.98388988 1.1729808 0.13875194 91
-0.95717698 1.1715922 0.027225753 81
-0.96113044 1.1726456 0.081958108 92
-0.96707219 1.1742288 0.13735744 99
-0.94804412 1.1747644 0.027086135 92
-0.95971578 1.177918 0.081958108 100
-0.95603484 1.1769234 0.13648589 100
-0.95433658 1.1821043 0.027225753 92
-0.95828265 1.1831853 0.081958108 100
-0.97189957 1.1869156 0.1380547 99
-0.94518179 1.1852127 0.027086135 93
-0.93951136 1.183638 0.081016064 98
-0.96275598 1.190093 0.13735744 92
-0.94757313 1.1915129 0.027155945 92
-0.93421322 1.1877526 0.080806717 88
-0.95936257 1.1948311 0.13718314 98
-0.95378464 1.1989319 0.027295563 66
-0.93850797 1.1945745 0.081120729 74
-0.94829053 1.1973648 0.13631158 100
-0.95996255 1.2063993 0.027435184 46
-0.94085425 1.2008767 0.081330076 36
-0.94104749 1.2009326 0.13578865 98
-0.92580491 1.2021148 0.026841801 52
-0.93167406 1.2038333 0.08091139 22
-0.95100683 1.2094939 0.13683452 84
-0.92237049 1.2066951 0.026806897 75
-0.91866177 1.2055951 0.080283359 26
-0.94182295 1.2124646 0.13613728 89
-0.92091423 1.2115753 0.026806897 78
-0.91529626 1.2098887 0.080178685 36
-0.93843919 1.2168363 0.13596296 100
-0.91936392 1.216707 0.026806897 78
-0.91757363 1.2161628 0.080388032 88
-0.92924541 1.2197111 0.13526571 100
-0.91015083 1.21948 0.026667276 88
-0.91218966 1.2201076 0.080178685 98
-0.91433722 1.2207687 0.13404553 98
-0.9047547 1.2233841 0.026597468 85
-0.91632992 1.2269917 0.080492698 82
-0.91655904 1.2270631 0.13439415 68
-0.89934915 1.2272562 0.026527658 83
-0.90710694 1.2297037 0.080074012 66
-0.92635506 1.2357763 0.13544002 47
-0.89774424 1.2323126 0.026527658 83
-0.89598042 1.2317493 0.079550654 82
-0.91902632 1.2391086 0.1349171 43
-0.8999272 1.2385932 0.026597468 85
-0.90386218 1.2398648 0.080074012 96
-0.91169244 1.2423955 0.13439415 47
-0.88687891 1.239922 0.026388038 99
-0.90411144 1.2455578 0.080178685 100
-0.91192824 1.2481142 0.13456847 64
-0.87763602 1.2424219 0.02624842 100
-0.90054649 1.2500032 0.080074012 100
-0.91025037 1.2532144 0.13456847 80
-0.87597829 1.2474024 0.02624842 100
-0.88181669 1.249357 0.079131968 100
-0.89910811 1.255146 0.13369691 84
-0.88187915 1.2549429 0.026388038 93
-0.88391811 1.2556335 0.079341307 100
-0.90684134 1.263397 0.13456847 80
-0.88017768 1.2599381 0.026388038 93
-0.87843519 1.2593412 0.079131968 100
-0.89757079 1.2658966 0.13387123 94
-0.86720747 1.2607521 0.02617861 88
-0.88246661 1.266036 0.07944598 100
-0.88462216 1.2667824 0.13282534 97
-0.85982388 1.2637132 0.026073895 72
-0.8769564 1.2697129 0.079236634 87
-0.90544432 1.2796893 0.1349171 52
-0.86365944 1.2708807 0.02617861 81
-0.86758488 1.2722716 0.078817949 51
-0.89229852 1.281028 0.13387123 38
-0.86566752 1.2771611 0.02624842 89
-0.85266131 1.2725017 0.078085244 17
-0.9017598 1.2900912 0.1349171 38
-0.86388856 1.2820996 0.02624842 96
-0.86216599 1.2814758 0.078713275 53
-0.87932914 1.2876921 0.13299966 22
-0.85082573 1.2829067 0.026038991 99
-0.85849649 1.2857153 0.07860861 93
-0.85319144 1.2837728 0.13073361 15
-0.84161514 1.2847741 0.025899371 100
-0.85865182 1.2910762 0.078713275 100
-0.8776409 1.2981005 0.13317397 3
-0.83606368 1.288228 0.025829561 100
-0.83998734 1.289695 0.077771232 78
-0.87205642 1.3016851 0.13282534 1
-0.83798748 1.2944767 0.025899371 100
-0.82508653 1.2896018 0.077038527 54
-0.85714537 1.3017159 0.13160518 3
-0.84548885 1.3028853 0.026073895 72
-0.84378868 1.3022361 0.078189917 53
-0.8348065 1.2988062 0.12968774 15
-0.82869536 1.3019942 0.025794657 74
-0.83633226 1.3049412 0.077875905 68
-0.84410506 1.3079404 0.13073361 58
-0.83055609 1.3082564 0.025864467 75
-0.84189993 1.3126791 0.07829459 63
-0.85335654 1.3171458 0.13177948 100
-0.82680827 1.3123392 0.025829561 100
-0.82141429 1.3102145 0.077247873 63
-0.83290058 1.314739 0.13003637 99
-0.82862276 1.3186207 0.025899371 96
-0.81952018 1.3149983 0.077247873 89
-0.83839542 1.3225096 0.13073361 99
-0.82679588 1.3231893 0.025899371 100
-0.82141191 1.3210261 0.077457212 97
-0.83470684 1.3263679 0.1305593 100
-0.81003326 1.3219757 0.025620133 100
-0.82133073 1.3265609 0.077561885 95
-0.81983334 1.3259531 0.12933913 100
-0.80439764 1.3252028 0.025550323 100
-0.82677168 1.3343745 0.077980578 95
-0.81419736 1.3292201 0.1289905 100
-0.80552751 1.325666 0.17987914 17
-0.80614656 1.331457 0.025620133 100
-0.81372112 1.3345929 0.077352546 100
-0.81775957 1.3362648 0.12951343 100
-0.78157014 1.3212821 0.17695428 20
-0.80058712 1.334409 0.025550323 100
-0.79709882 1.3329512 0.076515168 100
-0.82138926 1.3431022 0.13003637 100
-0.77423996 1.3233986 0.17622307 18
-0.80597824 1.3422298 0.025689943 100
-0.79328543 1.3368735 0.076410495 96
-0.81020218 1.3440125 0.12916481 100
-0.79424709 1.3372793 0.17914793 24
-0.80029327 1.3453919 0.025620133 81
-0.79864806 1.3446908 0.07682918 60
-0.79169399 1.3417275 0.12759601 94
-0.77947527 1.3365209 0.17744176 16
-0.80562407 1.3532631 0.025759751 53
-0.83149225 1.364393 0.078817949 53
-0.81165224 1.3558567 0.12968774 22
-0.79390091 1.3482192 0.17963541 5
-0.80347723 1.3582277 0.025759751 94
-0.8073234 1.3598993 0.077561885 100
-0.82228678 1.3664025 0.13090792 56
-0.78266972 1.3491848 0.17841671 15
-0.80141562 1.3629487 0.025759751 100
-0.80708498 1.3654361 0.077666558 100
-0.82202107 1.3719895 0.13108224 100
-0.78427547 1.3554282 0.17890419 31
-0.801166 1.3684722 0.025794657 100
-0.79951984 1.367743 0.077352546 100
-0.81626803 1.3751614 0.13073361 100
-0.76588863 1.3528469 0.17671055 31
-0.79906875 1.373185 0.025794657 100
-0.81201154 1.3789719 0.078189917 100
-0.80141526 1.3742342 0.12951343 100
-0.79827791 1.3728315 0.18134159 36
-0.79330963 1.3762453 0.025724847 100
-0.81169802 1.3845441 0.07829459 100
-0.80656189 1.3822262 0.13021068 100
-0.76359695 1.3628358 0.17695428 20
-0.78572589 1.3784438 0.025620133 100
-0.80227429 1.3859818 0.077875905 100
-0.8152954 1.3919132 0.13125655 100
-0.7561 1.3649487 0.17622307 16
-0.79812902 1.3897851 0.025899371 100
-0.80011588 1.3906984 0.077875905 100
-0.81673676 1.3983397 0.13160518 100
-0.77565879 1.3794546 0.17914793 14
-0.80502707 1.3986952 0.026073895 100
-0.80337626 1.3979292 0.078189917 100
-0.80369109 1.3980753 0.1305593 100
-0.78432757 1.3890913 0.18061037 14
-0.79387909 1.398947 0.025899371 100
-0.81033128 1.4066467 0.078713275 100
-0.79438275 1.3991828 0.12986206 100
-0.78226727 1.3935125 0.18061037 5
-0.78625089 1.4010723 0.025794657 100
-0.80990666 1.4122443 0.078817949 100
-0.80298775 1.4089767 0.13090792 100
-0.76751775 1.3922253 0.17890419 3
-0.79487103 1.4108944 0.026004085 100
-0.80585355 1.416128 0.078713275 100
-0.80434626 1.4154098 0.13125655 100
-0.79442793 1.4164515 0.026038991 100
-0.79638988 1.4173949 0.07829459 100
-0.81285876 1.4253137 0.13230242 100
-0.80307251 1.4261415 0.02624842 100
-0.79962701 1.4244705 0.07860861 100
-0.81426352 1.4315683 0.13265105 100
-0.78640407 1.42383 0.025969181 100
-0.8080985 1.4344441 0.079236634 100
-0.79762846 1.4293216 0.13125655 100
-0.78399867 1.4287238 0.025969181 100
-0.80923575 1.441186 0.07944598 100
-0.80949455 1.4413137 0.13265105 100
-0.78885072 1.4369429 0.0261088 100
-0.79615825 1.4405831 0.078817949 100
-0.81784326 1.4513854 0.13369691 100
-0.79389733 1.4447348 0.02624842 100
-0.79761475 1.4466012 0.079027295 100
-0.81213468 1.4538913 0.13334829 100
-0.80223757 1.4548427 0.026457848 100
-0.80237192 1.4549108 0.07944598 100
-0.80796176 1.4577417 0.13317397 100
-0.79271561 1.4559199 0.02631823 100
-0.80353004 1.4614444 0.079655327 100
-0.80022997 1.4597585 0.13265105 100
-0.78675789 1.4587708 0.02624842 100
-0.80465907 1.4679945 0.079864666 100
-0.81021172 1.4708555 0.13387123 100
-0.78777295 1.4655105 0.02631823 100
-0.79854757 1.4711123 0.079655327 100
-0.81116933 1.4776742 0.13421984 100
-0.79596299 1.4757476 0.026527658 100
-0.79432315 1.4748878 0.079550654 100
-0.81398445 1.4851971 0.13474278 100
-0.7934913 1.4804416 0.026527658 79
-0.79008883 1.4786425 0.07944598 99
-0.80091184 1.4843657 0.13369691 94
-0.78961986 1.4843893 0.13282534 37
0.12485036 1.2972703 0.13165821 5
0.16882625 1.2461231 0.010645968 26
0.15306371 1.265812 0.03328567 28
0.15403152 1.2646031 0.055431053 24
0.13025248 1.2943056 0.10637543 10
0.14877903 1.2711641 0.12478908 24
0.15398932 1.2646558 0.16978529 7
0.156717 1.2646017 0.011029921 89
0.17459887 1.242113 0.031610917 61
0.15195379 1.270592 0.055953987 73
0.16453093 1.2547747 0.076046467 29
0.1651881 1.2539482 0.097927973 24
0.15655258 1.2648084 0.122881 85
0.18735695 1.2260681 0.13452072 31
0.14721543 1.276551 0.17340876 21
0.15729362 1.2676096 0.011064826 100
0.17880639 1.2403501 0.031401575 100
0.15502551 1.2704835 0.055779677 100
0.15647212 1.2686505 0.077996381 28
0.18287325 1.2351968 0.093860678 26
0.15472007 1.2708706 0.12402584 100
0.18782371 1.228924 0.13497064 45
0.15146831 1.2749909 0.17237349 42
0.16634756 1.2594659 0.010855397 100
0.17051131 1.2541538 0.032238949 100
0.16160375 1.2655182 0.055082429 100
0.16670007 1.2590163 0.076290213 29
0.17710629 1.2457399 0.095737889 38
0.17091674 1.2536366 0.11944643 100
0.19054973 1.2285888 0.13452072 38
0.15552863 1.2732688 0.1713382 43
0.16814414 1.2608688 0.010855397 100
0.17106205 1.257118 0.032343622 90
0.15975249 1.2716562 0.055605363 98
0.17580816 1.2510169 0.074827775 30
0.18127826 1.2439852 0.095112152 25
0.18595192 1.2379773 0.11524864 100
0.18266058 1.2422082 0.13811995 30
0.15381733 1.2792857 0.17289113 28
0.17221919 1.2589676 0.010785587 65
0.17267945 1.2583718 0.032343622 60
0.1614182 1.2729475 0.055605363 49
0.18225998 1.2459717 0.073852822 46
0.1731903 1.2577107 0.097615108 24
0.16830081 1.2640393 0.12135452 18
0.19614288 1.2280028 0.13362093 23
0.14487836 1.2943553 0.17754987 40
0.17149419 1.2634567 0.010855397 65
0.17317092 1.2612708 0.032448292 29
0.16317618 1.2743008 0.055605363 49
0.18150732 1.2504026 0.074340299 46
0.1905244 1.2386471 0.093547814 52
0.18436623 1.2466755 0.1167751 13
0.19655773 1.2307814 0.13407083 31
0.15376577 1.2865691 0.17444403 56
0.17070904 1.2678906 0.010925206 39
0.18448463 1.2498075 0.031610917 30
0.17209482 1.2660714 0.054559495 50
0.18430537 1.2500428 0.07409656 61
0.19447458 1.2366939 0.092922069 53
0.18594894 1.2478853 0.1167751 13
0.20163041 1.2273004 0.13272113 39
0.17772388 1.2586823 0.16460891 69
0.18226901 1.2565805 0.010645968 53
0.15261188 1.2958226 0.03454173 27
0.17520365 1.2659293 0.054385185 51
0.18375754 1.2546108 0.074584037 76
0.19626915 1.2380555 0.092922069 53
0.19370508 1.2414483 0.11486702 13
0.20338887 1.2286347 0.13272113 47
0.18193257 1.2570257 0.16357364 69
0.18148383 1.2609959 0.010715778 39
0.16874474 1.2779689 0.03328567 28
0.17804626 1.265576 0.054210871 51
0.18655822 1.254235 0.074340299 46
0.19308013 1.2455455 0.094173551 65
0.19644892 1.241057 0.1144854 13
0.20257208 1.2328987 0.13362093 31
0.18354961 1.2582436 0.16357364 69
0.18328589 1.2623433 0.010715778 66
0.18969795 1.2537346 0.031610917 30
0.17986512 1.2669359 0.054210871 51
0.20375067 1.2348677 0.071171694 65
0.19246551 1.250019 0.094799288 64
0.19231412 1.2502222 0.11639348 13
0.21125546 1.2247919 0.13092151 32
0.18418759 1.2611327 0.16409127 69
0.1825422 1.266772 0.010785587 78
0.20674461 1.2340524 0.030250182 65
0.17677569 1.2745678 0.054908119 75
0.19348913 1.2519727 0.073609084 77
0.20345706 1.2384969 0.092296332 80
0.20208114 1.240357 0.11372216 13
0.21392435 1.224346 0.13047162 32
0.18007407 1.2701087 0.16667947 67
0.18309495 1.2696635 0.010820492 91
0.20363805 1.2416872 0.03066887 64
0.18561471 1.266232 0.053862248 100
0.19517371 1.2532142 0.073609084 77
0.20860204 1.2349271 0.09135773 100
0.20023912 1.246316 0.11486702 13
0.22243279 1.2160919 0.1277722 16
0.18753907 1.2636113 0.16409127 69
0.18955305 1.2644774 0.010680873 93
0.21234563 1.2332095 0.03004084 66
0.18734908 1.2675009 0.053862248 100
0.19335461 1.2592623 0.074340299 46
0.20789981 1.2393085 0.091983467 93
0.20768625 1.2396015 0.11295892 13
0.22169611 1.2203821 0.128672 16
0.19836804 1.2523845 0.15995017 72
0.20300412 1.2495322 0.010331824 98
0.20576862 1.2457118 0.030773543 64
0.19375989 1.2623073 0.053165004 100
0.20786557 1.2428138 0.071659178 64
0.20490798 1.2469012 0.093234941 100
0.21508214 1.2328409 0.11105084 14
0.24726087 1.1883714 0.11922406 8
0.19439149 1.2614344 0.16253836 70
0.19301391 1.2669817 0.010680873 80
0.20976165 1.2436662 0.030564198 64
0.18385696 1.2797296 0.054908119 100
0.20951807 1.2440052 0.071659178 80
0.2111845 1.2416854 0.091983467 93
0.21784517 1.2324127 0.11066922 14
0.23849106 1.2036703 0.12327318 8
0.19949019 1.2579657 0.16098544 72
0.19939467 1.2617121 0.010541254 95
0.22301242 1.2285889 0.029517479 100
0.1902653 1.2745156 0.054210871 100
0.21117476 1.2451909 0.071659178 64
0.21168622 1.2444736 0.092296332 100
0.20920321 1.2479559 0.11410378 20
0.23887539 1.2063417 0.12372308 16
0.19895253 1.2623322 0.16202073 70
0.20111319 1.2629329 0.010541254 95
0.2223075 1.232988 0.029726824 100
0.19893476 1.2660108 0.053165004 100
0.2105419 1.2496114 0.072146654 79
0.21790934 1.239202 0.091044858 100
0.20406845 1.2587575 0.11639348 33
0.23589715 1.2137876 0.12552269 16
0.19955716 1.2651314 0.16253836 86
0.2050494 1.260815 0.010471444 96
0.21350873 1.2487787 0.03066887 96
0.20401844 1.262282 0.05264207 100
0.20528558 1.260479 0.073609084 62
0.21833125 1.2419169 0.09135773 94
0.2011756 1.2663269 0.11791996 78
0.23176783 1.2227986 0.1277722 40
0.2000902 1.2678713 0.163056 86
0.20905301 1.258736 0.010401634 83
0.21518201 1.2499503 0.03066887 96
0.20687887 1.2618526 0.052467756 100
0.21722165 1.2470266 0.071415432 48
0.21658996 1.2479321 0.092296332 100
0.21301964 1.25305 0.1144854 100
0.22331566 1.238291 0.13182132 86
0.19961962 1.2722585 0.16409127 93
0.21986818 1.2467709 0.010122396 99
0.22481838 1.2396219 0.029936166 66
0.19952402 1.2761517 0.053862248 100
0.22340909 1.2416571 0.070440479 65
0.22050935 1.245845 0.091670595 100
0.22253135 1.2429248 0.11181407 91
0.22606167 1.2378263 0.13137141 94
0.19697589 1.2798315 0.16616182 76
0.21020803 1.2644004 0.010471444 96
0.22872218 1.2374622 0.029726824 100
0.20467848 1.2724459 0.053339314 78
0.2239331 1.2444303 0.070684217 32
0.22552896 1.2421083 0.090731993 100
0.21751216 1.2537729 0.11410378 100
0.23321557 1.2309242 0.1291219 96
0.20204034 1.2762845 0.16460891 69
0.2051746 1.2754951 0.010680873 93
0.22472835 1.2468305 0.030250182 65
0.21204826 1.2654188 0.052467756 100
0.22559115 1.2455655 0.070684217 65
0.23385796 1.2334468 0.088854775 100
0.21920288 1.2549305 0.11410378 100
0.22494292 1.2465159 0.13317102 93
0.21143025 1.2663246 0.16098544 72
0.21703118 1.2617929 0.010366729 41
0.22303554 1.2529244 0.030564198 64
0.21377966 1.2665954 0.052467756 80
0.22280148 1.2532701 0.071659178 80
0.23326269 1.2378191 0.089480512 97
0.22970301 1.2430767 0.11105084 84
0.22879335 1.2444203 0.13227122 94
0.22291246 1.2531062 0.1563267 74
0.21874988 1.2629522 0.010366729 41
0.22472325 1.2540629 0.030564198 32
0.2221826 1.2578437 0.051421888 55
0.22781193 1.2494664 0.070927955 97
0.2293888 1.2471198 0.091044858 100
0.23683131 1.2360442 0.10914274 85
0.23479894 1.2390687 0.13047162 96
0.21813592 1.2638658 0.15943253 81
0.21603453 1.2707601 0.010506349 40
0.2308476 1.2485489 0.030145511 32
0.21946564 1.2656153 0.052119136 54
0.23058897 1.2489367 0.070684217 81
0.23215225 1.2465925 0.090731993 100
0.2373707 1.2387679 0.10952436 85
0.2386007 1.2369236 0.12957181 96
0.21771809 1.2682357 0.1604678 80
0.22219938 1.2652527 0.010366729 41
0.22370112 1.2629838 0.030982886 31
0.21459964 1.2767347 0.053165004 52
0.2322627 1.2500486 0.070684217 81
0.24035951 1.2378157 0.088854775 98
0.23684171 1.2431306 0.1102876 85
0.24130806 1.2363827 0.1291219 96
0.22052556 1.2677816 0.15995017 72
0.21734285 1.276422 0.010576159 40
0.22761703 1.2607812 0.030773543 32
0.23059079 1.2562541 0.050898954 55
0.22958088 1.2577915 0.071659178 80
0.2463325 1.2322896 0.087603301 100
0.23202795 1.2540662 0.1125773 96
0.24721751 1.2309422 0.1273223 97
0.22862893 1.2592406 0.15684435 74
0.22784892 1.2641788 0.010296919 42
0.21624365 1.2819812 0.032029606 30
0.22793788 1.2640423 0.051596198 54
0.23562181 1.2522552 0.070684217 81
0.243633 1.239966 0.088854775 98
0.23908025 1.2469499 0.11066922 85
0.24137887 1.2434238 0.13047162 96
0.22928366 1.2619779 0.15736198 74
0.23826537 1.2518684 0.010017681 43
0.23539057 1.2563121 0.030354854 32
0.23291102 1.2601449 0.051073264 55
0.24162009 1.2466828 0.069709264 66
0.24742129 1.2377155 0.088229038 98
0.24607897 1.2397904 0.10876112 87
0.24409181 1.242862 0.13002171 96
0.22890428 1.2663383 0.15839726 73
0.24194255 1.2494806 0.0099478718 73
0.25311372 1.232093 0.028784776 69
0.22475982 1.2762249 0.05264207 53
0.24204615 1.2493193 0.069953002 49
0.24355337 1.2469734 0.089793384 83
0.23906672 1.2539567 0.11181407 100
0.25189903 1.2339836 0.1273223 81
0.22942093 1.26897 0.15891489 73
0.23931801 1.2572975 0.010087491 57
0.24291769 1.2516515 0.029936166 66
0.23295543 1.2672771 0.051596198 82
0.23731813 1.2604344 0.071415432 48
0.25371578 1.234715 0.087290429 85
0.24814597 1.2434511 0.10914274 64
0.25561571 1.231735 0.12642249 90
0.23220316 1.2684571 0.15839726 73
0.23888263 1.2617588 0.0101573 71
0.25527912 1.2358422 0.028889447 100
0.23575842 1.266697 0.051421888 82
0.24327728 1.2548126 0.070440479 49
0.25745201 1.2324077 0.086664692 71
0.23825434 1.2627521 0.11334054 96
0.25931305 1.2294662 0.12552269 99
0.22878075 1.2777262 0.16098544 64
0.244854 1.2560674 0.010017681 58
0.25053543 1.2470175 0.029517479 100
0.24808756 1.2509167 0.049678773 86
0.25341514 1.2424303 0.068490572 50
0.26116851 1.23008 0.086038955 72
0.25876558 1.2339077 0.10647142 73
0.25781024 1.2354294 0.12687239 99
0.24288085 1.2592105 0.15477379 67
0.24769458 1.2554851 0.0099827768 87
0.24700716 1.2565891 0.03004084 99
0.23932073 1.2689331 0.051421888 82
0.24885291 1.2536249 0.069953002 49
0.25241515 1.2479041 0.089167647 70
0.25631684 1.2416382 0.10799789 87
0.25436771 1.2447684 0.1291219 88
0.24059135 1.2668924 0.15684435 66
0.25044218 1.2548362 0.0099478718 87
0.25290674 1.2508472 0.029622151 100
0.23478079 1.2801843 0.052467756 80
0.26097697 1.2377856 0.067515619 51
0.25616175 1.245579 0.08854191 84
0.25280532 1.2510114 0.10990598 92
0.26217255 1.2358505 0.12642249 99
0.23826602 1.2745433 0.15891489 65
0.24900097 1.2609934 0.010052586 86
0.25667474 1.2484758 0.029412808 100
0.24072883 1.274487 0.051770512 81
0.25846159 1.2455611 0.068490572 50
0.26401818 1.2364972 0.086664692 57
0.25653836 1.2486984 0.10914274 71
0.27092993 1.2252226 0.12327318 93
0.23599041 1.2822163 0.16098544 64
0.2516703 1.2602806 0.010017681 87
0.25826302 1.2494459 0.029412808 100
0.25276026 1.2584893 0.050027397 85
0.25591266 1.2533085 0.069465525 49
0.27070087 1.2290053 0.085100345 58
0.25404525 1.2563775 0.11066922 85
0.26940209 1.2311398 0.12462288 83
0.25174963 1.2601502 0.15373851 68
0.25751755 1.2544713 0.0098780617 88
0.26406738 1.2436221 0.028994121 100
0.25755641 1.2544069 0.049504463 86
0.25965345 1.2509334 0.068978049 50
0.27332574 1.2282864 0.084787481 59
0.26386222 1.2439619 0.10761628 79
0.26799196 1.2371213 0.12597258 90
0.25745618 1.2545729 0.15166797 69
0.26426485 1.2468619 0.0097035384 90
0.25332066 1.2651265 0.030250182 98
0.25199589 1.2673374 0.05072464 100
0.26533115 1.2450824 0.068003096 68
0.26063246 1.252924 0.089167647 70
0.2634173 1.2482762 0.10837951 79
0.26753926 1.2413971 0.12687239 90
0.25409994 1.263826 0.15425615 75
0.26601455 1.247906 0.0097035384 90
0.27146196 1.2387388 0.028575432 100
0.25585634 1.2650007 0.05037602 84
0.27214468 1.2375898 0.066784397 34
0.26644084 1.2471886 0.087916173 70
0.26717803 1.245948 0.10761628 79
0.27922392 1.2256765 0.12237337 85
0.24900377 1.2765326 0.15787962 65
0.26353762 1.2557349 0.0098431576 88
0.27606165 1.2344987 0.028261416 100
0.24839041 1.281419 0.051944822 81
0.27067158 1.2436383 0.067515619 51
0.2720387 1.2413201 0.086664692 71
0.25978208 1.2621028 0.11105084 100
0.28370631 1.2215362 0.12102367 77
0.2487224 1.280856 0.15891489 65
0.25733116 1.270642 0.010122396 99
0.27683923 1.2372713 0.028366089 100
0.2604115 1.2653729 0.050201707 85
0.26447761 1.2584174 0.069465525 49
0.2778382 1.2355626 0.085413218 73
0.27455431 1.2411799 0.1060898 66
0.28249159 1.2276025 0.12237337 85
0.2633864 1.2602839 -0.0099129668 87
0.2662856 1.2553246 0.15063268 70
0.27003118 1.2525833 0.0097384425 75
0.27438128 1.245085 0.028784776 100
0.26605502 1.259437 0.049504463 86
0.26709497 1.2576444 0.069221787 50
0.27938354 1.2364626 0.085413218 58
0.2702072 1.2522799 0.10837951 79
0.28596634 1.2251158 0.12147357 86
0.26595768 1.2596047 0.15166797 69
0.27479318 1.2484061 0.0096337283 90
0.27214074 1.2530169 0.029203463 100
0.2618899 1.2708366 0.05055033 84
0.27581307 1.2466332 0.067515619 51
0.28109503 1.2374513 0.085413218 58
0.27099776 1.2550039 0.10876112 87
0.28083417 1.2379048 0.12462288 83
0.2619743 1.2706897 0.15477379 67
0.27439842 1.2527894 0.0097035384 90
0.27572435 1.2504666 0.028994121 100
0.26355234 1.2717892 0.05055033 84
0.28329995 1.237196 0.066053182 52
0.27970868 1.243487 0.086351827 58
0.27163431 1.2576314 0.10914274 78
0.28721783 1.2303327 0.12237337 85
0.27321362 1.2548648 0.14959741 70
0.27518478 1.2555366 0.0097384425 60
0.2804386 1.2462542 0.028680105 100
0.2634306 1.2763035 0.050898954 100
0.27914727 1.2485356 0.067515619 51
0.284365 1.2393172 0.085413218 58
0.27342346 1.2586484 0.10914274 78
0.29082659 1.227901 0.12147357 86
0.25786412 1.2861383 0.15891489 65
0.27287948 1.2634193 0.0098780617 73
0.28104135 1.2488869 0.028784776 100
0.26901373 1.2703023 0.050201707 85
0.2710149 1.2667392 0.069953002 49
0.28979203 1.2333062 0.084161744 74
0.274084 1.2612746 0.10952436 85
0.29330075 1.2270588 0.12102367 86
0.26714531 1.2736292 0.15477379 67
0.28636375 1.2434664 0.009459204 77
0.28474167 1.2463795 0.028575432 100
0.27666494 1.2608845 0.049155839 87
0.27863175 1.2573524 0.068490572 67
0.28764787 1.2411602 0.085413218 73
0.29116806 1.2348382 0.10341848 83
0.29497766 1.2279966 0.12102367 86
0.27177134 1.269673 -0.0099827768 86
0.27839133 1.2577841 0.14959741 70
0.28600121 1.2478387 0.0095290141 76
0.27859604 1.261242 0.029412808 100
0.27347681 1.2705078 0.050027397 85
0.28216931 1.2547745 0.068003096 51
0.28539068 1.2489438 0.086664692 71
0.28891331 1.2425678 0.10494494 82
0.29461306 1.2322512 0.12192347 76
0.27342984 1.2705929 -0.0099827768 86
0.27440506 1.2688277 0.15270324 68
0.28103009 1.26108 0.0097733475 89
0.28999272 1.2447163 0.028366089 100
0.27244183 1.2767603 0.05055033 84
0.28490147 1.2540119 0.067759357 68
0.28904572 1.2464453 0.086038955 58
0.28876093 1.2469653 0.10570818 81
0.27623519 1.2698345 0.15270324 68
0.27979571 1.2672404 0.0098780617 88
0.29538286 1.2385564 0.0279474 100
0.27412382 1.277678 0.05055033 84
0.2893514 1.2496556 0.067028143 51
0.29534298 1.2386297 0.084474608 59
0.28284493 1.2616291 0.10876112 79
0.27693135 1.2725115 -0.0099827768 86
0.27789423 1.2707396 0.15270324 68
0.28256834 1.2664669 0.0098431576 88
0.29141882 1.2500367 0.028575432 100
0.29204929 1.2488662 0.047587037 90
0.28546271 1.2610937 0.068490572 50
0.2951887 1.2430382 0.085100345 58
0.28930393 1.2539628 0.10685304 81
0.28446501 1.2629459 -0.0097733475 88
0.28339601 1.2649304 0.15063268 70
0.29081362 1.2550054 0.0095988233 76
0.29395345 1.24913 0.02847076 100
0.28988245 1.2567478 0.048284281 88
0.28896391 1.2584667 0.068003096 51
0.29276088 1.2513616 0.1060898 81
0.28233117 1.2708783 -0.0099129668 87
0.29050183 1.2555888 0.14752686 71
0.29165697 1.2577193 0.0096337283 90
0.29197171 1.257125 0.028889447 100
0.28793782 1.2647405 0.048981529 87
0.29261437 1.2559118 0.067515619 51
0.29820275 1.2453616 0.10456333 75
0.28323275 1.2736231 -0.0099478718 96
0.29228336 1.2565367 0.14752686 79
0.29513603 1.2550329 0.0095639192 91
0.28957987 1.2656069 0.048981529 87
0.29976735 1.246219 0.066053182 52
0.29978052 1.246194 0.10456333 75
0.29030377 1.2642292 0.14959741 70
0.29674587 1.2558753 0.0095639192 91
0.29398751 1.2611673 0.048458595 59
0.29767776 1.2540874 0.067028143 51
0.29954612 1.2505031 0.10532656 67
0.29120016 1.266515 -0.0097733475 99
0.29015827 1.2685138 0.15063268 70
0.2983585 1.2567124 0.0095639192 91
0.2937876 1.2655532 0.048807215 58
0.29928446 1.2549216 0.067028143 51
0.29933757 1.2548188 0.1060898 66
0.29009289 1.2726994 -0.0098780617 100
0.29536179 1.2625085 0.14856213 71
0.29942384 1.2594581 0.067515619 51
0.29211295 1.2737386 -0.0098780617 100
0.29742706 1.267418 0.048807215 58
0.29897889 1.2643619 0.14856213 71
0.29983744 1.2669606 0.14907977 78
0.29823694 1.2745175 0.049330149 58
0.29820663 1.2745782 -0.0098431576 100
0.2998485 1.271288 0.15011504 78
0.29996946 1.275454 -0.0098431576 100
0.29997462 1.2799147 -0.0099129668 100
