# .PCD v0.7 - Point Cloud Data file format
VERSION 0.7
FIELDS x y z intensity
SIZE 4 4 4 4
TYPE F F F F
COUNT 1 1 1 1
WIDTH 752
HEIGHT 1
VIEWPOINT 0 0 0 1 0 0 0
POINTS 752
DATA ascii
0.060162991 0.015140414 0.015707165 43
0.04733485 0.00096851587 0.048149079 32
0.046850622 0.0060638189 0.047939736 20
0.041007757 0.0027435422 0.048253752 100
0.042772293 0.011166751 0.047835063 75
0.038027883 0.0095394254 0.04804441 45
0.044215858 0.024642408 0.047207031 30
0.033858299 0.014781117 0.047939736 18
0.032095551 0.018413126 0.047835063 9
0.025051177 0.013571322 0.048253752 8
0.020125091 0.012134612 0.048463095 8
0.019914567 0.017162025 0.048253752 8
-0.20728272 0.57542193 0.013647782 16
-0.22152686 0.57463038 0.013892115 55
-0.22213686 0.57705516 0.013892115 78
-0.23639768 0.57640553 0.014136449 67
-0.2351585 0.57976002 0.014101544 75
-0.22609234 0.58482242 0.01392702 70
-0.22864872 0.58693939 0.013961925 69
-0.2273348 0.59010935 0.01392702 70
-0.22795796 0.59282386 0.01392702 78
-0.23247433 0.594666 0.01399683 85
-0.22136468 0.59998101 0.013787401 81
-0.21218187 0.60479265 0.013612877 100
-0.220577 0.60578704 0.013752496 89
-0.22701722 0.60724795 0.013857211 72
-0.23933244 0.60754251 0.014066639 30
-0.25165492 0.60792112 0.014276069 36
-0.24829298 0.61149931 0.014206259 14
-0.26258069 0.61160874 0.014450593 13
-0.28669757 0.60993731 0.014869451 12
-0.31476647 0.60769463 0.015358117 10
-0.30153382 0.61309969 0.015113784 11
-0.31781906 0.61322916 0.015393022 10
-0.34792483 0.6111868 0.015916595 8
-0.38391155 0.60801393 0.016544882 6
-0.40615731 0.60759139 0.016928835 8
-0.41852599 0.60879302 0.017138263 11
-0.4230302 0.61153197 0.017208073 20
-1.017652 1.1270251 0.084260888 5
-1.0351989 1.1310213 0.14223817 4
-1.0359049 1.1367182 0.028412517 8
-0.99505454 1.127272 0.083109498 11
-1.0281696 1.1349294 0.14171524 19
-1.0112548 1.136764 0.02799366 18
-1.0015752 1.1344901 0.083528183 78
-1.0113695 1.136791 0.14032075 65
-0.98844081 1.1376435 0.027609708 37
-1.0079346 1.1423019 0.083946876 100
-1.0215764 1.1455619 0.14136662 100
-0.98326153 1.1420683 0.027539898 45
-0.98915714 1.1434989 0.083004825 100
-1.0028303 1.1468168 0.13979781 86
-0.98791045 1.1483163 0.027644612 30
-0.98215789 1.1469011 0.082690813 100
-1.0055082 1.1526452 0.14014643 86
-0.98651356 1.1539505 0.027644612 23
-0.98076612 1.1525142 0.082690813 61
-1.0021622 1.1578609 0.13997212 81
-0.9773429 1.1576118 0.027504992 32
-0.97741801 1.1576309 0.082586139 38
-1.0007303 1.1635472 0.13997212 69
-0.96235698 1.1597143 0.027260659 56
-0.97792107 1.163725 0.082690813 41
-0.97419578 1.162765 0.13770607 89
-0.95912153 1.164222 0.027225753 67
-0.97853941 1.1692944 0.082795486 84
-0.98059565 1.1698315 0.13840333 91
-0.95186776 1.168213 0.027121039 72
-0.96162122 1.1707991 0.081958108 96
-0.9752683 1.1744175 0.1380547 99
-0.95633262 1.1747479 0.027225753 81
-0.95063967 1.1732183 0.081434749 96
-0.9719947 1.1789563 0.13788038 100
-0.96641463 1.1834221 0.027435184 81
-0.95300561 1.1797663 0.081644088 100
-0.96279663 1.1824356 0.13718314 100
-0.94204885 1.1815391 0.027016325 92
-0.94985777 1.1836929 0.081539422 100
-0.96156627 1.1869224 0.13718314 98
-0.93667895 1.1859274 0.026946515 93
-0.94833142 1.1891874 0.081539422 90
-0.95235306 1.1903126 0.13648589 94
-0.93906575 1.1922053 0.027016325 88
-0.93148702 1.1900564 0.080702044 82
-0.95279366 1.1960977 0.1366602 100
-0.96057039 1.2042906 0.027435184 50
-0.92993742 1.1954836 0.080702044 54
-0.95505148 1.202704 0.13700883 100
-0.9572019 1.2087386 0.027400278 42
-0.92276531 1.1987143 0.080388032 22
-0.94404334 1.2049081 0.13613728 89
-0.93256849 1.2074685 0.026981421 64
-0.92884654 1.2063704 0.080806717 26
-0.94243926 1.2103812 0.13613728 85
-0.91585761 1.2075484 0.026702182 74
-0.92938215 1.2115853 0.08091139 28
-0.93532091 1.213358 0.13561434 92
-0.91807216 1.214076 0.026771991 75
-0.91819519 1.2141132 0.080388032 58
-0.93750006 1.2199527 0.13596296 100
-0.92232782 1.2206978 0.026876707 78
-0.91098505 1.2172257 0.080074012 100
-0.94171518 1.2266326 0.13648589 98
-0.92066604 1.2260911 0.026876707 81
-0.90933603 1.2225775 0.080074012 92
-0.92100173 1.2261952 0.13474278 87
-0.90769762 1.2273736 0.026667276 88
-0.91163856 1.2286102 0.080283359 76
-0.91757983 1.2304742 0.13456847 59
-0.89457673 1.2290794 0.026457848 77
-0.91375476 1.2351741 0.080492698 66
-0.91208464 1.2346432 0.13421984 43
-0.89693516 1.2348386 0.026527658 78
-0.90277845 1.2367158 0.079969339 84
-0.91061777 1.2392342 0.13421984 43
-0.89522165 1.2401388 0.026527658 93
-0.88586372 1.2370946 0.079131968 100
-0.91646677 1.2470499 0.1349171 52
-0.89745384 1.2461785 0.026597468 100
-0.89379305 1.2449743 0.079655327 100
-0.91298407 1.2512877 0.13474278 73
-0.88431531 1.2476894 0.026388038 100
-0.89772731 1.2521561 0.079969339 100
-0.89986843 1.2528691 0.13369691 82
-0.86756223 1.2473378 0.0261088 100
-0.89612049 1.2569543 0.079969339 100
-0.89448279 1.2564029 0.13334829 84
-0.86975759 1.2533249 0.02617861 96
-0.8831535 1.2578852 0.079341307 100
-0.90040618 1.2637585 0.13404553 87
-0.87562484 1.260882 0.02631823 99
-0.87766486 1.2615844 0.079131968 100
-0.89867383 1.2688184 0.13404553 100
-0.87021202 1.2642922 0.02624842 81
-0.8684817 1.26369 0.078713275 100
-0.89324838 1.2723098 0.13369691 73
-0.86453158 1.2684127 0.02617861 81
-0.86469191 1.2684692 0.07860861 70
-0.89130908 1.2778478 0.13369691 38
-0.85533565 1.2704175 0.026038991 88
-0.85926801 1.2718177 0.078399263 27
-0.87460142 1.2772777 0.13230242 35
-0.85349208 1.2755649 0.026038991 100
-0.85741931 1.2769797 0.078399263 23
-0.87835604 1.2845215 0.13282534 31
-0.85556608 1.2815843 0.0261088 100
-0.85385352 1.2809609 0.07829459 68
-0.88225871 1.2912996 0.13334829 18
-0.85377175 1.2864873 0.0261088 100
-0.84831256 1.2844789 0.078085244 100
-0.87669057 1.29492 0.13299966 13
-0.83330721 1.2841725 0.025759751 100
-0.8465988 1.289113 0.078085244 100
-0.87307447 1.298954 0.13282534 1
-0.8351571 1.2906463 0.025829561 100
-0.83907813 1.2921202 0.077771232 46
-0.87112623 1.3041662 0.13282534 1
-0.83716196 1.2966564 0.025899371 93
-0.83547193 1.2960148 0.077666558 51
-0.84885782 1.3010969 0.13090792 7
-0.83708924 1.3024536 0.025934275 72
-0.83353466 1.3010892 0.077666558 59
-0.86736244 1.3140745 0.13282534 39
-0.83904487 1.3084961 0.026004085 75
-0.83362812 1.3063962 0.077771232 72
-0.84511596 1.3108497 0.13090792 86
-0.82589084 1.3092058 0.025794657 88
-0.83351237 1.3121926 0.077875905 61
-0.84126931 1.3152325 0.13073361 100
-0.8147983 1.3100863 0.025620133 99
-0.8279925 1.3153076 0.077666558 80
-0.83204311 1.3169105 0.13003637 99
-0.81299978 1.3146092 0.025620133 99
-0.82432193 1.3191332 0.077561885 91
-0.83392233 1.3229692 0.130385 97
-0.81860417 1.3221185 0.025759751 100
-0.81508452 1.3206987 0.0771432 95
-0.83392864 1.3283007 0.1305593 100
-0.81657141 1.327131 0.025759751 100
-0.82045478 1.3287143 0.077561885 100
-0.82818311 1.3318651 0.13021068 100
-0.79923898 1.3200649 0.17890419 17
-0.80731958 1.3286154 0.025620133 100
-0.81120676 1.3302152 0.0771432 99
-0.80973035 1.3296077 0.12864187 100
-0.76987189 1.3132036 0.17524812 15
-0.79408699 1.3292141 0.025410704 100
-0.80535752 1.3339033 0.076933853 100
-0.81492966 1.3378859 0.12933913 100
-0.79893392 1.3312308 0.17939167 26
-0.79591256 1.3352168 0.025480513 100
-0.79243129 1.3337548 0.076305822 100
-0.80936497 1.3408661 0.1289905 100
-0.7732721 1.3257089 0.17622307 22
-0.80139536 1.3427985 0.025620133 100
-0.78687662 1.3366445 0.076096483 87
-0.81480211 1.3484809 0.12968774 100
-0.76959437 1.3293192 0.17597933 18
-0.81419688 1.3535686 0.025899371 61
-0.80335325 1.3489299 0.0771432 40
-0.80188543 1.3483019 0.12864187 52
-0.79510897 1.3454032 0.17963541 12
-0.81388444 1.3593578 0.025934275 71
-0.81588954 1.3602242 0.077980578 74
-0.82353288 1.3635271 0.13090792 30
-0.78934652 1.3487546 0.17914793 5
-0.79715592 1.3577181 0.025655037 100
-0.81382102 1.3649886 0.077980578 100
-0.80866951 1.3627411 0.12968774 93
-0.77822071 1.3494573 0.17792924 26
-0.78960603 1.3599989 0.025550323 100
-0.80076879 1.3649154 0.077352546 100
-0.82482594 1.3755108 0.13143086 100
-0.78163999 1.3564906 0.17866045 36
-0.80215627 1.3711706 0.025829561 100
-0.80050892 1.3704382 0.077457212 100
-0.80996007 1.3746402 0.13021068 100
-0.75600404 1.3506513 0.17549185 24
-0.80187398 1.3767056 0.025864467 100
-0.80569345 1.3784198 0.077875905 100
-0.80784124 1.3793836 0.13021068 100
-0.78656846 1.3698367 0.17987914 19
-0.79246181 1.3781204 0.025724847 100
-0.80901927 1.3856206 0.078189917 100
-0.8002612 1.3816533 0.12968774 100
-0.77904183 1.3720412 0.17914793 19
-0.78669363 1.3811398 0.025655037 100
-0.81594414 1.3945131 0.078713275 100
-0.80355388 1.3888483 0.13021068 100
-0.77151626 1.3742006 0.17841671 15
-0.79907805 1.3925046 0.025934275 100
-0.80468839 1.3950933 0.078189917 100
-0.81223994 1.3985779 0.13125655 100
-0.75858432 1.3738196 0.17695428 11
-0.79689687 1.3972099 0.025934275 100
-0.80249816 1.3998183 0.078189917 100
-0.81003743 1.4033291 0.13125655 100
-0.76186734 1.3808978 0.1776855 11
-0.80555815 1.4070106 0.026143705 100
-0.80029148 1.4045355 0.078189917 100
-0.80421203 1.4063779 0.13090792 100
-0.76511675 1.3880061 0.17841671 7
-0.7925964 1.4063634 0.025934275 100
-0.80720371 1.4132869 0.078713275 100
-0.79489273 1.4074517 0.13021068 100
-0.78099805 1.400866 0.18085411 1
-0.78495485 1.4084578 0.025829561 100
-0.80855364 1.419744 0.078922622 100
-0.79984897 1.415581 0.13090792 100
-0.78980917 1.4168239 0.025969181 100
-0.80796164 1.4255874 0.079027295 100
-0.81182772 1.4274538 0.13230242 100
-0.79832977 1.4267507 0.02617861 100
-0.80386943 1.4294488 0.078922622 100
-0.81310683 1.4339483 0.13265105 100
-0.79614455 1.4312183 0.02617861 100
-0.7980898 1.4321737 0.078713275 100
-0.80732101 1.4367081 0.13230242 100
-0.79382819 1.4359131 0.02617861 100
-0.79755968 1.4377623 0.078817949 100
-0.79427415 1.4361341 0.13125655 100
-0.78780144 1.4390452 0.0261088 99
-0.81296653 1.4516304 0.079864666 100
-0.80607933 1.4481862 0.13265105 100
-0.79259938 1.4473135 0.02624842 100
-0.80344599 1.4527855 0.07944598 100
-0.80726153 1.4547104 0.13299966 100
-0.79735583 1.4556236 0.026388038 100
-0.79749435 1.4556942 0.079236634 100
-0.81729311 1.4657691 0.13421984 100
-0.80207056 1.4639752 0.026527658 100
-0.79864639 1.4622176 0.07944598 100
-0.8077659 1.4668984 0.1335226 100
-0.79265779 1.4647789 0.026388038 100
-0.80343884 1.4703577 0.079864666 100
-0.80190843 1.4695659 0.13317397 100
-0.79022437 1.4694614 0.026388038 99
-0.80098587 1.4750779 0.079864666 100
-0.80299085 1.4761243 0.1335226 100
-0.78789753 1.473902 0.026388038 96
-0.79157013 1.4758341 0.07944598 100
-0.80769473 1.4843178 0.13421984 100
-0.78896517 1.4804423 0.026457848 44
-0.78204101 1.4767684 0.079027295 42
-0.80519313 1.4890527 0.13421984 82
0.15797606 1.2579281 0.010925206 13
0.1371876 1.2838023 0.03454173 27
0.098261416 1.3322513 0.063100755 19
0.13683811 1.2842371 0.12822364 17
0.20458215 1.1999204 0.1273223 8
0.13739684 1.2835418 0.1765146 6
0.15710166 1.2623515 0.010995016 38
0.15135145 1.2695572 0.033495013 28
0.16350809 1.2543234 0.054210871 51
0.1451126 1.2773752 0.079702549 27
0.1458621 1.2764361 0.10262101 11
0.15079132 1.2702591 0.12440746 60
0.18534601 1.2269578 0.13497064 15
0.14030704 1.2833972 0.17599694 13
0.1638751 1.2575178 0.010855397 100
0.16682562 1.2537925 0.032343622 90
0.15044153 1.2744789 0.056302611 96
0.1703923 1.2492893 0.075071514 15
0.16734436 1.2531376 0.097615108 37
0.16237903 1.2594068 0.12135452 100
0.19065306 1.2237083 0.13362093 38
0.15178698 1.2727802 0.17185585 43
0.1543667 1.2729409 0.01116954 100
0.17460626 1.2472117 0.03182026 100
0.14842114 1.280499 0.056825545 100
0.16339248 1.261467 0.076777689 29
0.16650599 1.257509 0.098240845 36
0.16400409 1.2606895 0.12135452 100
0.18493047 1.2340872 0.13632034 38
0.15465087 1.2725797 0.1713382 43
0.16236565 1.2665064 0.010995016 100
0.17758694 1.2470101 0.031715591 100
0.15519926 1.2756855 0.056128297 97
0.16519642 1.2628807 0.076777689 29
0.18045157 1.243341 0.095112152 25
0.1730541 1.2528161 0.11906482 100
0.19143081 1.229278 0.13452072 31
0.15174022 1.2801162 0.17340876 42
0.16769031 1.2630484 0.010890301 91
0.17794695 1.2498207 0.03182026 61
0.16664535 1.264396 0.054733805 75
0.16561657 1.2657228 0.077021427 29
0.16991875 1.2601744 0.098240845 36
0.18307841 1.2432029 0.11639348 59
0.18698516 1.2381647 0.13677025 30
0.14633134 1.2905941 0.1765146 41
0.17917231 1.2517035 0.010611063 81
0.17109573 1.2621949 0.032552965 59
0.16837344 1.2657311 0.054733805 50
0.18793494 1.2403208 0.072877869 47
0.17886207 1.2521064 0.096363634 37
0.18113962 1.2491479 0.11753834 13
0.18505535 1.2440615 0.13811995 22
0.15168634 1.2874076 0.17496167 49
0.17226979 1.2640506 0.010855397 52
0.19941789 1.2285423 0.030250182 32
0.16880932 1.2685767 0.054908119 50
0.18708518 1.2446729 0.073365346 46
0.19246078 1.2376418 0.093234941 53
0.19584733 1.2332125 0.11334054 13
0.2067509 1.2189512 0.13047162 32
0.16631129 1.271844 0.16926765 59
0.17416957 1.2654973 0.010855397 39
0.18911129 1.2457981 0.031296901 31
0.16831845 1.2732115 0.055256739 49
0.18531156 1.2508076 0.07409656 61
0.1978403 1.2342896 0.092296332 53
0.18220487 1.2549036 0.11830158 13
0.20376661 1.2264764 0.13227122 47
0.16824105 1.2733135 0.16926765 66
0.17581478 1.2667409 0.010855397 39
0.15464002 1.2948511 0.03443706 27
0.16879046 1.2760658 0.055431053 49
0.18451923 1.2551855 0.074584037 91
0.20057043 1.2338772 0.091983467 53
0.18853986 1.249848 0.1167751 13
0.20645475 1.2260655 0.13182132 39
0.17804864 1.2637753 0.16564418 68
0.18482175 1.2584993 0.010645968 40
0.18048328 1.2643028 0.032343622 30
0.17899838 1.2662892 0.054210871 51
0.19105422 1.2501621 0.073609084 62
0.19990748 1.238319 0.092609204 53
0.20323139 1.2338727 0.1125773 13
0.20229465 1.2351258 0.13407083 46
0.18448764 1.2589462 0.16357364 69
0.18525171 1.2613131 0.010680873 80
0.18926769 1.2559036 0.031715591 30
0.1818338 1.2659171 0.054036561 51
0.19974816 1.2417865 0.072146654 63
0.20028493 1.2410635 0.092922069 66
0.21179315 1.225562 0.1102876 14
0.20500058 1.2347115 0.13362093 31
0.18380797 1.2632579 0.16460891 69
0.1870549 1.2626467 0.010680873 80
0.19934359 1.2459666 0.030982886 63
0.18601742 1.2640549 0.053687938 78
0.19441509 1.2526562 0.073609084 77
0.20201379 1.2423421 0.092922069 79
0.20298481 1.2410241 0.11372216 13
0.21595311 1.2234215 0.13002171 24
0.18561831 1.2645967 0.16460891 69
0.18869057 1.2638476 0.010680873 80
0.21507564 1.2277837 0.029726824 67
0.17471698 1.2829471 0.055605363 98
0.20070612 1.2474244 0.072634131 78
0.20941401 1.2355223 0.09135773 94
0.20686716 1.2390033 0.11295892 13
0.22666386 1.2119446 0.12642249 16
0.18041632 1.275157 0.16771474 67
0.18806642 1.2683418 0.010750682 92
0.20376518 1.2467263 0.030878214 63
0.18821794 1.268133 0.053862248 100
0.1872099 1.269521 0.075802729 100
0.21336269 1.2335116 0.090731993 100
0.20735267 1.2417867 0.11334054 13
0.23736984 1.2004565 0.12282328 8
0.19012856 1.2655023 0.16409127 69
0.19673938 1.2598079 0.010541254 95
0.20301133 1.2511116 0.031087559 94
0.19453365 1.2628663 0.053165004 100
0.20860869 1.2433507 0.071659178 80
0.21027955 1.241034 0.091983467 100
0.20891905 1.2429204 0.11334054 13
0.25133821 1.1841048 0.11787435 17
0.19855401 1.2572919 0.16098544 72
0.19853699 1.2610993 0.010541254 95
0.21175122 1.2426351 0.030459527 65
0.1963425 1.2641658 0.053165004 100
0.19994831 1.2591274 0.073852822 100
0.21315789 1.2406696 0.091670595 100
0.21636757 1.2361847 0.11143246 14
0.24038258 1.2026286 0.12282328 17
0.19359657 1.2680026 0.16409127 77
0.20480102 1.2557422 0.010401634 97
0.21910527 1.2356141 0.029936166 99
0.19105822 1.2750802 0.054210871 100
0.21652129 1.2392502 0.070684217 81
0.21014336 1.2482247 0.092922069 100
0.20654258 1.2532916 0.11524864 20
0.23165911 1.2179492 0.12687239 16
0.18741637 1.2802048 0.16771474 82
0.20419329 1.2602122 0.010471444 96
0.21843001 1.2400304 0.030145511 98
0.19282347 1.27633 0.054210871 100
0.20900714 1.2533882 0.072634131 63
0.21523076 1.2445657 0.091983467 100
0.20030987 1.2657173 0.11791996 52
0.23097804 1.2222425 0.1277722 32
0.19476745 1.2735742 0.16512655 83
0.20123175 1.2679077 0.010611063 94
0.21999052 1.2411274 0.030145511 98
0.19907677 1.2709842 0.053513627 100
0.2094731 1.2561421 0.072877869 63
0.22360617 1.2359656 0.090106249 100
0.20308203 1.2652662 0.11753834 99
0.23247948 1.2232978 0.1277722 56
0.19865599 1.271585 0.16409127 93
0.20990652 1.2593304 0.010401634 97
0.21829993 1.2472539 0.030459527 65
0.20773783 1.2624507 0.052467756 100
0.21692181 1.2492367 0.071659178 64
0.22418883 1.2387809 0.090419121 96
0.21834508 1.2471889 0.11295892 96
0.22635785 1.2356601 0.13092151 88
0.20159927 1.2712829 0.16357364 85
0.2206175 1.2472889 0.010122396 85
0.20967463 1.2631456 0.031401575 93
0.20937273 1.2635829 0.052467756 100
0.22527787 1.2405357 0.07019674 66
0.22125721 1.246362 0.091670595 100
0.22773504 1.2369753 0.1102876 85
0.22236949 1.2447501 0.13317102 93
0.20655531 1.2676656 0.16202073 78
0.22002545 1.2517353 0.010192205 85
0.23284286 1.2330229 0.029412808 67
0.20659405 1.2713439 0.053165004 100
0.22243515 1.2482173 0.071171694 81
0.22180572 1.2491362 0.091983467 100
0.22271031 1.2478156 0.1125773 100
0.23504123 1.2298136 0.128672 89
0.20283604 1.2768304 0.16460891 85
0.2160019 1.2610945 0.010366729 69
0.22876406 1.2423296 0.029936166 66
0.2037766 1.2790699 0.053862248 100
0.23072094 1.2394524 0.069709264 66
0.23672715 1.2306211 0.088229038 98
0.22540069 1.247275 0.11219569 98
0.23656777 1.2308555 0.128672 89
0.20234582 1.2811737 0.16564418 76
0.21341714 1.2690046 0.010506349 40
0.23169687 1.2419038 0.029831495 33
0.21576101 1.2655296 0.052293446 53
0.22364545 1.2538404 0.071659178 80
0.23628891 1.2350959 0.088854775 100
0.21845296 1.2615387 0.11524864 100
0.2318013 1.241749 0.13137141 94
0.21619418 1.2648875 0.15995017 72
0.22842631 1.2501798 0.010087491 43
0.2088137 1.2794657 0.032134276 30
0.21851474 1.2649798 0.052119136 54
0.22746089 1.2516212 0.071171694 81
0.23563457 1.2394162 0.089480512 97
0.22554696 1.2544792 0.11334054 100
0.23553613 1.2395632 0.13047162 96
0.22213697 1.2595711 0.15787962 73
0.23010442 1.2512994 0.010087491 43
0.21943858 1.2673466 0.031296901 31
0.2136274 1.2760899 0.053165004 52
0.23573697 1.2428248 0.069709264 83
0.23290128 1.2470913 0.090731993 95
0.23376048 1.2457986 0.11105084 91
0.24257064 1.2325432 0.12822211 97
0.2238479 1.2607125 0.15787962 73
0.22289121 1.2657099 0.010366729 27
0.21448946 1.2784421 0.031924933 30
0.22189161 1.2672248 0.052119136 54
0.23839995 1.2422075 0.069465525 99
0.23774907 1.2431939 0.089793384 97
0.23750263 1.2435673 0.1102876 85
0.23981291 1.2400663 0.13002171 100
0.22547695 1.2617915 0.15787962 81
0.21704349 1.2786171 0.010611063 27
0.21197957 1.2863526 0.032343622 30
0.22698998 1.2634231 0.051596198 54
0.23904553 1.2450073 0.069709264 83
0.24489516 1.2360715 0.088229038 98
0.23386398 1.2529225 0.11219569 84
0.24473992 1.2363087 0.128672 97
0.22304925 1.2694428 0.15995017 72
0.23507744 1.2545679 0.010087491 43
0.23763785 1.2506281 0.03004084 33
0.23514229 1.254468 0.05055033 56
0.2427859 1.2427069 0.069221787 83
0.24967173 1.2321117 0.087290429 85
0.23653701 1.252322 0.11181407 91
0.24841177 1.2340504 0.1277722 97
0.2299709 1.2624252 0.15736198 74
0.23460314 1.2590251 0.0101573 42
0.24364755 1.2450018 0.029622151 33
0.22603655 1.2723076 0.052293446 53
0.24121004 1.2487811 0.069953002 66
0.247004 1.2397976 0.08854191 84
0.24779931 1.2385644 0.10837951 87
0.25214592 1.231825 0.12687239 99
0.23692709 1.2554219 0.15477379 75
0.24269608 1.2499639 0.0099478718 58
0.24414742 1.2476971 0.029726824 67
0.23737291 1.2582779 0.05072464 56
0.2460106 1.2447871 0.069221787 83
0.24856356 1.2407997 0.08854191 70
0.25041339 1.2379105 0.10799789 79
0.2473743 1.2426572 0.12957181 96
0.23124677 1.267846 0.15839726 73
0.24437335 1.2510337 0.0099478718 58
0.24260357 1.2538191 0.03004084 66
0.23373696 1.2677746 0.051596198 82
0.25299248 1.2374678 0.068003096 51
0.25232747 1.2385144 0.087916173 56
0.24152023 1.2555243 0.11181407 98
0.26052156 1.2256175 0.12462288 83
0.2360945 1.264064 0.15684435 66
0.24063635 1.2605014 0.010122396 85
0.2537989 1.2396319 0.029098792 100
0.23326361 1.272191 0.051944822 54
0.25242633 1.2418082 0.068490572 50
0.25177515 1.2428406 0.08854191 84
0.25151062 1.24326 0.10876112 79
0.26307362 1.2249267 0.12417299 100
0.2336123 1.2716382 0.15891489 65
0.24349675 1.2599367 0.010087491 57
0.25340363 1.2441008 0.029308135 100
0.23827645 1.2682812 0.051421888 82
0.24784067 1.2529931 0.069953002 49
0.25770089 1.2372319 0.087290429 71
0.24179357 1.2626592 0.11295892 89
0.26060879 1.2325836 0.12597258 90
0.23955134 1.2662433 0.15684435 66
0.24828795 1.255854 0.0099827768 87
0.25497743 1.2450818 0.029308135 100
0.23572618 1.2760825 0.052119136 81
0.24420783 1.2624243 0.071171694 97
0.25508344 1.2449111 0.08854191 70
0.25378612 1.2470002 0.10914274 64
0.2611163 1.2351962 0.12642249 82
0.24527523 1.2607055 0.15477379 67
0.25007072 1.2569566 0.0099827768 87
0.24519899 1.2648661 0.030459527 100
0.24176267 1.2704453 0.051421888 82
0.25538412 1.2483299 0.068978049 50
0.26304176 1.2358972 0.086664692 57
0.25347722 1.2514259 0.10990598 78
0.26077932 1.2395704 0.1273223 97
0.23998395 1.2733332 0.15839726 73
0.26211768 1.2408874 0.0096337283 100
0.25621775 1.2505379 0.029517479 100
0.24238467 1.2731645 0.051596198 82
0.25697196 1.2493043 0.068978049 50
0.26046684 1.2435877 0.087916173 70
0.25097916 1.2591066 0.11143246 91
0.27250278 1.2239006 0.12282328 85
0.23460111 1.2858961 0.16202073 63
0.25555119 1.2556188 0.0099129668 87
0.26522967 1.2396566 0.028784776 100
0.24732992 1.2691777 0.051073264 83
0.2566722 1.2537699 0.069465525 49
0.2663013 1.2378892 0.086664692 57
0.2639707 1.241733 0.10723466 73
0.27214754 1.2282473 0.12372308 92
0.24250376 1.2771372 0.15891489 65
0.2530387 1.263446 0.010052586 100
0.26472896 1.2440208 0.028994121 100
0.24795958 1.2718856 0.051247578 82
0.25827807 1.25474 0.069465525 49
0.2739659 1.2286723 0.084787481 59
0.2503517 1.2679107 0.11295892 82
0.27768803 1.2224874 0.12192347 85
0.2592254 1.2531658 -0.0098431576 87
0.25414851 1.2616018 0.15373851 68
0.26612237 1.2456427 0.0096686333 90
0.26237392 1.2519233 0.029412808 100
0.25592762 1.2627243 0.050201707 85
0.26412606 1.2489876 0.068490572 50
0.27564886 1.2296809 0.084787481 59
0.25821558 1.2588907 0.11066922 92
0.26836243 1.2418895 0.12687239 99
0.25793242 1.2593651 0.15270324 68
0.26464385 1.2517431 0.0097733475 89
0.25786629 1.263185 0.03004084 100
0.25756317 1.2636967 0.050201707 85
0.26773939 1.2465171 0.068003096 51
0.27113432 1.2407856 0.086664692 71
0.27284566 1.2378966 0.10570818 81
0.27986044 1.2260541 0.12237337 76
0.25561863 1.2669796 0.15477379 67
0.2664957 1.2528352 0.0097733475 89
0.26886368 1.2488022 0.029098792 100
0.25946099 1.2648159 0.050201707 85
0.26555067 1.2544446 0.068978049 50
0.27194387 1.2435564 0.086977564 57
0.26072738 1.2626592 0.11105084 98
0.28260025 1.2254076 0.12192347 85
0.25166008 1.2781017 0.15787962 65
0.2670916 1.2555003 0.0098082526 74
0.26944742 1.2514576 0.029203463 100
0.26010033 1.2674981 0.05037602 100
0.26316097 1.2622458 0.069953002 49
0.27252123 1.2461827 0.087290429 71
0.27224714 1.246653 0.10723466 73
0.28607419 1.2229242 0.12102367 86
0.25529191 1.2757499 0.15684435 66
0.26278353 1.2668725 0.010017681 72
0.27312881 1.2489756 0.028994121 100
0.26682419 1.2598823 0.049504463 86
0.26686785 1.2598069 0.069465525 49
0.27813944 1.2403075 0.086038955 72
0.26703504 1.2595177 0.10990598 85
0.28375578 1.2305914 0.12282328 85
0.2697888 1.2547537 -0.0097733475 77
0.26866072 1.2567053 0.15063268 78
0.27139786 1.2556802 0.0097733475 89
0.27273107 1.253356 0.029203463 100
0.26845023 1.2608187 0.049504463 100
0.27244464 1.2538553 0.068490572 50
0.28068343 1.2394929 0.08572609 58
0.27354425 1.2519385 0.10799789 87
0.28431496 1.2331622 0.12327318 76
0.26835373 1.2609869 0.15166797 69
0.28018317 1.2445778 0.0095290141 76
0.27261481 1.2578896 0.029412808 100
0.26442856 1.2722883 0.05055033 84
0.27234229 1.258369 0.068978049 50
0.28444079 1.237089 0.085100345 58
0.2812188 1.2427561 0.10570818 73
0.28320587 1.2392612 0.12462288 92
0.26451221 1.2721412 0.15477379 67
0.26996756 1.2663697 0.0099478718 73
0.27815971 1.2518487 0.028994121 100
0.26511678 1.2749679 0.05072464 84
0.2778649 1.2523713 0.068003096 51
0.28113806 1.2465694 0.086664692 57
0.27603534 1.2556143 0.10837951 79
0.29242373 1.2265651 0.12102367 86
0.26617894 1.2730851 0.15477379 67
0.2785373 1.2551286 0.0097035384 90
0.28569511 1.242337 0.028366089 100
0.26979995 1.2707431 0.050201707 85
0.27761164 1.2567829 0.068490572 50
0.28762627 1.2388859 0.085100345 58
0.27677342 1.2582809 0.10876112 79
0.2949706 1.2257608 0.12057377 77
0.27171019 1.2673293 0.15270324 68
0.27626479 1.2630193 0.0098431576 88
0.28338483 1.2501955 0.028784776 100
0.27629772 1.26296 0.049330149 87
0.285009 1.2472703 0.067028143 51
0.2891826 1.2397534 0.085100345 58
0.27744111 1.2609007 0.10914274 78
0.29459146 1.2300116 0.12147357 94
0.27238199 1.2700126 -0.0099827768 96
0.27898747 1.2581155 0.14959741 70
0.28105175 1.2588108 0.0097384425 75
0.28715622 1.247716 0.028575432 100
0.28203437 1.2570249 0.048632905 88
0.28110194 1.2587196 0.068490572 50
0.293845 1.2355592 0.084161744 59
0.2859529 1.2499031 0.10647142 81
0.29448083 1.2344036 0.12237337 68
0.27719587 1.2658188 -0.0098780617 97
0.27900118 1.2625377 0.15063268 70
0.28459051 1.2561896 0.0096686333 75
0.2829999 1.2591033 0.029203463 100
0.27219501 1.2788962 0.05072464 84
0.29413798 1.2387 0.065565705 53
0.29065773 1.2450753 0.08572609 58
0.28942713 1.2473296 0.10570818 81
0.29788974 1.2318274 0.12147357 77
0.27878466 1.266825 0.15166797 77
0.28525189 1.2588254 0.0097035384 90
0.29033032 1.2494488 0.028575432 100
0.28337261 1.2622952 0.048981529 87
0.29191214 1.246528 0.066540658 52
0.2969383 1.2372478 0.084161744 59
0.29101145 1.2481911 0.10570818 81
0.27307352 1.2813113 0.15580906 67
0.28506747 1.2632699 0.0097733475 89
0.29578561 1.243314 0.028156744 100
0.28509268 1.2632229 0.048981529 87
0.29545566 1.2439284 0.066053182 52
0.28710857 1.2594696 0.10799789 79
0.28412127 1.2650316 -0.0098082526 88
0.28034455 1.2720634 0.15270324 68
0.28961101 1.2588968 0.0096686333 90
0.29180601 1.2547755 0.028784776 100
0.27744997 1.2817299 0.05072464 84
0.28964621 1.2588307 0.068003096 51
0.29066452 1.2569187 0.10723466 73
0.28961101 1.2588968 -0.0096686333 89
0.28573126 1.2661812 0.15063268 70
0.29598847 1.2509615 0.0094941091 92
0.29909614 1.2450773 0.028156744 100
0.29040337 1.2615368 0.048632905 88
0.2950623 1.2527152 0.067028143 51
0.29511634 1.2526129 0.1060898 73
0.28945142 1.2633393 -0.0097384425 88
0.2919758 1.2585595 0.1480445 79
0.29334354 1.2601049 0.028994121 100
0.29027212 1.26597 0.048981529 87
0.28846064 1.2694292 0.069221787 83
0.28746432 1.2713317 -0.0098780617 87
0.29457897 1.2577457 0.14752686 79
0.2975094 1.2562726 0.0095639192 91
0.29965776 1.252135 0.02847076 100
0.28741431 1.2757148 0.049853086 85
0.29843849 1.2544832 0.067028143 51
0.2987594 1.2538651 0.086351827 58
0.29094166 1.2689214 0.15063268 70
0.29374096 1.2677711 0.048981529 58
0.28822476 1.278486 -0.0099827768 100
0.29268479 1.2698226 0.15063268 78
0.29727399 1.2651478 0.0097035384 100
0.29821712 1.2633001 0.068003096 51
0.2900013 1.2793968 -0.0099827768 100
0.29913089 1.265991 0.068246834 68
0.2988838 1.2664795 0.14907977 78
0.29715475 1.2742608 0.15115032 77
