# .PCD v0.7 - Point Cloud Data file format
VERSION 0.7
FIELDS x y z intensity
SIZE 4 4 4 4
TYPE F F F F
COUNT 1 1 1 1
WIDTH 741
HEIGHT 1
VIEWPOINT 0 0 0 1 0 0 0
POINTS 741
DATA ascii
0.05346784 0.00041812658 0.015986403 123
0.04652977 0.0014953613 0.048149079 28
0.049219549 0.011678994 0.047625721 100
0.044495344 0.010017872 0.047835063 93
0.041713238 0.011875749 0.047835063 65
0.036696374 0.015263498 0.047835063 18
0.037451863 0.022002578 0.047521047 19
0.038248122 0.028727114 0.047207031 10
0.015135884 0.0010042787 0.049091127 7
-0.33651292 0.91231376 0.015672261 4
-0.35969031 0.91929358 0.016091119 8
-0.32169271 0.91618413 0.015427927 10
-0.33497405 0.92158931 0.015672261 14
-0.3245905 0.92295504 0.015497737 35
-0.32011408 0.92530429 0.015427927 36
-0.32546872 0.92941535 0.015532642 25
-0.31507647 0.93064481 0.015358117 48
-0.30665129 0.93217564 0.015218498 45
-0.30804348 0.93554378 0.015253403 45
-0.32318753 0.94147086 0.015532642 41
-0.31277937 0.94255692 0.015358117 37
-0.3160907 0.94636554 0.015427927 36
-0.30372137 0.94695258 0.015218498 33
-0.29918516 0.94910616 0.015148689 40
-0.3122412 0.95500588 0.015393022 43
-0.30963641 0.9575882 0.015358117 37
-0.30897635 0.96058774 0.015358117 43
-0.29465097 0.96050525 0.015113784 46
-0.29787916 0.96434599 0.015183593 45
-1.0152054 1.1287674 0.084156215 5
-1.0327513 1.1327891 0.14206386 6
-0.29917771 0.96760982 0.015218498 39
-0.98871833 1.128071 0.082795486 22
-1.0315397 1.1380358 0.14206386 40
-0.31015909 0.973333 0.015427927 36
-0.99329013 1.1348183 0.083109498 88
-1.0186117 1.1408041 0.14101799 86
-0.29388851 0.97259969 0.015148689 40
-1.0017176 1.1425345 0.083632857 100
-0.99987155 1.1420913 0.13944919 92
-0.29317617 0.97554421 0.015148689 46
-0.98294383 1.1436914 0.082690813 100
-1.0063062 1.1493865 0.14014643 86
-0.28080672 0.97560388 0.01493926 49
-0.97581381 1.1476007 0.082376793 100
-1.0049725 1.1548167 0.14014643 84
-0.29559958 0.98239994 0.015218498 50
-0.97448641 1.1529245 0.082376793 52
-1.0074844 1.161213 0.14049506 73
-0.29679072 0.98584425 0.015253403 45
-0.97701126 1.1592302 0.082586139 36
-0.98680264 1.1617261 0.13875194 80
-0.28635216 0.98629534 0.015078879 47
-0.98144418 1.1660584 0.082900152 65
-0.97578126 1.1645939 0.13788038 94
-0.28559202 0.98921347 0.015078879 47
-0.98005229 1.1714017 0.082900152 95
-0.97632176 1.170423 0.1380547 91
-0.28095686 0.99110049 0.01500907 42
-0.95548064 1.1705774 0.081644088 90
-0.97491473 1.1757485 0.1380547 99
-0.28983325 0.99660438 0.015183593 45
-0.94828826 1.1742692 0.081330076 98
-0.98118359 1.183145 0.13875194 99
-0.29289478 1.0005898 0.015253403 50
-0.946868 1.1794968 0.081330076 100
-0.96820146 1.1853329 0.13770607 99
-0.28437686 1.0013932 0.015113784 51
-0.94158024 1.1836518 0.081120729 98
-0.95522279 1.1874352 0.1366602 92
-0.26431316 0.99889308 0.014764735 57
-0.94589549 1.1904773 0.081434749 90
-0.95951074 1.1943043 0.13718314 94
-0.28274113 1.0072125 0.015113784 51
-0.93673521 1.1935077 0.081016064 82
-0.95610422 1.199025 0.13700883 100
-0.28963536 1.0121895 0.015253403 50
-0.93148464 1.1973284 0.080806717 38
-0.95658761 1.2045693 0.13718314 98
-0.29074711 1.0155331 0.015288308 55
-0.92047352 1.1994394 0.080283359 22
-0.94940072 1.2078874 0.1366602 84
-0.27075183 1.0126504 0.01493926 91
-0.92670256 1.2065783 0.080702044 26
-0.93074471 1.2077733 0.13509139 89
-0.2717725 1.0162309 0.014974165 100
-0.92700571 1.212561 0.080806717 28
-0.93485588 1.2149131 0.13561434 99
-0.27669239 1.0206956 0.015078879 100
-0.91597348 1.2145585 0.080283359 88
-0.92574579 1.2175219 0.1349171 100
-0.2776795 1.0243112 0.015113784 80
-0.90097004 1.2158223 0.079550654 100
-0.93361813 1.2258537 0.13578865 94
-0.29019839 1.0312102 0.015358117 64
-0.90711254 1.2230031 0.079969339 84
-0.92068297 1.2272221 0.13474278 71
-0.26820952 1.0278234 0.014974165 54
-0.90917224 1.2297952 0.080178685 68
-0.90751475 1.229273 0.13369691 50
-0.27116054 1.03175 0.015043974 52
-0.91334826 1.2364511 0.080492698 70
-0.90788203 1.2347088 0.13387123 42
-0.26448661 1.032915 0.01493926 61
-0.89832395 1.2375168 0.07976 91
-0.90996116 1.2412732 0.13421984 43
-0.27881795 1.0405793 0.015218498 95
-0.88917106 1.2398376 0.079341307 100
-0.91975445 1.249822 0.13526571 57
-0.27217209 1.041589 0.015113784 74
-0.88941878 1.2454848 0.07944598 100
-0.90861136 1.2518249 0.13439415 82
-0.26368016 1.0417799 0.014974165 100
-0.89162284 1.2515211 0.079655327 100
-0.90322596 1.2553966 0.13404553 84
-0.24946523 1.0401375 0.014729831 97
-0.89371759 1.2578291 0.079864666 100
-0.90152282 1.2604663 0.13404553 77
-0.25234973 1.04408 0.014799641 57
-0.87508172 1.2568033 0.078922622 100
-0.90365916 1.2665652 0.13439415 91
-0.26447111 1.0518767 0.015043974 52
-0.86367887 1.2592539 0.078399263 100
-0.89788848 1.2710934 0.13404553 89
-0.26353186 1.054576 0.015043974 52
-0.87336022 1.2678959 0.079027295 91
-0.90186077 1.2778655 0.13456847 56
-0.2605983 1.0568887 0.01500907 48
-0.86399454 1.2704439 0.07860861 53
-0.88872033 1.2791951 0.1335226 43
-0.24081355 1.0528408 0.014660021 46
-0.86608833 1.2764754 0.078817949 19
-0.89077586 1.285305 0.13387123 38
-0.25293446 1.0604997 0.014904355 55
-0.8604663 1.2803032 0.07860861 46
-0.88513047 1.2892267 0.1335226 24
-0.25008857 1.0624743 0.014869451 56
-0.84563535 1.2801776 0.077875905 85
-0.87591559 1.2912467 0.13282534 15
-0.2621929 1.070117 0.015113784 51
-0.85321325 1.2885076 0.078399263 100
-0.86474305 1.292768 0.13195379 7
-0.25182611 1.0693121 0.01493926 42
-0.8458727 1.2910626 0.078085244 82
-0.87233454 1.3009404 0.13282534 1
-0.23949856 1.0680118 0.014729831 52
-0.83834773 1.2940592 0.077771232 46
-0.8554669 1.3005211 0.13143086 1
-0.24597996 1.0734777 0.014869451 56
-0.83473605 1.2979486 0.077666558 51
-0.84439152 1.30163 0.1305593 13
-0.23185378 1.0712221 0.014625116 53
-0.82542986 1.299907 0.077247873 68
-0.86111909 1.3136568 0.13230242 50
-0.24762309 1.080339 0.01493926 49
-0.83297175 1.3080862 0.077771232 72
-0.85373813 1.3161659 0.13177948 100
-0.23722959 1.0794632 0.014764735 51
-0.82364982 1.3099875 0.077352546 57
-0.8332805 1.3137734 0.13003637 99
-0.23062319 1.0798588 0.014660021 46
-0.8348462 1.3196979 0.078085244 85
-0.83702523 1.3205627 0.1305593 100
-0.24432951 1.0886744 0.01493926 49
-0.82170027 1.3203079 0.077457212 97
-0.84239453 1.3286102 0.13125655 100
-0.24141496 1.090556 0.014904355 55
-0.81616551 1.323354 0.077247873 97
-0.83499438 1.3309805 0.13073361 100
-0.78392452 1.3102951 0.17671055 13
-0.25318944 1.0987571 0.015148689 57
-0.81967336 1.3306272 0.077561885 100
-0.82002169 1.3307698 0.12951343 100
-0.80030674 1.3227003 0.17914793 15
-0.2391578 1.0960733 0.014904355 91
-0.8067314 1.33059 0.076933853 100
-0.80526489 1.3299839 0.12829325 100
-0.79479724 1.3256588 0.17866045 15
-0.23236436 1.0967889 0.014799641 76
-0.80456883 1.3357952 0.076933853 100
-0.80678159 1.3367195 0.12864187 100
-0.78715855 1.3285232 0.17792924 18
-0.23127639 1.0993814 0.014799641 76
-0.78980249 1.3348527 0.076201156 96
-0.80305892 1.3404416 0.12846756 100
-0.78164071 1.3314118 0.17744176 28
-0.23748147 1.1052397 0.01493926 79
-0.78782266 1.3395262 0.076201156 67
-0.81755811 1.3521849 0.13003637 99
-0.7650612 1.3298364 0.17549185 16
-0.24738932 1.1125854 0.015148689 100
-0.80427724 1.3518434 0.077247873 48
-0.81378943 1.3559301 0.12986206 26
-0.78508407 1.3435974 0.17841671 5
-0.81506413 1.3621309 0.077980578 93
-0.83001417 1.3686159 0.13160518 61
-0.78853709 1.3506241 0.17914793 12
-0.23038381 1.1115903 0.014869451 122
-0.81675237 1.3682561 0.078189917 100
-0.82619637 1.3723898 0.13143086 100
-0.78478581 1.3542637 0.17890419 31
-0.22912663 1.1144483 0.014869451 136
-0.80359024 1.368416 0.077561885 100
-0.80757898 1.3701794 0.12986206 100
-0.75721735 1.3479147 0.17549185 30
-0.23711133 1.1211032 0.015043974 149
-0.80342239 1.3737149 0.077666558 100
-0.81467909 1.3787363 0.13073361 100
-0.78973895 1.3676113 0.18012288 40
-0.8121267 1.3835933 0.07829459 100
-0.80335587 1.3796422 0.12986206 100
-0.77668005 1.3676257 0.17866045 21
-0.26741022 1.141482 0.015672261 68
-0.8119027 1.3889332 0.078399263 100
-0.80495447 1.3857756 0.13021068 100
-0.76926929 1.369558 0.17792924 16
-0.71667379 1.3515338 0.024328655 81
-0.81859177 1.3983246 0.078922622 100
-0.80982286 1.3942988 0.13090792 100
-0.78319389 1.3820734 0.18012288 19
-0.80365115 1.3969088 0.026038991 75
-0.80562657 1.3978236 0.07829459 100
-0.81497675 1.4021538 0.13160518 100
-0.76134259 1.3773146 0.17744176 13
-0.8014546 1.4016299 0.026038991 100
-0.79799861 1.4000149 0.077980578 100
-0.81637174 1.4086019 0.13195379 100
-0.76460975 1.3844099 0.17817298 5
-0.80477887 1.4086661 0.026143705 100
-0.80854803 1.4104431 0.078713275 100
-0.80703789 1.4097311 0.13125655 100
-0.78052086 1.3972305 0.18061037 5
-0.79159516 1.4084716 0.025934275 100
-0.80438823 1.4145598 0.07860861 100
-0.7974878 1.4112759 0.1305593 100
-0.79434508 1.4097803 0.18280402 1
-0.78034514 1.4088225 0.025759751 100
-0.80933172 1.4227418 0.079027295 100
-0.80601746 1.4211502 0.13160518 100
-0.79250389 1.4204377 0.026038991 100
-0.8052476 1.4266119 0.078922622 100
-0.81449443 1.431092 0.13265105 100
-0.79381841 1.4268763 0.0261088 100
-0.79218119 1.4260759 0.07829459 100
-0.81217843 1.4358509 0.13265105 100
-0.7988072 1.4348655 0.02624842 100
-0.79358107 1.4322894 0.078503937 100
-0.8063888 1.4386027 0.13230242 100
-0.79647821 1.4395696 0.02624842 100
-0.80735618 1.444979 0.07944598 100
-0.7969107 1.4397848 0.13160518 100
-0.78710014 1.4404458 0.0261088 100
-0.80689579 1.4503716 0.079550654 100
-0.80536848 1.4496058 0.13265105 100
-0.79545826 1.4505243 0.02631823 100
-0.80273026 1.4542024 0.07944598 100
-0.81721121 1.4615269 0.13404553 100
-0.80019969 1.4588518 0.026457848 100
-0.7896592 1.4534743 0.078817949 100
-0.81301421 1.4653896 0.13387123 100
-0.79778689 1.4635607 0.026457848 100
-0.79614478 1.4627156 0.079341307 100
-0.80703539 1.4683199 0.1335226 100
-0.79523581 1.4684958 0.026457848 100
-0.80068702 1.4713264 0.07976 100
-0.79739386 1.4696164 0.13282534 100
-0.78570348 1.4694767 0.02631823 100
-0.80707747 1.4806697 0.080283359 100
-0.80553359 1.4798613 0.13387123 100
-0.78679019 1.4760027 0.026388038 92
-0.79222578 1.4788734 0.079550654 100
-0.80833286 1.48738 0.13439415 98
-0.80933744 1.4939903 0.13474278 42
0.11489767 1.3094208 0.13471115 5
0.16115832 1.2553537 0.010855397 13
0.13915417 1.2828195 0.03443706 27
0.14140162 1.2800142 0.057174169 23
0.13748002 1.284909 0.10449822 11
0.15228665 1.2664274 0.12364423 24
0.1622718 1.2539639 0.16616182 7
0.17032391 1.2473183 0.010645968 53
0.1707865 1.2467368 0.031924933 61
0.15558729 1.2658447 0.055431053 74
0.15456033 1.2671359 0.077996381 14
0.16264424 1.2569729 0.09855371 24
0.15891054 1.2616668 0.12211776 87
0.18485111 1.229055 0.13542053 22
0.15314007 1.2689214 0.17082056 29
0.16207743 1.2611952 0.010925206 100
0.17245293 1.2480575 0.031924933 100
0.1474418 1.2797271 0.056825545 100
0.1587587 1.2653974 0.077508904 29
0.17536512 1.24437 0.095737889 25
0.16062915 1.263029 0.12211776 100
0.19128689 1.2242095 0.13362093 38
0.14889744 1.277884 0.17340876 42
0.16626215 1.2593991 0.010855397 100
0.17658871 1.2462291 0.031715591 100
0.15168229 1.2779934 0.056476921 100
0.17273909 1.2511387 0.075071514 30
0.18677428 1.2332389 0.093234941 26
0.16719812 1.2582053 0.12059128 100
0.19768435 1.2193248 0.13182132 39
0.1494807 1.2808012 0.1739264 42
0.16551605 1.2638915 0.010925206 100
0.18438777 1.2396495 0.03119223 94
0.15835351 1.273092 0.055779677 98
0.18051791 1.2446206 0.073852822 31
0.17868593 1.2469739 0.095737889 25
0.1725226 1.254891 0.11944643 100
0.18967825 1.2328537 0.13542053 38
0.14889276 1.2852449 0.17496167 42
0.16479665 1.2683949 0.010995016 77
0.18847215 1.2377625 0.030982886 63
0.16498563 1.2681503 0.055082429 50
0.17367935 1.256902 0.07555899 30
0.17793718 1.2513931 0.096363634 25
0.18502274 1.2422254 0.11601187 19
0.19129613 1.2341086 0.13542053 22
0.15541926 1.2805278 0.17289113 28
0.1787121 1.2538718 0.010645968 66
0.17673275 1.2564514 0.032134276 30
0.16066238 1.2773947 0.055953987 48
0.17900658 1.2534881 0.074827775 45
0.19164515 1.2370172 0.093234941 53
0.18906364 1.2403815 0.11524864 13
0.19529098 1.2322658 0.13452072 23
0.1560277 1.2834346 0.17340876 57
0.18040338 1.2551649 0.010645968 53
0.16027832 1.2815828 0.033704355 28
0.16243589 1.2787507 0.055953987 48
0.18430537 1.2500428 0.07409656 61
0.18968636 1.2429793 0.094173551 52
0.18713865 1.2463236 0.11639348 13
0.20753497 1.2195497 0.13047162 48
0.16718775 1.2725129 0.16926765 73
0.17486179 1.2660216 0.010855397 39
0.1861617 1.2510805 0.031610917 30
0.17382872 1.2673876 0.054559495 50
0.19197038 1.2434 0.072877869 47
0.19729736 1.2363565 0.092609204 53
0.19709331 1.2366263 0.11372216 13
0.2091063 1.2207422 0.13047162 48
0.16544825 1.2784686 0.17082056 65
0.17179289 1.2737246 0.010995016 38
0.18304643 1.2587363 0.032029606 30
0.17795977 1.265511 0.054210871 51
0.19004935 1.2494092 0.073609084 62
0.1989274 1.2375848 0.092609204 53
0.19165161 1.2472752 0.11601187 13
0.20717156 1.2266046 0.13182132 39
0.18230447 1.2597244 0.16409127 69
0.17355353 1.2750417 0.010995016 64
0.18236744 1.263217 0.032238949 30
0.18683591 1.2572221 0.053165004 52
0.1940977 1.2474796 0.073121607 31
0.19702011 1.2435589 0.093547814 52
0.19801295 1.2422268 0.1144854 13
0.21342596 1.2215487 0.13002171 32
0.18286166 1.2625539 0.16460891 69
0.19078177 1.2554556 0.010541254 81
0.19359544 1.2516531 0.031401575 62
0.18142813 1.2680963 0.054210871 76
0.20285124 1.2391446 0.071659178 80
0.1939753 1.2511398 0.094799288 64
0.2090058 1.2308272 0.11143246 14
0.21732253 1.2195878 0.1291219 32
0.18458322 1.2638324 0.16460891 69
0.19476181 1.2534213 0.010471444 96
0.20110804 1.2447851 0.030878214 63
0.1807223 1.2725267 0.054559495 100
0.20440888 1.2402933 0.071659178 80
0.20142141 1.2443588 0.093234941 92
0.21053582 1.2319555 0.11143246 14
0.21881524 1.2206886 0.1291219 24
0.18622285 1.2650415 0.16460891 69
0.19173747 1.2611206 0.010611063 81
0.20394453 1.2443866 0.030773543 64
0.17895612 1.2786417 0.055082429 100
0.19903329 1.2511191 0.073121607 78
0.21122849 1.2344015 0.091044858 81
0.20752233 1.2394819 0.11295892 13
0.23187509 1.2060982 0.12462288 8
0.18909159 1.2647476 0.16409127 69
0.18632925 1.2720224 0.010820492 91
0.21489319 1.2325919 0.029936166 66
0.19350219 1.2621207 0.053165004 100
0.20063066 1.2522802 0.073121607 62
0.21161151 1.2371221 0.09135773 94
0.20562583 1.2453848 0.11410378 13
0.23675272 1.2024163 0.12327318 17
0.18846756 1.2690706 0.16512655 68
0.19975859 1.2570536 0.010471444 82
0.20718157 1.246731 0.030773543 64
0.19289577 1.2665973 0.053513627 100
0.20695207 1.2470503 0.072146654 95
0.21555066 1.2350929 0.090731993 95
0.2141645 1.2370205 0.11181407 14
0.23485088 1.2082535 0.12462288 16
0.19923475 1.2577821 0.16098544 72
0.20843163 1.2485077 0.010262015 98
0.20884776 1.2479248 0.030773543 64
0.19231626 1.2710841 0.053862248 100
0.20746604 1.2498605 0.072390392 47
0.21143785 1.2442963 0.092296332 80
0.21123424 1.2445816 0.11334054 20
0.23638257 1.2093509 0.12462288 16
0.19645002 1.265293 0.163056 70
0.20779181 1.2529604 0.010331824 98
0.22437453 1.2295572 0.029517479 67
0.19176379 1.2755809 0.054210871 100
0.21488148 1.2429547 0.071171694 81
0.20852733 1.2519224 0.093547814 100
0.20835274 1.2521688 0.11486702 33
0.23003158 1.2215734 0.1277722 24
0.20041487 1.2633716 0.16202073 70
0.20487809 1.2606946 0.010471444 96
0.21908665 1.2404929 0.030145511 98
0.18665355 1.2866063 0.055256739 99
0.21653444 1.2441216 0.071171694 81
0.22157577 1.2369539 0.090419121 100
0.20100239 1.2662051 0.11791996 71
0.23497307 1.2179055 0.12642249 41
0.20325056 1.2630086 0.16150309 70
0.21117181 1.2553377 0.010331824 98
0.22416085 1.2367321 0.029831495 99
0.20214516 1.2682674 0.053165004 100
0.21819147 1.2452826 0.071171694 81
0.22207698 1.2397171 0.090731993 100
0.20273659 1.2674203 0.11791996 100
0.22984535 1.2285897 0.1291219 80
0.20829114 1.259464 0.15995017 72
0.2106756 1.259864 0.010401634 97
0.22132456 1.2444906 0.030250182 98
0.2085118 1.2629877 0.052467756 100
0.2120232 1.2579185 0.072877869 47
0.23279938 1.2279251 0.088229038 98
0.21909505 1.2477093 0.11295892 82
0.22265106 1.2425756 0.13272113 94
0.20458722 1.2686534 0.16253836 70
0.21918517 1.2511587 0.010192205 99
0.21958822 1.2505724 0.030564198 64
0.20571956 1.2707438 0.053165004 100
0.21710238 1.2541881 0.072146654 79
0.22768489 1.2387961 0.090106249 100
0.23299968 1.231066 0.10876112 94
0.22099048 1.2485329 0.13407083 93
0.20851892 1.2666724 0.16150309 70
0.21635807 1.2589175 0.010331824 84
0.22802252 1.2418244 0.029936166 99
0.21308485 1.2637141 0.052293446 80
0.22886497 1.2405899 0.069953002 49
0.22820979 1.24155 0.090419121 100
0.22907788 1.2402779 0.11066922 92
0.23254889 1.2351915 0.13002171 96
0.2102547 1.2678612 0.16150309 70
0.21918812 1.2584234 0.010296919 42
0.23751166 1.2313699 0.029203463 68
0.20140269 1.2846825 0.054385185 76
0.22939637 1.2433516 0.07019674 66
0.23207328 1.2393993 0.089793384 100
0.2285195 1.2446463 0.11143246 91
0.2374531 1.2314563 0.128672 89
0.21307799 1.2674447 0.16098544 72
0.21625942 1.2660971 0.010436539 41
0.2266995 1.2505782 0.030354854 32
0.21414244 1.269244 0.05264207 53
0.23088506 1.2443564 0.07019674 82
0.23575473 1.2371178 0.089167647 100
0.22453299 1.2537986 0.11334054 96
0.23890436 1.2324359 0.128672 97
0.2189557 1.2620891 0.15891489 73
0.21577239 1.2705852 0.010506349 40
0.22394285 1.258348 0.030773543 32
0.21035549 1.2786982 0.053513627 52
0.23033825 1.2487693 0.070684217 98
0.23299965 1.2447833 0.090419121 100
0.23494497 1.2418697 0.1102876 85
0.23835626 1.2367604 0.12957181 96
0.22711173 1.2536018 0.15580906 75
0.22856757 1.2550794 0.0101573 42
0.24109477 1.2361743 0.029308135 34
0.22974196 1.2533071 0.05072464 56
0.23530093 1.2449179 0.069953002 99
0.23902345 1.2393003 0.089167647 84
0.24093184 1.2364203 0.10876112 94
0.23891103 1.2394699 0.13002171 100
0.22453338 1.2611675 0.15787962 73
0.22147274 1.2695647 0.010436539 41
0.18785316 1.3206873 0.03454173 27
0.22048357 1.2710688 0.052467756 53
0.23805135 1.244355 0.069709264 83
0.23740736 1.2453343 0.090106249 100
0.23608944 1.2473383 0.11105084 84
0.24269319 1.2372966 0.1291219 100
0.22200394 1.268757 0.15995017 72
0.22767645 1.2640662 0.010296919 28
0.2335256 1.2551005 0.030354854 32
0.22341093 1.2706046 0.052293446 53
0.24196133 1.24217 0.069221787 83
0.24562764 1.2365502 0.088229038 98
0.2378411 1.2484856 0.11105084 98
0.24653754 1.2351555 0.12822211 97
0.22700086 1.2651019 0.15839726 73
0.22722948 1.2685456 0.010366729 41
0.23304996 1.2595553 0.030564198 32
0.21974635 1.2801039 0.053165004 52
0.23929608 1.2499077 0.07019674 66
0.25047871 1.2326353 0.087290429 85
0.23524535 1.2561644 0.1125773 96
0.25028124 1.2329402 0.1273223 100
0.22873104 1.2662263 0.15839726 73
0.24402127 1.2460624 0.0098780617 73
0.23899466 1.2538831 0.030145511 65
0.23759845 1.2560555 0.05055033 56
0.23981589 1.2526054 0.070440479 49
0.24987844 1.2369494 0.087916173 84
0.24747419 1.24069 0.10876112 87
0.25287169 1.2322923 0.12687239 99
0.23455641 1.2607884 0.1563267 74
0.23600703 1.2623012 0.010192205 99
0.2396116 1.2566497 0.030250182 98
0.23179725 1.2689016 0.051770512 81
0.24256986 1.2520115 0.07019674 66
0.2515102 1.2379942 0.087916173 70
0.25545341 1.2318118 0.10647142 73
0.2481997 1.2431847 0.12957181 88
0.23315501 1.2667729 0.15787962 73
0.24726877 1.2481341 0.0098780617 73
0.24870601 1.2458642 0.029517479 67
0.22599274 1.2817376 0.05299069 79
0.25054142 1.2429652 0.068734311 67
0.25095034 1.2423193 0.08854191 70
0.24543393 1.251032 0.11066922 92
0.25289789 1.2392435 0.12822211 97
0.23067039 1.2743496 0.15995017 64
0.24468434 1.2559609 0.010017681 72
0.24718136 1.2519865 0.029831495 99
0.23626044 1.2693689 0.051596198 82
0.25113815 1.2456886 0.068978049 50
0.25680441 1.2366698 0.087290429 71
0.25442591 1.2404555 0.10799789 79
0.26386806 1.2254268 0.12417299 100
0.22832194 1.2820044 0.16202073 63
0.2411795 1.2655623 0.010192205 85
0.25317523 1.2463129 0.029412808 100
0.23914659 1.2688246 0.051421888 82
0.25078389 1.2501502 0.069465525 49
0.25851679 1.2377412 0.087290429 71
0.24265391 1.2631963 0.11295892 89
0.25729397 1.2397035 0.1277722 97
0.23837447 1.2700635 0.15787962 65
0.25132462 1.2530308 0.0099129668 87
0.25063813 1.254141 0.029831495 100
0.24822453 1.2580444 0.050201707 85
0.25246176 1.2511917 0.069465525 49
0.2601513 1.2387559 0.087290429 71
0.25883248 1.2408887 0.10761628 72
0.25893533 1.2407224 0.1277722 89
0.24418589 1.2645758 0.15580906 67
0.25301254 1.2540704 0.0099129668 87
0.25441882 1.2517782 0.029622151 100
0.25097185 1.2573966 0.050027397 85
0.25206703 1.2556114 0.069953002 49
0.26592138 1.2330298 0.086038955 72
0.25739795 1.2469225 0.10876112 87
0.26363748 1.2367524 0.12642249 99
0.24995515 1.2590537 0.15373851 68
0.2567836 1.2516879 0.0098431576 88
0.26129487 1.2442769 0.029098792 100
0.24335122 1.2737542 0.051596198 82
0.2578927 1.249866 0.068978049 67
0.26343086 1.240768 0.087290429 71
0.25702286 1.2512949 0.10952436 85
0.27540126 1.2211033 0.12192347 85
0.24262363 1.2749496 0.15839726 73
0.25433159 1.2595553 0.0099827768 87
0.26398471 1.2435721 0.028994121 100
0.25129169 1.2645887 0.05055033 100
0.26572704 1.2406873 0.067515619 51
0.26507589 1.2417654 0.087290429 71
0.25565976 1.2573563 0.11066922 78
0.27798507 1.220391 0.12147357 77
0.24538684 1.2743658 0.15787962 65
0.25595662 1.2605332 0.0099827768 87
0.26247609 1.2496572 0.029308135 100
0.25088471 1.2689943 0.050898954 83
0.25912455 1.2552483 0.069465525 49
0.26664189 1.2427077 0.087290429 57
0.25727752 1.2583296 0.11066922 92
0.26845893 1.2396765 0.12642249 99
0.25801286 1.2571028 -0.0099129668 87
0.24904752 1.2720592 0.15684435 66
0.26278135 1.2529629 0.0098082526 74
0.26211038 1.2540911 0.029517479 100
0.25873873 1.2597606 0.049853086 85
0.26284948 1.2528484 0.068978049 50
0.27536157 1.2318091 0.085100345 58
0.27403644 1.2340374 0.10494494 75
0.2710962 1.2389814 0.12597258 90
0.25672659 1.2631441 0.15373851 68
0.27353233 1.2384138 0.0094941091 92
0.26574767 1.2516031 0.029308135 100
0.25631359 1.2675872 0.05055033 84
0.26647025 1.2503788 0.068490572 67
0.26785791 1.2480278 0.087916173 70
0.26958933 1.2450943 0.10723466 81
0.27760556 1.2315125 0.12372308 75
0.25639963 1.2674413 0.15477379 67
0.2672545 1.2532799 0.0097733475 89
0.2706247 1.2475194 0.028994121 100
0.25017741 1.2824687 0.051944822 81
0.27232659 1.2446104 0.067515619 51
0.27568063 1.2388775 0.086038955 58
0.26645863 1.2546402 0.10914274 85
0.28331593 1.225827 0.12192347 85
0.25636074 1.2718999 0.15580906 67
0.26785457 1.2559441 0.0098082526 74
0.28324112 1.2294437 0.027842728 100
0.25588012 1.2765679 0.051247578 82
0.26293778 1.2644124 0.07019674 82
0.277237 1.2397847 0.086038955 58
0.26510996 1.2606713 0.1102876 85
0.28482899 1.2267089 0.12192347 85
0.25414667 1.2795535 0.15787962 65
0.26755649 1.2603917 0.0098780617 88
0.27487832 1.2476792 0.028889447 100
0.26461086 1.265506 0.050027397 85
0.27160057 1.2533703 0.068490572 50
0.2857798 1.2287517 0.083848871 59
0.26976401 1.2565589 0.10914274 78
0.28642482 1.2276317 0.12192347 85
0.26364055 1.2671908 0.15373851 68
0.27910706 1.2439643 0.0095290141 92
0.27844605 1.2451209 0.028680105 100
0.26526693 1.2681795 0.050201707 85
0.26926488 1.2611846 0.069465525 49
0.28240144 1.2382004 0.085413218 73
0.27625003 1.2489631 0.10723466 88
0.28600982 1.231887 0.12282328 85
0.2672081 1.2647833 0.15270324 76
0.27788833 1.2501733 0.0096337283 90
0.274281 1.2565389 0.029308135 100
0.27102402 1.2622862 0.049504463 86
0.28183287 1.2432127 0.066784397 34
0.28022361 1.2460524 0.086664692 57
0.27413559 1.2567954 0.10876112 87
0.28578293 1.2362423 0.12372308 75
0.27098694 1.2623516 -0.0098780617 87
0.27092838 1.262455 0.15166797 69
0.27360129 1.2615311 0.0098431576 88
0.2817696 1.2470051 0.028680105 100
0.26582214 1.2753651 0.05072464 84
0.27853867 1.2527508 0.068003096 51
0.27599442 1.2572753 0.08854191 70
0.27863818 1.2525738 0.10761628 87
0.2921063 1.2286229 0.12147357 86
0.27066919 1.2667454 0.15270324 68
0.27443096 1.2642875 0.0098780617 73
0.28935504 1.2375182 0.028052073 100
0.26961666 1.2729229 0.05037602 84
0.28417641 1.2468071 0.067028143 51
0.29028693 1.2358468 0.084474608 59
0.27562875 1.2621391 0.10952436 85
0.29663575 1.2244588 0.12012386 86
0.27150974 1.2695272 -0.0099827768 86
0.2649661 1.2812645 0.15684435 66
0.27607161 1.2651986 0.0098780617 59
0.28703976 1.2453706 0.02847076 100
0.27803683 1.2616459 0.049155839 87
0.27999374 1.2581083 0.068490572 50
0.29470167 1.2315197 0.083536007 60
0.28106347 1.2561744 0.10799789 79
0.2934278 1.2338226 0.12237337 76
0.27703953 1.2634487 -0.0098431576 87
0.27975455 1.2585406 0.14959741 70
0.27972549 1.2626454 0.0098082526 74
0.28293675 1.2567921 0.029098792 100
0.28167129 1.2590986 0.048807215 88
0.28169921 1.2590477 0.068490572 50
0.29061344 1.2427993 0.085413218 73
0.28842801 1.2467828 0.10570818 73
0.29598573 1.233007 0.12192347 85
0.27491635 1.2714113 -0.0099827768 86
0.28053233 1.2611747 0.15011504 78
0.28900874 1.249488 0.0095290141 92
0.28646219 1.2541665 0.028889447 100
0.28424719 1.2582359 0.048632905 88
0.2852205 1.2564477 0.068003096 51
0.29501587 1.2384518 0.084474608 59
0.29001051 1.2476475 0.10570818 73
0.29659086 1.2355583 0.12237337 85
0.2765806 1.2723207 -0.0099827768 86
0.28308618 1.2603688 0.14959741 70
0.28705472 1.2575266 0.0096686333 75
0.28832319 1.2551749 0.028889447 100
0.28517804 1.2610062 0.048807215 88
0.29274425 1.2469778 0.066540658 52
0.29025245 1.2515978 0.086664692 71
0.2927784 1.2469144 0.10532656 75
0.27855164 1.2732923 0.15322088 76
0.28867286 1.2583959 0.0096686333 75
0.29935622 1.2384298 0.027842728 100
0.28398779 1.267152 0.049330149 87
0.2924543 1.2513288 0.067028143 51
0.28973019 1.2564199 0.10723466 81
0.28206894 1.2707381 -0.0099129668 87
0.28295633 1.2690797 0.15166797 77
0.28484297 1.2699502 0.0098780617 88
0.29358831 1.2534609 0.028680105 100
0.29327998 1.2540424 0.047935657 89
0.28863955 1.2627918 0.068490572 50
0.29059488 1.259105 0.10761628 72
0.28952774 1.2611171 -0.0097035384 89
0.28659767 1.2666417 0.15063268 70
0.29488212 1.2548994 0.0095639192 91
0.29333302 1.2578437 0.028889447 100
0.29117578 1.2619439 0.048632905 88
0.29027513 1.2636558 0.068490572 50
0.29953119 1.2460629 0.10456333 75
0.28743342 1.269057 -0.0098431576 87
0.29544201 1.2538352 0.14649157 72
0.2929627 1.2629236 0.0097035384 90
0.29881665 1.2516973 0.02847076 100
0.29298058 1.2628893 0.048632905 88
0.29759327 1.2540435 0.067028143 51
0.29811031 1.253052 0.14597394 81
0.29919982 1.2548778 0.067028143 51
0.29527584 1.262464 0.14856213 71
0.29279238 1.2717636 0.049330149 58
0.29002485 1.2771626 -0.0099478718 100
0.28827009 1.2805858 0.15373851 68
0.29805207 1.2655442 0.0097035384 100
0.29806963 1.2655097 0.048632905 59
0.29170808 1.2780219 -0.0099478718 100
0.296969 1.2676744 0.14959741 70
0.29982367 1.2663407 0.068246834 68
0.29427791 1.281557 -0.0099827768 100
0.29949859 1.2711133 0.15011504 78
0.29970765 1.2797837 -0.0099129668 100
0.29968524 1.2798295 0.1521856 77
