# .PCD v0.7 - Point Cloud Data file format
VERSION 0.7
FIELDS x y z intensity
SIZE 4 4 4 4
TYPE F F F F
COUNT 1 1 1 1
WIDTH 784
HEIGHT 1
VIEWPOINT 0 0 0 1 0 0 0
POINTS 784
DATA ascii
0.063428581 0.020172775 0.015602452 100
0.051439762 0.0078297257 0.047730394 31
0.04658401 0.0062394738 0.047939736 100
0.045291424 0.0094889402 0.047835063 100
0.038199067 0.004614234 0.048253752 70
0.036646485 0.0080617666 0.048149079 35
0.038477004 0.016468287 0.047730394 28
0.03571856 0.018348157 0.047730394 19
0.036498606 0.025081158 0.047416378 9
0.036180079 0.030159056 0.047207031 10
0.012990534 0.0025008917 0.049091127 7
0.0082817078 0.00092601776 0.049300469 7
-0.44750607 0.79612058 0.017417502 1
-0.44341117 0.79948372 0.017347692 2
-0.4353078 0.80268604 0.017208073 4
-0.45517129 0.80685794 0.01755712 14
-0.44704413 0.81004542 0.017417502 16
-0.43291372 0.81291491 0.017173167 18
-0.41078568 0.81530946 0.016789215 24
-0.42460161 0.81937116 0.017033549 20
-0.42841691 0.82298917 0.017103359 19
-0.41625738 0.82554483 0.016893929 19
-0.42404157 0.82940429 0.017033549 20
-0.41185498 0.83203179 0.016824121 23
-0.40365225 0.83484626 0.016684501 25
-0.4173823 0.83917308 0.016928835 24
-0.41115266 0.84210074 0.016824121 20
-0.40690798 0.84514225 0.016754311 21
-0.39667487 0.84766448 0.016579786 26
-0.39441967 0.85063326 0.016544882 27
-0.40010798 0.8544606 0.016649596 26
-0.40178323 0.8581267 0.016684501 21
-0.40146977 0.86144853 0.016684501 21
-0.37331903 0.86167121 0.016195834 28
-0.38293946 0.86591625 0.016370358 32
-0.37462789 0.86848778 0.016230738 34
-0.39019805 0.87330055 0.016509976 37
-0.37194914 0.87455386 0.016195834 44
-0.36563873 0.8769148 0.016091119 37
-0.36921138 0.88074845 0.016160928 36
-0.37876177 0.88502496 0.016335452 45
-0.36839539 0.88732332 0.016160928 60
-0.36601853 0.89010823 0.016126024 49
-0.34773636 0.89105964 0.015811881 37
-0.35129166 0.89458358 0.015881689 18
-0.35679096 0.89857107 0.015986403 26
-0.35438067 0.90129012 0.015951499 39
-0.3538934 0.90460396 0.015951499 39
-0.3435576 0.90609515 0.015776975 37
-0.34107697 0.90906096 0.015742071 38
-0.33073723 0.91044068 0.015567547 35
-0.34603071 0.9160884 0.015846785 31
-0.33370596 0.91708899 0.015637357 29
-0.3252756 0.91898477 0.015497737 30
-0.33265758 0.92325479 0.015637357 34
-0.32815206 0.92579025 0.015567547 35
-0.33550173 0.93012476 0.015707165 33
-0.32114363 0.93082792 0.015462833 26
-0.31077927 0.93186808 0.015288308 38
-0.31806481 0.93637741 0.015427927 31
-0.32140398 0.94017309 0.015497737 35
-0.33649486 0.94633478 0.015776975 32
-0.30451554 0.94307673 0.015218498 33
-0.3039062 0.94605845 0.015218498 39
-0.30524349 0.9494487 0.015253403 50
-0.32221264 0.95619017 0.015567547 100
-0.30983239 0.95668793 0.015358117 32
-0.29745948 0.95710146 0.015148689 40
-0.29289889 0.95918268 0.015078879 41
-0.30786443 0.96553195 0.015358117 37
-1.0136952 1.126411 0.084051549 5
-1.0409636 1.1326263 0.14276111 6
-0.31496918 0.97033 0.015497737 35
-0.99687546 1.128262 0.083214171 13
-1.0280421 1.1354803 0.14171524 19
-0.32013994 0.97457021 0.015602452 15
-0.99956745 1.1343038 0.083423518 78
-1.021003 1.1393433 0.1411923 68
-0.29997045 0.9729619 0.015253403 11
-1.0060568 1.1415662 0.083842203 100
-1.0138903 1.1434367 0.14066938 100
-0.29929274 0.97577935 0.015253403 16
-0.98346418 1.1415507 0.082690813 100
-1.0068343 1.1472131 0.14014643 86
-0.30633646 0.98065341 0.015393022 10
-0.9744001 1.1449928 0.08227212 100
-1.007443 1.1531211 0.14032075 87
-0.94958729 1.1450013 0.026981421 4
-0.9748866 1.1513278 0.082376793 66
-1.0020945 1.1581317 0.13997212 79
-0.97152811 1.1561363 0.027400278 11
-0.97935385 1.1581223 0.082690813 35
-0.98914319 1.1606066 0.13892625 77
-0.96823448 1.1609464 0.027365373 15
-0.97798973 1.1634583 0.082690813 43
-0.97812313 1.1634927 0.1380547 89
-0.95525199 1.1632111 0.027155945 33
-0.97660702 1.1687896 0.082690813 84
-0.9767403 1.1688244 0.1380547 91
-0.95580322 1.1689752 0.027190849 56
-0.9636218 1.1710469 0.082062781 96
-0.97726482 1.1746616 0.13822901 98
-0.95633262 1.1747479 0.027225753 81
-0.94871086 1.1726999 0.081330076 98
-0.97969121 1.1810243 0.13857763 100
-0.96262807 1.1821061 0.027365373 89
-0.93958789 1.1758289 0.08091139 100
-0.96479088 1.1826954 0.13735744 100
-0.94961518 1.1841894 0.027155945 96
-0.94586295 1.183153 0.081330076 100
-0.95950013 1.1869196 0.13700883 92
-0.94053048 1.1870049 0.027016325 93
-0.94640809 1.1886493 0.081434749 92
-0.95619053 1.1913862 0.13683452 98
-0.94676119 1.1943873 0.027155945 88
-0.93340844 1.1906013 0.080806717 82
-0.95279366 1.1960977 0.1366602 100
-0.96449012 1.2051313 0.027504992 50
-0.92617244 1.1941222 0.080492698 52
-0.95895678 1.2035415 0.13735744 99
-0.9572019 1.2087386 0.027400278 42
-0.92084771 1.198156 0.080283359 22
-0.94978231 1.2065787 0.1366602 91
-0.93072671 1.2066442 0.026946515 66
-0.93083841 1.2066771 0.08091139 24
-0.94442719 1.2106842 0.13631158 82
-0.908117 1.2055149 0.026562562 75
-0.92739135 1.2112719 0.080806717 26
-0.93142551 1.2124768 0.13526571 92
-0.90850192 1.211181 0.026597468 81
-0.91819519 1.2141132 0.080388032 62
-0.93368596 1.218799 0.13561434 99
-0.91460103 1.2186122 0.026737086 88
-0.90517789 1.2157258 0.07976 100
-0.93211037 1.2239753 0.13561434 100
-0.92074555 1.2258344 0.026876707 88
-0.90369183 1.2205489 0.07976 95
-0.92488748 1.2271181 0.13509139 87
-0.90769762 1.2273736 0.026667276 83
-0.90973288 1.2280122 0.080178685 74
-0.91377789 1.2292814 0.13421984 52
-0.89465684 1.2288272 0.026457848 85
-0.90812522 1.2331048 0.080178685 72
-0.90836793 1.233182 0.13387123 43
-0.90066153 1.236315 0.026597468 81
-0.90079552 1.2363582 0.079864666 89
-0.91243261 1.240099 0.13439415 45
-0.89522165 1.2401388 0.026527658 96
-0.88966233 1.2383302 0.079341307 100
-0.91646677 1.2470499 0.1349171 57
-0.89357179 1.2451806 0.026527658 100
-0.89181298 1.2446017 0.079550654 100
-0.90911514 1.2502971 0.13439415 78
-0.88810986 1.2489531 0.026457848 99
-0.89583236 1.251525 0.079864666 100
-0.90175873 1.2534988 0.13387123 85
-0.87126905 1.2488623 0.02617861 100
-0.89792818 1.2578444 0.080074012 100
-0.8906216 1.2553827 0.13299966 80
-0.87724477 1.2561517 0.02631823 96
-0.87361532 1.2549155 0.078817949 100
-0.90409201 1.2652965 0.13439415 87
-0.87553912 1.2611308 0.02631823 93
-0.87569064 1.261183 0.079027295 100
-0.89858681 1.2690712 0.13404553 100
-0.88128239 1.2689855 0.026457848 83
-0.86633712 1.2637751 0.07860861 100
-0.88922256 1.2717537 0.13334829 80
-0.86444455 1.2686596 0.02617861 77
-0.86648852 1.2693801 0.078713275 65
-0.89873654 1.2807491 0.13439415 40
-0.86089939 1.2726762 0.026143705 88
-0.86294323 1.2734044 0.07860861 27
-0.87451285 1.2775264 0.13230242 37
-0.85349208 1.2755649 0.026038991 99
-0.84990305 1.2742722 0.077980578 27
-0.88960296 1.2885728 0.13387123 28
-0.85556608 1.2815843 0.0261088 96
-0.85197681 1.2802777 0.078189917 68
-0.8841309 1.291981 0.1335226 16
-0.85752517 1.2878684 0.02617861 100
-0.84643823 1.2837892 0.077980578 100
-0.86734134 1.2914801 0.1321281 13
-0.84071463 1.2872021 0.025899371 100
-0.84838027 1.2900529 0.078189917 100
-0.86551243 1.2964244 0.1321281 1
-0.8351571 1.2906463 0.025829561 100
-0.84468681 1.2942283 0.078085244 44
-0.87112623 1.3041662 0.13282534 1
-0.83333129 1.2954782 0.025829561 93
-0.83538002 1.2962565 0.077666558 53
-0.85249013 1.3027561 0.13125655 7
-0.83708924 1.3024536 0.025934275 75
-0.83167011 1.3003734 0.077561885 57
-0.86550242 1.3133605 0.13265105 37
-0.84267956 1.3101847 0.026073895 74
-0.83167237 1.3059154 0.077666558 72
-0.84316403 1.3103727 0.13073361 90
-0.82961458 1.310665 0.025864467 88
-0.82421464 1.3085488 0.077352546 65
-0.84868938 1.3181404 0.13143086 100
-0.8147983 1.3100863 0.025620133 99
-0.83170682 1.3167775 0.077875905 76
-0.83204311 1.3169105 0.13003637 99
-0.82033199 1.3178163 0.025759751 100
-0.82608062 1.3201144 0.077666558 95
-0.83197576 1.3224711 0.13021068 100
-0.81470293 1.3210988 0.025689943 100
-0.81489223 1.3211751 0.0771432 97
-0.83558112 1.3295298 0.13073361 100
-0.82017726 1.3288801 0.025829561 100
-0.81295997 1.3259361 0.0771432 97
-0.82624024 1.3313531 0.13003637 100
-0.79362875 1.3180511 0.17817298 15
-0.80342656 1.3275659 0.025550323 100
-0.805471 1.328408 0.07682918 100
-0.80585045 1.3285644 0.12829325 100
-0.81006187 1.3302994 0.18061037 15
-0.79408699 1.3292141 0.025410704 100
-0.80720156 1.3346705 0.077038527 100
-0.81309015 1.3371205 0.12916481 100
-0.78243881 1.3243679 0.17719802 20
-0.79222518 1.3336682 0.025410704 100
-0.79979724 1.3368481 0.076724514 100
-0.80936497 1.3408661 0.1289905 100
-0.7952351 1.3349323 0.17914793 33
-0.80129546 1.3430343 0.025620133 100
-0.7812615 1.3345387 0.075782463 90
-0.81286687 1.3479413 0.12951343 100
-0.74939352 1.3210247 0.17329821 16
-0.81409496 1.3538065 0.025899371 64
-0.80141598 1.3483803 0.077038527 40
-0.81277448 1.3532414 0.12968774 54
-0.77493376 1.3370464 0.17695428 11
-0.81021315 1.3577714 0.025864467 71
-0.8140561 1.359432 0.077875905 74
-0.81621712 1.3603659 0.13021068 30
-0.79481322 1.3511169 0.17987914 8
-0.79695076 1.3581884 0.025655037 100
-0.81910425 1.3678625 0.07829459 100
-0.80846256 1.3632154 0.12968774 93
-0.78893358 1.3546875 0.17939167 21
-0.79488939 1.3628864 0.025655037 100
-0.80421609 1.3669982 0.077561885 100
-0.82826072 1.377598 0.13177948 100
-0.78143519 1.3569553 0.17866045 36
-0.79667455 1.3687334 0.025724847 100
-0.79868394 1.3696268 0.077352546 100
-0.8136012 1.3762591 0.1305593 100
-0.77414304 1.3587159 0.17792924 35
-0.80552274 1.3783431 0.025934275 100
-0.80569345 1.3784198 0.077875905 100
-0.80784124 1.3793836 0.13021068 100
-0.7612136 1.3584577 0.17646681 20
-0.79246181 1.3781204 0.025724847 100
-0.80720001 1.3847966 0.078085244 100
-0.79481655 1.379187 0.12916481 100
-0.7663843 1.3663075 0.17744176 16
-0.79033095 1.3828027 0.025724847 100
-0.81776065 1.3953435 0.078817949 100
-0.8108018 1.3921621 0.13090792 100
-0.78054291 1.3783276 0.17963541 14
-0.79544657 1.3908288 0.025864467 100
-0.80468839 1.3950933 0.078189917 100
-0.81043082 1.3977431 0.13108224 100
-0.76038677 1.3746513 0.17719802 13
-0.80052239 1.3988982 0.026004085 100
-0.79887694 1.3981321 0.077980578 100
-0.81003743 1.4033291 0.13125655 100
-0.76186734 1.3808978 0.1776855 11
-0.80182761 1.4055455 0.026073895 100
-0.80560309 1.4073205 0.078503937 100
-0.80049485 1.4049189 0.1305593 100
-0.77399117 1.3924584 0.17963541 5
-0.79418081 1.4076891 0.025969181 100
-0.80697912 1.4137607 0.078713275 100
-0.79467005 1.4079212 0.13021068 100
-0.77539724 1.398778 0.18012288 3
-0.78833932 1.4106505 0.025899371 100
-0.81733423 1.42453 0.07944598 100
-0.81040615 1.4212136 0.13195379 100
-0.78969628 1.4170576 0.025969181 100
-0.80065328 1.4223497 0.07860861 100
-0.81171292 1.4276915 0.13230242 100
-0.7948485 1.4247646 0.0261088 100
-0.80039293 1.427464 0.078713275 100
-0.81680542 1.4354547 0.13299966 100
-0.79614455 1.4312183 0.02617861 100
-0.79091913 1.4286516 0.07829459 100
-0.81089765 1.4384649 0.13265105 100
-0.78666109 1.4323616 0.026038991 100
-0.79934937 1.4386491 0.078922622 100
-0.79784459 1.4379034 0.13160518 100
-0.7914955 1.4405999 0.02617861 100
-0.80951244 1.4496064 0.079655327 100
-0.8061977 1.4479494 0.13265105 100
-0.7891466 1.4452785 0.02617861 100
-0.79999846 1.4507508 0.079236634 100
-0.81093901 1.4562676 0.13334829 100
-0.80460495 1.4590149 0.026527658 100
-0.79761404 1.455459 0.079236634 100
-0.81031102 1.4619173 0.1335226 100
-0.79863328 1.4619136 0.026457848 100
-0.80232126 1.4638057 0.079655327 100
-0.80434209 1.4648426 0.13317397 100
-0.79265779 1.4647789 0.026388038 100
-0.80698651 1.4721935 0.080074012 100
-0.80367798 1.4704814 0.13334829 100
-0.79022437 1.4694614 0.026388038 100
-0.80629772 1.4778501 0.080178685 100
-0.79945821 1.4742806 0.13317397 100
-0.78069645 1.4704099 0.02624842 99
-0.79498166 1.4779289 0.079655327 100
-0.80757004 1.4845548 0.13421984 100
-0.79249805 1.4823167 0.026527658 44
-0.78556949 1.4786406 0.079236634 42
-0.80871302 1.4909203 0.13456847 80
0.13802603 1.2829421 0.011483683 12
0.13852796 1.2823172 0.03443706 27
0.098359555 1.3323301 0.063100755 19
0.13815725 1.2827786 0.12784202 17
0.19245428 1.2151743 0.13182132 7
0.11571157 1.3107255 0.18583207 6
0.15976703 1.2593617 0.010925206 39
0.16024247 1.2587655 0.032762308 29
0.16119277 1.2575737 0.054559495 50
0.15147796 1.2697563 0.078483857 14
0.15589163 1.2642215 0.10011806 12
0.15463805 1.2657936 0.12326261 61
0.18550554 1.227085 0.13497064 15
0.16337088 1.2548424 0.16616182 15
0.15899503 1.2638564 0.010995016 100
0.17682824 1.2413323 0.031506244 100
0.14805609 1.2776728 0.056651235 95
0.16431487 1.2571373 0.076290213 29
0.16988108 1.2501069 0.096989371 25
0.16490176 1.2563961 0.12059128 100
0.18589363 1.2298824 0.13542053 30
0.15067557 1.2743642 0.17237349 42
0.15948549 1.2667904 0.011029921 100
0.17477289 1.2473427 0.03182026 100
0.15598711 1.2712409 0.055779677 100
0.16356409 1.2616019 0.076777689 29
0.18376705 1.2359009 0.093860678 26
0.16781524 1.2561939 0.12020966 100
0.18990976 1.2280865 0.13452072 46
0.15005082 1.2787926 0.17340876 42
0.16245231 1.2665741 0.010995016 100
0.18504307 1.237628 0.031087559 100
0.15773916 1.2726133 0.055779677 100
0.1738317 1.2519934 0.075071514 30
0.18782628 1.2340618 0.093234941 39
0.1683068 1.2590727 0.12059128 100
0.18671513 1.2354856 0.13632034 30
0.15777212 1.272571 0.17082056 36
0.16655129 1.2646955 0.010925206 100
0.17068923 1.2593571 0.032448292 59
0.16184923 1.2707617 0.055431053 74
0.17299986 1.2563761 0.07555899 30
0.18210608 1.244628 0.095112152 25
0.17594448 1.2525772 0.1186832 52
0.18945459 1.2351475 0.13587044 30
0.15470681 1.2799764 0.17289113 28
0.18291506 1.2470138 0.010506349 68
0.18214422 1.2480155 0.031610917 61
0.17089015 1.2626398 0.054385185 51
0.18317446 1.2466768 0.073852822 46
0.17653677 1.2553022 0.096989371 37
0.18002594 1.2507682 0.11791996 13
0.18038419 1.2503027 0.13991955 22
0.1505985 1.2890081 0.17547931 56
0.17235601 1.2641165 0.010855397 65
0.17039049 1.2666882 0.032762308 29
0.16889635 1.2686433 0.054908119 50
0.16788128 1.2699714 0.077265166 100
0.18774432 1.2439822 0.094486415 52
0.19115955 1.2395136 0.11486702 20
0.20091251 1.2267526 0.13272113 31
0.1640527 1.2749808 0.17030293 65
0.17166564 1.2686179 0.010925206 39
0.16971204 1.2711926 0.032971654 29
0.16100469 1.2826681 0.056302611 48
0.2020264 1.2286046 0.070684217 32
0.19298315 1.2405229 0.093547814 65
0.19280064 1.2407634 0.11486702 13
0.20957661 1.2186538 0.13002171 40
0.17048866 1.270169 0.16823238 67
0.17108992 1.273196 0.010995016 38
0.16914871 1.275774 0.033180997 28
0.17606977 1.2665827 0.054385185 51
0.18221569 1.2584209 0.075071514 90
0.20659271 1.226048 0.090419121 55
0.19807136 1.2373644 0.11372216 13
0.21005106 1.2214553 0.13047162 48
0.18162104 1.2592106 0.16409127 69
0.1920056 1.2488894 0.010436539 41
0.18048328 1.2643028 0.032343622 30
0.19092768 1.2503313 0.052467756 53
0.19580847 1.2438023 0.072634131 78
0.19162828 1.2493942 0.094799288 64
0.20440686 1.2323003 0.11219569 14
0.20579502 1.2304432 0.13272113 31
0.18680102 1.2558515 0.16253836 70
0.19240364 1.2516795 0.010471444 82
0.19879198 1.2430744 0.030878214 31
0.1818338 1.2659171 0.054036561 51
0.19974816 1.2417865 0.072146654 63
0.19792992 1.2442356 0.093547814 65
0.20711207 1.2318673 0.11181407 14
0.20732379 1.2315822 0.13272113 31
0.18841416 1.2570534 0.16253836 70
0.19645995 1.2497053 0.010401634 97
0.20637012 1.2362585 0.030354854 65
0.17883897 1.2736146 0.054733805 75
0.1955086 1.2509962 0.073365346 100
0.20193136 1.2422814 0.092922069 92
0.20057309 1.2441244 0.1144854 13
0.21471784 1.2249318 0.13047162 32
0.18323973 1.2676433 0.16564418 68
0.19341359 1.257392 0.010541254 95
0.21861356 1.222948 0.029412808 67
0.18059915 1.2749071 0.054733805 100
0.19718975 1.2522306 0.073365346 93
0.2082476 1.2371165 0.091670595 100
0.20338947 1.2437568 0.11410378 13
0.22091055 1.2198085 0.128672 16
0.18611977 1.2673614 0.16512655 68
0.19041663 1.2651057 0.010680873 93
0.19437575 1.2596545 0.031715591 61
0.19290119 1.2616848 0.053165004 100
0.19887519 1.2534592 0.073365346 93
0.21220186 1.2351099 0.091044858 100
0.21427485 1.2322557 0.11105084 14
0.24195048 1.1941495 0.12102367 17
0.19126382 1.2639393 0.16357364 69
0.19682488 1.2598696 0.010541254 95
0.21010348 1.2414515 0.030459527 97
0.19928041 1.2564636 0.052467756 100
0.20172581 1.2530718 0.073121607 62
0.21151701 1.239491 0.091670595 100
0.21589047 1.2334248 0.11105084 14
0.23431569 1.2078681 0.12462288 8
0.19637951 1.2604873 0.16202073 70
0.20319214 1.2545948 0.010401634 97
0.21175122 1.2426351 0.030459527 97
0.1963425 1.2641658 0.053165004 100
0.20688003 1.2494416 0.072390392 47
0.20855936 1.2470951 0.092922069 100
0.21522501 1.2377813 0.11181407 14
0.24151671 1.2010438 0.12237337 17
0.19584519 1.2648606 0.163056 70
0.2025696 1.2590628 0.010471444 82
0.21687317 1.2389283 0.030145511 98
0.18191543 1.2881368 0.055605363 98
0.21660319 1.2393084 0.070684217 65
0.21251485 1.2450633 0.092296332 100
0.20094195 1.261354 0.11715672 19
0.23173729 1.2180047 0.12687239 16
0.19869354 1.264519 0.16253836 70
0.20197406 1.2635411 0.010541254 81
0.22887108 1.2253981 0.029203463 68
0.19520822 1.2731358 0.053862248 100
0.21938741 1.2388469 0.070440479 49
0.21531358 1.2446241 0.091983467 100
0.2015278 1.2641739 0.11753834 53
0.2377952 1.2127426 0.12507279 33
0.19930857 1.2673211 0.163056 70
0.20131865 1.2679685 0.010611063 94
0.22007275 1.2411849 0.030145511 98
0.19459307 1.2775737 0.054210871 100
0.21525097 1.2480712 0.071659178 64
0.22595358 1.2327863 0.089480512 97
0.19866416 1.2717595 0.11906482 91
0.23032311 1.2265459 0.128672 65
0.20760804 1.2589864 0.15995017 72
0.20762402 1.2626145 0.010471444 96
0.21943977 1.2456138 0.030354854 97
0.20773783 1.2624507 0.052467756 100
0.21239012 1.255757 0.072634131 78
0.22193411 1.2420249 0.091044858 100
0.22170642 1.2423525 0.11181407 98
0.21968481 1.2452613 0.13362093 93
0.20931703 1.2601786 0.15995017 72
0.21615875 1.2539304 0.010262015 98
0.221102 1.2467648 0.030354854 97
0.20945889 1.2636424 0.052467756 100
0.22310555 1.2438605 0.070684217 98
0.23143572 1.2317853 0.088854775 98
0.23227581 1.2305675 0.10876112 87
0.231305 1.2319747 0.12957181 96
0.20773917 1.2661353 0.16150309 70
0.21107143 1.2649927 0.010471444 96
0.225025 1.244614 0.030145511 98
0.20893282 1.268116 0.05281638 100
0.22476164 1.2449987 0.070684217 65
0.22635344 1.2426739 0.090731993 100
0.22057536 1.2511126 0.11334054 96
0.22851565 1.239516 0.13137141 94
0.21056452 1.265733 0.16098544 72
0.21842134 1.2579032 0.010296919 84
0.23005158 1.2407899 0.029831495 66
0.20507422 1.2775428 0.053687938 100
0.22642168 1.2461311 0.070684217 81
0.2346673 1.2339979 0.088854775 98
0.22336027 1.2506357 0.11295892 89
0.23672864 1.2309648 0.128672 97
0.20686772 1.2749038 0.16357364 69
0.21118072 1.2723203 0.010576159 40
0.22722948 1.2485271 0.030250182 65
0.20461971 1.2820473 0.054036561 51
0.22364545 1.2538404 0.071659178 80
0.24070737 1.2285452 0.087603301 99
0.2283335 1.2468902 0.11181407 98
0.23616019 1.2352867 0.12957181 96
0.22051531 1.2584811 0.15787962 73
0.22166449 1.2600915 0.010296919 42
0.2165063 1.267791 0.031401575 31
0.22397301 1.2566457 0.051247578 55
0.22958657 1.2482666 0.070684217 81
0.23775157 1.2360791 0.088854775 98
0.22874057 1.2495294 0.11219569 91
0.23436955 1.2411273 0.13092151 100
0.22097629 1.2611188 0.15839726 73
0.22116283 1.2645651 0.010366729 41
0.22266933 1.2622993 0.030982886 31
0.22015795 1.2660764 0.052119136 54
0.23455533 1.244423 0.069953002 99
0.23500547 1.243746 0.090106249 100
0.23802552 1.2392039 0.10952436 85
0.23925295 1.2373579 0.12957181 96
0.21948373 1.2670904 0.15995017 72
0.22068843 1.269048 0.010436539 41
0.21998963 1.270107 0.031401575 31
0.21421012 1.2788655 0.053339314 52
0.23730662 1.2438644 0.069709264 66
0.23666108 1.2448426 0.090106249 100
0.23534003 1.2468446 0.11105084 98
0.24410617 1.2335602 0.12822211 100
0.22441295 1.2634039 0.15839726 73
0.22681463 1.263503 0.010296919 28
0.20422998 1.2979896 0.033076324 29
0.21817154 1.276701 0.05299069 52
0.23243737 1.254917 0.071171694 81
0.24481383 1.2360182 0.088229038 98
0.23915762 1.2446553 0.1102876 85
0.24679378 1.2329948 0.1277722 97
0.21978697 1.2742342 0.16150309 70
0.22426796 1.2713917 0.010436539 41
0.22792906 1.2657564 0.030982886 31
0.22111633 1.276243 0.05281638 53
0.23637971 1.2527484 0.070684217 81
0.24975237 1.2321641 0.087290429 99
0.23341253 1.2573158 0.11295892 100
0.24424621 1.2406397 0.12957181 96
0.22900441 1.264101 0.15787962 73
0.23685557 1.2557188 0.010087491 43
0.23831931 1.2534485 0.030145511 32
0.24015883 1.2505951 0.050027397 57
0.23914236 1.2521718 0.070440479 49
0.25136748 1.2332094 0.087290429 85
0.24894488 1.2369671 0.10799789 87
0.24694684 1.2400663 0.1291219 88
0.23282468 1.2619712 0.15684435 74
0.24286366 1.250071 0.0099478718 73
0.23462698 1.2629454 0.03066887 64
0.23110098 1.2684568 0.051770512 54
0.22798973 1.2733198 0.073365346 93
0.24659878 1.2442329 0.089167647 70
0.25163478 1.2363614 0.10761628 87
0.25174016 1.2361966 0.1277722 81
0.23142058 1.2679572 0.15839726 73
0.23596701 1.2646461 0.01022711 84
0.25026584 1.2421234 0.029308135 68
0.23177499 1.2712491 0.051944822 54
0.24677193 1.2476267 0.069465525 49
0.24825603 1.2452891 0.089167647 70
0.23958519 1.2589468 0.1125773 100
0.26068062 1.2257185 0.12462288 83
0.23419613 1.2674353 0.15787962 65
0.24178842 1.2588638 0.010087491 71
0.248555 1.2481312 0.029622151 100
0.23653901 1.2671901 0.051421888 82
0.24403918 1.2552938 0.070440479 49
0.25817874 1.2328666 0.086664692 71
0.24740505 1.2499552 0.1102876 78
0.26419234 1.2233284 0.12372308 100
0.22751808 1.2814984 0.16202073 63
0.2392545 1.2667179 0.01022711 70
0.25022581 1.2491806 0.029622151 100
0.24038982 1.2649031 0.051073264 83
0.24573505 1.2563589 0.070440479 49
0.25770089 1.2372319 0.087290429 85
0.24283484 1.2609948 0.1125773 100
0.26164234 1.2309315 0.12552269 99
0.23750219 1.2695189 0.15787962 65
0.25065047 1.2526133 0.0099129668 87
0.25417346 1.2469335 0.029412808 100
0.24859357 1.2559295 0.050027397 85
0.2402803 1.2693322 0.072146654 79
0.26366198 1.231636 0.086038955 72
0.25921011 1.2388134 0.10723466 73
0.25930554 1.2386595 0.1273223 89
0.2394225 1.2707151 0.15787962 65
0.25443316 1.2502493 0.0098431576 88
0.25584009 1.2479632 0.029412808 100
0.24298164 1.268856 0.051247578 82
0.25347021 1.2518139 0.069465525 49
0.25699222 1.2460911 0.08854191 56
0.25981936 1.2414975 0.10761628 87
0.26196465 1.2380117 0.12687239 99
0.23813456 1.2767318 0.15943253 73
0.25498489 1.2529333 0.0098780617 88
0.25430313 1.2540492 0.029726824 100
0.24463761 1.2698715 0.051247578 82
0.26127866 1.2426305 0.068003096 51
0.26063219 1.2436887 0.087916173 70
0.25012642 1.2608864 0.11181407 84
0.27266124 1.2239974 0.12282328 85
0.2448521 1.2695203 0.15684435 66
0.24933043 1.2658783 0.010122396 85
0.26730072 1.2362409 0.028575432 100
0.24423093 1.2742887 0.051596198 82
0.25873065 1.250375 0.068978049 50
0.26425293 1.2412674 0.087290429 57
0.24972013 1.2652357 0.1125773 82
0.27618903 1.2215819 0.12192347 85
0.24250376 1.2771372 0.15891489 65
0.25003237 1.2686384 0.0101573 71
0.26069346 1.2509164 0.029412808 100
0.25215536 1.2651093 0.05055033 100
0.25836268 1.2547909 0.069465525 49
0.27404597 1.2287204 0.084787481 73
0.25954691 1.2528223 0.10952436 71
0.27475336 1.2275445 0.12327318 85
0.25621727 1.2583572 -0.0099478718 86
0.25224262 1.2649642 0.15477379 67
0.26193887 1.252461 0.0098082526 89
0.26638535 1.2450137 0.028994121 100
0.25584161 1.2626729 0.050201707 100
0.25590134 1.2625729 0.070440479 49
0.26949269 1.2398094 0.086664692 57
0.25813025 1.2588398 0.11066922 92
0.27827016 1.2251084 0.12237337 100
0.25586635 1.2626315 0.15373851 68
0.25861496 1.2621169 0.0099827768 100
0.2640579 1.2529244 0.029412808 100
0.25561911 1.2671766 0.05055033 100
0.26478839 1.2516906 0.068734311 67
0.27725512 1.2306358 0.084787481 59
0.26892626 1.2447023 0.10723466 73
0.27497569 1.2344855 0.12462288 83
0.25767389 1.2637062 0.15373851 68
0.26632717 1.2527361 0.0097733475 100
0.27173221 1.2435383 0.028784776 100
0.24919412 1.2818921 0.051944822 81
0.27141589 1.2440765 0.067515619 51
0.27077779 1.2451624 0.087290429 71
0.26751801 1.2507097 0.10837951 79
0.27947941 1.2303545 0.12327318 85
0.25539771 1.2713352 0.15580906 67
0.26809841 1.2537726 0.0097733475 89
0.27145857 1.2480062 0.028994121 100
0.25508475 1.2761054 0.051247578 82
0.27115646 1.2485247 0.068003096 51
0.27948305 1.2342354 0.085100345 58
0.26335114 1.2619195 0.11066922 78
0.28411192 1.2262918 0.12192347 85
0.25529191 1.2757499 0.15684435 66
0.26369786 1.2650913 0.0099827768 87
0.26904586 1.2558432 0.029412808 100
0.26574129 1.2615577 0.049678773 86
0.27075735 1.2528836 0.068490572 50
0.28300175 1.2317098 0.084474608 59
0.26498398 1.2628673 0.11066922 85
0.2817243 1.2339189 0.12372308 83
0.26470742 1.2633455 0.15270324 68
0.27347201 1.2522594 0.0097035384 90
0.27082846 1.2568697 0.029412808 100
0.26754484 1.2625962 0.049678773 86
0.26462957 1.2676804 0.070440479 49
0.28076538 1.2395399 0.08572609 58
0.27558154 1.2485805 0.10723466 88
0.28827325 1.2264464 0.12147357 77
0.26650909 1.2644026 -0.0099478718 86
0.26843944 1.2610362 0.15166797 69
0.27309489 1.2566497 0.0097733475 89
0.27639547 1.2508491 0.028994121 100
0.26523855 1.270457 0.05037602 84
0.27119014 1.2599974 0.069221787 83
0.28623158 1.2335626 0.084474608 59
0.27717009 1.2494878 0.10723466 100
0.28786081 1.2306993 0.12237337 85
0.26815853 1.2653252 0.15270324 68
0.28462404 1.2401986 0.0094242999 93
0.27611226 1.25528 0.029203463 100
0.26796651 1.2697128 0.050201707 85
0.2816835 1.2454088 0.067028143 69
0.28299671 1.2430819 0.086038955 58
0.28463525 1.2401788 0.10494494 82
0.2942597 1.2231259 0.12012386 86
0.26988927 1.266306 0.15270324 68
0.2764138 1.2585233 0.0097733475 89
0.28943387 1.2352743 0.0279474 100
0.27059868 1.268907 0.050027397 85
0.27938166 1.2532239 0.068003096 51
0.29132345 1.2319002 0.083848871 59
0.27564371 1.2598984 0.10914274 92
0.29195493 1.2307726 0.12192347 93
0.2734825 1.2637575 -0.0098780617 97
0.26398507 1.2807164 0.15684435 66
0.27335268 1.2682643 0.0099478718 87
0.28338483 1.2501955 0.028784776 100
0.27823204 1.2594762 0.048981529 87
0.27922738 1.2576835 0.068490572 50
0.29397702 1.2311182 0.083536007 60
0.28601813 1.2454528 0.10570818 81
0.29553741 1.2283077 0.12102367 86
0.27917686 1.2577745 -0.0097384425 99
0.27429867 1.2665604 0.1521856 77
0.28176075 1.2569184 0.0097035384 90
0.28883356 1.2440796 0.028366089 100
0.27793396 1.263865 0.049330149 87
0.2789304 1.2620561 0.068978049 50
0.29360124 1.235425 0.084161744 59
0.28475434 1.2514843 0.10685304 88
0.29329741 1.2359766 0.12282328 85
0.27693629 1.2656759 -0.0098780617 87
0.28060761 1.2590116 0.14959741 78
0.29417208 1.2386376 0.0093195848 78
0.2829999 1.2591033 0.029203463 100
0.28365088 1.2579108 0.048632905 88
0.28462639 1.2561238 0.068003096 51
0.29255074 1.2416077 0.085100345 58
0.29130852 1.2438831 0.10494494 82
0.29975721 1.2284064 0.12057377 77
0.27878466 1.266825 0.15166797 69
0.29001355 1.2500336 0.0095290141 92
0.294135 1.2424238 0.028156744 100
0.2776795 1.2728069 0.050027397 85
0.29380289 1.243037 0.066053182 52
0.29599756 1.2389848 0.084474608 59
0.28914151 1.2516437 0.10647142 81
0.2767536 1.2745165 0.15373851 68
0.28506747 1.2632699 0.0097733475 89
0.29389554 1.2468331 0.028366089 100
0.28037903 1.2719991 0.049853086 85
0.29075927 1.2526724 0.067271881 69
0.28989539 1.2542809 0.10685304 73
0.28128269 1.2703166 -0.0099129668 97
0.28034455 1.2720634 0.15270324 68
0.28576431 1.2659106 0.0098082526 74
0.294539 1.2494425 0.02847076 100
0.28954044 1.2588236 0.048458595 88
0.28022614 1.2763045 0.070440479 49
0.29733789 1.2441896 0.085100345 58
0.29427236 1.2499428 0.10570818 73
0.28576431 1.2659106 -0.0098082526 88
0.28836998 1.2610203 0.14907977 78
0.29225302 1.2580345 0.0096337283 90
0.29816341 1.2468433 0.028261416 100
0.29412517 1.2544897 0.047935657 89
0.29413527 1.2544706 0.067271881 34
0.29907757 1.2451124 0.085100345 58
0.29970056 1.2439328 0.10418171 75
0.28571597 1.2704122 -0.0098780617 87
0.29829106 1.2466017 0.14442103 82
0.29665682 1.2535726 0.0095290141 92
0.29418486 1.2582909 0.028889447 100
0.29850689 1.2500412 0.066540658 52
0.29854029 1.2499774 0.10532656 82
0.28737685 1.2712858 -0.0098780617 87
0.29180431 1.2628348 0.14907977 78
0.29667309 1.2580914 0.0095988233 76
0.29300952 1.2651502 0.048807215 58
0.29458848 1.262108 0.14856213 71
0.29737774 1.2607068 0.0096337283 90
0.29282898 1.2695426 0.049155839 87
0.29649672 1.2624182 0.068003096 51
0.2992855 1.257001 0.10647142 66
0.28914782 1.2766931 0.15270324 68
0.29910311 1.2615643 0.048284281 59
0.29454675 1.2704911 -0.0098082526 100
0.29530931 1.2689971 0.15011504 78
0.29259512 1.2784719 -0.0099478718 100
