# .PCD v0.7 - Point Cloud Data file format
VERSION 0.7
FIELDS x y z intensity
SIZE 4 4 4 4
TYPE F F F F
COUNT 1 1 1 1
WIDTH 785
HEIGHT 1
VIEWPOINT 0 0 0 1 0 0 0
POINTS 785
DATA ascii
0.054587156 0.0068395138 0.015881689 100
0.048776031 0.0034655929 0.015986403 30
0.043554902 0.0010598302 0.048253752 100
0.044320107 0.0077365041 0.047939736 100
0.040126562 0.012941957 0.047835063 37
0.029502869 0.0032484531 0.048567768 25
0.029217601 0.0082762241 0.048358422 17
0.027430177 0.011925876 0.048253752 8
0.031753182 0.02350682 0.047625721 9
0.026861191 0.022047043 0.047835063 9
0.01058203 0.0041917562 0.049091127 7
-0.50382501 0.76448214 0.018394837 1
-0.48384088 0.76819557 0.018045789 3
-0.49583906 0.77182531 0.018255217 10
-0.47982901 0.77539217 0.017975979 15
-0.48180348 0.7790044 0.018010883 14
-0.46976858 0.78245944 0.017801454 14
-0.45572263 0.78579915 0.01755712 14
-0.45566136 0.78930968 0.01755712 14
-0.46158546 0.79295605 0.017661836 12
-0.45950466 0.79625851 0.01762693 14
-0.45341045 0.79960525 0.017522216 14
-0.43332052 0.80227649 0.017173167 18
-0.44519216 0.80614418 0.017382598 14
-0.44904917 0.80995131 0.017452406 13
-0.45289928 0.81361216 0.017522216 14
-0.43476349 0.81626797 0.017208073 18
-0.41662163 0.81879777 0.016893929 22
-0.42043895 0.82238722 0.016963739 15
-0.43023217 0.82634819 0.017138263 19
-0.42206621 0.82894325 0.016998643 26
-0.41387218 0.831824 0.016859025 28
-0.40564734 0.83498192 0.016719405 34
-0.40541464 0.83831733 0.016719405 31
-0.41116524 0.84193295 0.016824121 28
-0.40294695 0.84449649 0.016684501 37
-0.39869499 0.84749687 0.01661469 39
-0.38647777 0.84962589 0.016405262 36
-0.38616508 0.85322112 0.016405262 25
-0.39783144 0.85742712 0.01661469 19
-0.39352351 0.86051857 0.016544882 23
-0.37331903 0.86167121 0.016195834 32
-0.37102073 0.86452842 0.016160928 32
-0.37666786 0.86821437 0.016265642 31
-0.37429619 0.87155342 0.016230738 31
-0.38786334 0.87619281 0.016475072 24
-0.36365253 0.87668288 0.016056214 29
-0.37520623 0.88114309 0.016265642 27
-0.35492778 0.88223356 0.015916595 30
-0.36843628 0.88700271 0.016160928 32
-0.37397057 0.89098686 0.016265642 23
-0.36563671 0.89298534 0.016126024 24
-0.34537065 0.89360589 0.015776975 27
-0.34495586 0.89657438 0.015776975 32
-0.34844381 0.90042824 0.015846785 27
-0.35196233 0.90399456 0.015916595 26
-0.33567351 0.90473616 0.015637357 29
-0.32534218 0.90613592 0.015462833 42
-0.32878691 0.90997237 0.015532642 46
-0.34210879 0.91528916 0.015776975 32
-0.36132181 0.92168552 0.016126024 33
-0.35684395 0.92419529 0.016056214 51
-0.34841931 0.92599148 0.015916595 78
-0.35968339 0.93122035 0.016126024 78
-0.3473084 0.9322598 0.015916595 52
-0.36050224 0.93792987 0.016160928 36
-0.34028721 0.9372561 0.015811881 18
-0.33576995 0.9396106 0.015742071 9
-1.0313468 1.1298537 0.084993593 5
-1.0391474 1.1316288 0.1425868 4
-1.0320084 1.1358171 0.028342709 8
-1.0125678 1.1313217 0.084051549 13
-1.0301108 1.1353784 0.14188954 19
-0.99568111 1.1331055 0.027714422 15
-0.99768668 1.1335766 0.083318844 75
-1.0230069 1.1395247 0.14136662 65
-1.004065 1.1410905 0.027888946 41
-1.0021715 1.1406384 0.083632857 100
-1.0119524 1.1429739 0.14049506 100
-0.98138303 1.1413294 0.027504992 37
-0.98339933 1.1418183 0.082690813 100
-0.99515086 1.1446679 0.13910057 92
-0.97820145 1.1459279 0.027470088 28
-0.9937945 1.1497637 0.083318844 100
-0.99196512 1.1493137 0.13892625 94
-0.97299963 1.1502912 0.027400278 26
-0.97501963 1.1507956 0.082376793 72
-0.99836391 1.1566246 0.13962349 79
-0.96965724 1.1553791 0.027365373 34
-0.97942156 1.1578553 0.082690813 35
-0.99693638 1.162297 0.13962349 68
-0.96636611 1.1601831 0.027330469 53
-0.97418994 1.1621962 0.082481466 40
-0.98205084 1.1642189 0.13840333 89
-0.96499485 1.1654738 0.027330469 61
-0.97474414 1.1680187 0.082586139 88
-0.97102648 1.1670482 0.13753176 94
-0.95007354 1.167177 0.027086135 72
-0.96755332 1.171805 0.08227212 100
-0.97155732 1.1728652 0.13770607 99
-0.95060939 1.1729293 0.027121039 81
-0.95649678 1.1745101 0.081748761 96
-0.96629328 1.1771406 0.13735744 100
-0.95305258 1.1792156 0.027190849 92
-0.94544011 1.177143 0.081225403 100
-0.97063011 1.1840012 0.13788038 98
-0.95175964 1.1839355 0.027190849 89
-0.94800454 1.1829004 0.081434749 100
-0.96355969 1.187188 0.13735744 92
-0.93489808 1.1848704 0.026911611 92
-0.93885976 1.1859772 0.081016064 94
-0.95249969 1.1897881 0.13648589 94
-0.93721539 1.1914003 0.026981421 85
-0.94885474 1.1946983 0.081644088 80
-0.95286793 1.1958354 0.1366602 100
-0.9587999 1.2032114 0.027400278 56
-0.92816621 1.1944158 0.080597371 56
-0.9552024 1.2021785 0.13700883 99
-0.95151824 1.2067997 0.027295563 42
-0.9094159 1.1945519 0.079655327 23
-0.95751077 1.2085431 0.13735744 91
-0.93463916 1.2075162 0.027016325 63
-0.92516726 1.2047249 0.080597371 26
-0.94450408 1.2104234 0.13631158 84
-0.91593391 1.2072924 0.026702182 78
-0.91797572 1.2079016 0.080283359 26
-0.93157977 1.2119597 0.13526571 91
-0.90865582 1.2106719 0.026597468 75
-0.93938118 1.2199544 0.081539422 64
-0.93002802 1.2171286 0.13526571 99
-0.90902096 1.2163459 0.026632372 81
-0.90915316 1.2163863 0.079969339 100
-0.92464787 1.2211266 0.1349171 100
-0.91127425 1.2226194 0.026702182 83
-0.90567833 1.2208861 0.079864666 95
-0.9287737 1.2280397 0.13544002 85
-0.91350168 1.2289141 0.026771991 85
-0.90790707 1.2271599 0.080074012 76
-0.91766018 1.2302182 0.13456847 54
-0.90045494 1.2303901 0.026562562 81
-0.9101097 1.2334546 0.080283359 68
-0.90085262 1.2305163 0.13317397 46
-0.89511222 1.2339748 0.026492752 81
-0.90856487 1.2382939 0.080283359 80
-0.90121454 1.235934 0.13334829 48
-0.88968021 1.2377805 0.026422944 93
-0.89362472 1.2390621 0.079550654 100
-0.90905362 1.2440753 0.13421984 57
-0.89175516 1.2443038 0.026492752 100
-0.88430697 1.2418535 0.079131968 100
-0.92055458 1.2537781 0.13544002 73
-0.89388543 1.2505966 0.026562562 100
-0.88644117 1.2481189 0.079341307 100
-0.91129524 1.2563915 0.13474278 82
-0.87712187 1.2502795 0.026283324 96
-0.89241952 1.2554278 0.07976 100
-0.90023261 1.2580571 0.13387123 80
-0.86029261 1.2501028 0.026004085 93
-0.88693494 1.2591726 0.079550654 100
-0.89474791 1.2618322 0.1335226 91
-0.87373406 1.260231 0.026283324 96
-0.87577635 1.2609341 0.079027295 100
-0.88925463 1.2655752 0.13317397 100
-0.87579113 1.266513 0.026353134 85
-0.86839551 1.2639376 0.078713275 100
-0.90633172 1.2771482 0.1349171 78
-0.87404925 1.2714869 0.026353134 79
-0.86477882 1.2682223 0.07860861 70
-0.90079397 1.2809052 0.13456847 42
-0.85721952 1.2710884 0.026073895 81
-0.85926801 1.2718177 0.078399263 27
-0.88586313 1.2812879 0.13334829 35
-0.85169882 1.2746426 0.026004085 99
-0.86314529 1.2787635 0.078713275 23
-0.87657124 1.2835972 0.13265105 30
-0.85556608 1.2815843 0.0261088 100
-0.86323768 1.2843764 0.078817949 65
-0.88974768 1.2940252 0.13404553 17
-0.85395187 1.2859974 0.0261088 100
-0.8466174 1.2833017 0.077980578 100
-0.86939341 1.2916727 0.13230242 13
-0.85589129 1.2922877 0.02617861 100
-0.8466894 1.2888693 0.078085244 100
-0.88063747 1.301481 0.1335226 1
-0.8390829 1.2915686 0.025899371 100
-0.84486967 1.2937415 0.078085244 48
-0.87131268 1.3036702 0.13282534 1
-0.83725387 1.2964143 0.025899371 92
-0.84863502 1.3007331 0.078399263 51
-0.84522492 1.299439 0.1305593 7
-0.82971412 1.2993463 0.025794657 72
-0.82989782 1.2994168 0.077457212 55
-0.86745745 1.313827 0.13282534 35
-0.8315869 1.3056048 0.025864467 72
-0.83176595 1.3056743 0.077666558 72
-0.85254675 1.3137305 0.13160518 86
-0.84088057 1.3148001 0.026073895 90
-0.82430857 1.308309 0.077352546 61
-0.85249537 1.3193495 0.13177948 100
-0.81851703 1.311558 0.025689943 93
-0.8279925 1.3153076 0.077666558 76
-0.83204311 1.3169105 0.13003637 99
-0.81661838 1.3163316 0.025689943 100
-0.8334989 1.3230801 0.078085244 91
-0.83382577 1.3232107 0.130385 97
-0.81470293 1.3210988 0.025689943 100
-0.81674415 1.321923 0.077247873 95
-0.83188623 1.3280377 0.130385 100
-0.81647414 1.3273696 0.025759751 100
-0.81480926 1.3266904 0.077247873 100
-0.83361953 1.334363 0.13073361 100
-0.78995258 1.3165517 0.1776855 16
-0.81821817 1.3336594 0.025829561 100
-0.80177766 1.3268865 0.076619841 100
-0.82611459 1.3369125 0.13021068 100
-0.7806949 1.3182011 0.17671055 15
-0.80166823 1.331815 0.025550323 100
-0.80002147 1.3311305 0.076619841 100
-0.80224925 1.3320565 0.12811895 100
-0.80096275 1.3315217 0.17963541 19
-0.79601115 1.3349819 0.025480513 100
-0.80173773 1.3373855 0.07682918 100
-0.81865019 1.3444846 0.12986206 100
-0.77336901 1.325478 0.17622307 22
-0.79393142 1.3399115 0.025480513 100
-0.78861648 1.3376577 0.076201156 83
-0.80552977 1.3448299 0.12881619 100
-0.76766914 1.3287746 0.17573559 20
-0.80663997 1.3508961 0.025759751 64
-0.79764301 1.3470438 0.07682918 45
-0.80900961 1.3519108 0.12933913 58
-0.76571065 1.3333707 0.17573559 13
-0.81765884 1.3607056 0.026004085 71
-0.81232542 1.358402 0.077771232 68
-0.81449109 1.3593373 0.13003637 26
-0.78033561 1.3445853 0.17792924 9
-0.80092448 1.3590816 0.025724847 100
-0.8066017 1.3615572 0.077561885 100
-0.80694669 1.3617077 0.12951343 97
-0.79469842 1.3563666 0.18012288 24
-0.79153925 1.3605709 0.025585229 100
-0.80818444 1.3678985 0.077771232 100
-0.81763762 1.3720598 0.13073361 100
-0.78719288 1.3586576 0.17939167 38
-0.79495174 1.3676863 0.025689943 100
-0.8024388 1.3710136 0.077561885 100
-0.81006557 1.3744028 0.13021068 100
-0.78150195 1.3617094 0.17890419 38
-0.80380434 1.3772881 0.025899371 100
-0.80033273 1.3757308 0.077561885 100
-0.80794758 1.3791466 0.13021068 100
-0.75588256 1.3557914 0.17573559 22
-0.80714124 1.3844845 0.026004085 100
-0.80366844 1.382912 0.077875905 100
-0.8058129 1.383883 0.13021068 100
-0.78818876 1.3759031 0.18036664 17
-0.79760545 1.3861287 0.025864467 100
-0.81412774 1.3936827 0.07860861 100
-0.79992992 1.3871913 0.12986206 100
-0.7642948 1.370899 0.17744176 16
-0.78999943 1.3883154 0.025759751 100
-0.80650192 1.3959302 0.07829459 100
-0.80138534 1.3935692 0.13021068 100
-0.76939911 1.3788098 0.17841671 10
-0.78964573 1.3938333 0.025794657 100
-0.80068761 1.3989751 0.078085244 100
-0.81003743 1.4033291 0.13125655 100
-0.7492705 1.3750317 0.17597933 7
-0.79650909 1.4027581 0.025969181 100
-0.80209905 1.405385 0.07829459 100
-0.81322807 1.4106147 0.13177948 100
-0.77050656 1.3905389 0.17914793 5
-0.80332631 1.4117384 0.026143705 100
-0.81070071 1.4152353 0.078922622 100
-0.79838187 1.4093938 0.1305593 100
-0.77730066 1.3993971 0.18036664 3
-0.79386264 1.4130061 0.026004085 100
-0.80844015 1.4199811 0.078922622 100
-0.79973632 1.4158165 0.13090792 100
-0.78992206 1.41659 0.025969181 100
-0.81167358 1.4270864 0.079236634 100
-0.80117601 1.4220207 0.13125655 100
-0.78765684 1.4212632 0.025969181 100
-0.80218869 1.4283383 0.078817949 100
-0.80605727 1.4302218 0.13195379 100
-0.79625994 1.4309833 0.02617861 100
-0.79461962 1.4301779 0.078503937 100
-0.81101424 1.4382274 0.13265105 100
-0.80111212 1.4392289 0.02631823 100
-0.80662495 1.4419595 0.079341307 100
-0.80153185 1.4394368 0.13195379 100
-0.79161257 1.4403658 0.02617861 100
-0.80427116 1.4466909 0.079341307 100
-0.79384011 1.4414787 0.13143086 100
-0.78926438 1.4450448 0.02617861 100
-0.81260186 1.4568079 0.079969339 100
-0.80216295 1.4515462 0.13247673 100
-0.79403001 1.4533408 0.02631823 100
-0.799514 1.456129 0.079341307 100
-0.81220776 1.4625828 0.13369691 100
-0.79875392 1.4616781 0.026457848 100
-0.79355639 1.4590127 0.079131968 100
-0.81864625 1.4718795 0.13456847 100
-0.79633135 1.466382 0.026457848 100
-0.80178708 1.4692039 0.07976 100
-0.80556983 1.4711605 0.1335226 100
-0.79389232 1.4710773 0.026457848 100
-0.79933816 1.4739182 0.07976 100
-0.79781467 1.4731236 0.13299966 100
-0.79143685 1.475764 0.026457848 96
-0.80571049 1.4832737 0.080283359 100
-0.80064183 1.480607 0.1335226 100
-0.78189939 1.4766932 0.02631823 52
-0.78380519 1.4777045 0.079131968 51
-0.80167311 1.487185 0.13387123 84
0.15037444 1.2672117 0.011134636 12
0.13709792 1.2837303 0.03454173 27
0.098163277 1.3321724 0.063100755 19
0.12444922 1.2994676 0.13203983 16
0.2020655 1.202898 0.12822211 8
0.12762526 1.295516 0.18065569 6
0.1446287 1.2779818 0.011344064 24
0.15633455 1.2633127 0.033076324 29
0.16226536 1.2558807 0.054385185 51
0.1463508 1.2758236 0.07945881 14
0.14832637 1.2733481 0.10199527 11
0.14834219 1.2733282 0.12517071 60
0.18899253 1.2223881 0.13362093 15
0.15235683 1.2682973 0.17082056 14
0.15997863 1.2620845 0.010960111 100
0.16665676 1.2536588 0.032343622 90
0.15769088 1.2649709 0.055256739 99
0.17269111 1.2460454 0.074584037 15
0.16717574 1.253004 0.097615108 37
0.16708609 1.2531171 0.11982805 100
0.18565288 1.2296916 0.13542053 30
0.15281147 1.2711272 0.1713382 43
0.16293532 1.2618715 0.010925206 100
0.16958252 1.2534244 0.032238949 100
0.14586782 1.2835604 0.057174169 100
0.1731275 1.2489195 0.074827775 30
0.17619362 1.2450231 0.095737889 25
0.1699889 1.252908 0.11944643 100
0.19449043 1.2217721 0.13272113 39
0.15217382 1.2755469 0.17237349 42
0.16966414 1.2569828 0.010785587 100
0.17750371 1.2469451 0.031715591 92
0.15265828 1.2787572 0.056476921 100
0.16266665 1.2659425 0.077265166 29
0.18280074 1.2401627 0.094486415 26
0.17055297 1.2558448 0.11982805 100
0.19614863 1.2230721 0.13272113 31
0.1480839 1.2846143 0.17496167 28
0.16637865 1.2645617 0.010925206 100
0.17051843 1.2592247 0.032448292 59
0.16411677 1.2674776 0.055082429 75
0.1630967 1.2687927 0.077508904 29
0.179519 1.2476213 0.095737889 38
0.18299583 1.2431389 0.11639348 59
0.18809786 1.2365614 0.13632034 30
0.15216073 1.2828913 0.1739264 35
0.17054752 1.262729 0.010855397 65
0.17466569 1.2573816 0.032238949 60
0.16585565 1.2688216 0.055082429 50
0.17574093 1.2559853 0.075315252 45
0.1799832 1.2504766 0.096050762 51
0.1726709 1.2599719 0.12020966 12
0.1778385 1.2532616 0.14081936 21
0.14923865 1.2903993 0.17599694 48
0.17704293 1.2576312 0.010715778 79
0.16779041 1.2697287 0.032971654 29
0.17356393 1.2621799 0.054210871 51
0.17976651 1.2540702 0.074827775 45
0.19237918 1.2375795 0.093234941 53
0.19099566 1.2393883 0.11486702 13
0.20075309 1.2266308 0.13272113 31
0.1662237 1.271777 0.16926765 59
0.18125072 1.2558092 0.010645968 53
0.16962457 1.271126 0.032971654 29
0.1681428 1.2730782 0.055256739 49
0.19714561 1.2348685 0.071659178 80
0.19170672 1.242034 0.093860678 52
0.19865337 1.232882 0.11295892 13
0.2047855 1.2248033 0.13182132 39
0.17156938 1.268564 0.16771474 67
0.17564139 1.2666103 0.010855397 39
0.17850202 1.2628155 0.032343622 30
0.16381654 1.2822967 0.056128297 48
0.1986891 1.2360361 0.071659178 80
0.19208491 1.2447969 0.094173551 52
0.19309956 1.2434509 0.11524864 13
0.21098778 1.2197211 0.13002171 40
0.17322475 1.2698162 0.16771474 75
0.17985982 1.2647766 0.010785587 39
0.18031076 1.2641737 0.032343622 30
0.18240562 1.2613735 0.053687938 52
0.19088665 1.2500367 0.073609084 77
0.20211062 1.2350333 0.091983467 53
0.19483724 1.2447559 0.11524864 13
0.20563433 1.2303231 0.13272113 31
0.17390198 1.2727406 0.16823238 75
0.18269512 1.2643962 0.010750682 92
0.18433374 1.2621906 0.032134276 30
0.17809615 1.2705865 0.054559495 50
0.19721583 1.2448511 0.072634131 78
0.20012051 1.2409414 0.092922069 66
0.2010968 1.2396274 0.11372216 13
0.20948702 1.228334 0.13182132 31
0.18594 1.2600285 0.16357364 69
0.19391865 1.2528006 0.010471444 96
0.19198149 1.2554271 0.031610917 61
0.188124 1.2606573 0.053339314 78
0.19416243 1.25247 0.073609084 77
0.20645654 1.2358007 0.091670595 81
0.20506886 1.2376823 0.11295892 13
0.21340236 1.2263831 0.13092151 24
0.18765274 1.2612963 0.16357364 69
0.19315842 1.2572052 0.010541254 81
0.20185426 1.2453326 0.030878214 63
0.18033484 1.2747136 0.054733805 75
0.20514804 1.2408354 0.071659178 80
0.20450142 1.2417184 0.092609204 93
0.20314145 1.2435752 0.11410378 13
0.22758397 1.2102032 0.12597258 16
0.18129337 1.273405 0.16719711 67
0.19721317 1.2552131 0.010471444 82
0.21056277 1.2368525 0.030250182 65
0.17858389 1.2808354 0.055256739 99
0.20679367 1.2420363 0.071659178 64
0.20847341 1.2397261 0.091983467 93
0.2071057 1.2416072 0.11334054 13
0.23599848 1.2018689 0.12327318 17
0.18418887 1.2731264 0.16667947 67
0.18945944 1.2693505 0.010750682 79
0.21445107 1.2347369 0.03004084 99
0.18961039 1.2691414 0.053862248 100
0.19325441 1.2640945 0.074827775 100
0.21697107 1.2312467 0.090106249 96
0.21786553 1.2300079 0.1102876 14
0.24769917 1.1886882 0.11922406 17
0.19603717 1.2602403 0.16202073 70
0.20060918 1.2576642 0.010471444 96
0.21615669 1.2359637 0.03004084 66
0.19724417 1.2623609 0.05299069 79
0.20547292 1.2508756 0.072634131 78
0.21636292 1.2356758 0.090731993 100
0.21040645 1.2439896 0.11334054 13
0.2344813 1.210387 0.12507279 16
0.19783637 1.2615343 0.16202073 70
0.20918369 1.2490437 0.010262015 98
0.21307239 1.2435778 0.030459527 97
0.19541383 1.2683983 0.053513627 100
0.20706946 1.2520155 0.072634131 94
0.21332842 1.2432179 0.091983467 93
0.21198013 1.2451131 0.11334054 20
0.2314246 1.2177824 0.12687239 16
0.19946828 1.2626995 0.16202073 70
0.20171568 1.2633588 0.010541254 81
0.21135485 1.2497045 0.030773543 96
0.19494483 1.2729499 0.053862248 100
0.21570745 1.2435389 0.071171694 81
0.21506512 1.2444488 0.091983467 93
0.20806256 1.2543682 0.11524864 54
0.23419181 1.217355 0.12642249 24
0.19793409 1.2687156 0.16357364 69
0.20564932 1.2612362 0.010471444 82
0.21867967 1.2426476 0.030250182 98
0.19432735 1.2773876 0.054210871 100
0.21727961 1.2446449 0.071171694 65
0.22344354 1.2358516 0.090106249 100
0.20403609 1.2635374 0.11715672 99
0.23232126 1.223187 0.1277722 56
0.19848093 1.2714622 0.16409127 69
0.20508191 1.265718 0.010541254 95
0.21576864 1.2503591 0.03066887 64
0.20292827 1.2688133 0.053165004 100
0.21213582 1.2555802 0.072634131 63
0.22958454 1.2305027 0.088854775 98
0.21809524 1.2470152 0.11295892 82
0.22945309 1.2306917 0.12957181 80
0.2035436 1.267929 0.16253836 86
0.21354765 1.2569877 0.010331824 98
0.21395758 1.2563944 0.030982886 95
0.20911434 1.2634046 0.052467756 100
0.21600464 1.2534314 0.072146654 63
0.22437635 1.2413141 0.090731993 95
0.22525868 1.240037 0.11105084 84
0.21990556 1.2477851 0.13407083 93
0.20958909 1.2627175 0.1604678 72
0.21985731 1.2516201 0.010192205 85
0.2168718 1.2559755 0.030878214 95
0.20979854 1.266294 0.05264207 100
0.22002348 1.2513776 0.071659178 80
0.22610599 1.2425044 0.090731993 100
0.22476357 1.2444627 0.11181407 98
0.22276077 1.2473844 0.13362093 93
0.21248955 1.2623683 0.15995017 72
0.22258139 1.2510591 0.0101573 57
0.23534188 1.2323108 0.029308135 68
0.20359892 1.278949 0.053862248 77
0.23167402 1.2376997 0.069465525 66
0.22434026 1.2484748 0.091670595 100
0.22412944 1.2487845 0.1125773 96
0.23640689 1.230746 0.128672 97
0.2162981 1.2602909 0.15891489 73
0.21539408 1.2655138 0.010436539 41
0.23815614 1.2318058 0.029203463 34
0.20212165 1.2851688 0.054385185 51
0.22005942 1.258605 0.072390392 100
0.23604542 1.2349315 0.088854775 98
0.22698516 1.2483487 0.11219569 91
0.23918828 1.2302773 0.12822211 100
0.214854 1.2663136 0.1604678 72
0.22149345 1.2599769 0.010296919 42
0.24636263 1.2228838 0.028575432 35
0.21381754 1.2714257 0.05281638 53
0.22278696 1.2580476 0.072146654 63
0.24528918 1.2244849 0.086664692 86
0.22638661 1.2526786 0.11295892 89
0.23203468 1.2442544 0.13182132 100
0.21972907 1.2626085 0.15891489 81
0.22107652 1.2645077 0.010366729 41
0.20820361 1.2838609 0.032343622 30
0.21786451 1.2693367 0.052467756 53
0.22897553 1.2526323 0.071171694 97
0.23929888 1.237112 0.088854775 98
0.23468173 1.2440535 0.11066922 85
0.23917139 1.2373036 0.12957181 96
0.22153679 1.2638156 0.15891489 89
0.22271818 1.2655957 0.010366729 27
0.20990953 1.2849915 0.032343622 30
0.2162284 1.275423 0.05299069 52
0.23276559 1.2503811 0.070684217 81
0.23540679 1.2463816 0.090419121 100
0.23950112 1.2401817 0.10952436 92
0.23642722 1.2448364 0.13137141 94
0.21998245 1.2697384 0.1604678 72
0.22225788 1.2700801 0.010436539 27
0.18981341 1.3195851 0.03443706 27
0.22236317 1.2699195 0.052293446 53
0.24206123 1.2398635 0.068978049 100
0.23815438 1.2458247 0.090106249 96
0.2422204 1.2396207 0.10914274 85
0.2423594 1.2394085 0.12957181 88
0.2227878 1.2692716 0.15995017 72
0.2306329 1.2612189 0.01022711 42
0.22884467 1.2639694 0.030878214 31
0.2296277 1.262765 0.051421888 55
0.24162138 1.2443175 0.069465525 66
0.24420741 1.24034 0.088854775 98
0.23859307 1.2489754 0.11105084 84
0.25470409 1.224195 0.12507279 83
0.22356692 1.2720871 0.1604678 72
0.23026776 1.2657472 0.010296919 42
0.24797761 1.2382879 0.029203463 34
0.23143592 1.2639359 0.051421888 55
0.24228597 1.2471129 0.069709264 66
0.25342795 1.2298372 0.086664692 86
0.24035069 1.2501135 0.11105084 84
0.25214592 1.231825 0.12687239 90
0.2264564 1.2716568 0.15995017 72
0.24070829 1.25344 0.010017681 58
0.24861965 1.2410742 0.029308135 68
0.23861712 1.2567086 0.05055033 56
0.24082735 1.2532539 0.070440479 49
0.25298619 1.234249 0.087290429 71
0.25057673 1.2380152 0.10799789 87
0.25068995 1.2378381 0.12822211 89
0.23974946 1.2549388 0.15425615 75
0.24750739 1.2459173 0.0098431576 88
0.23823369 1.2605078 0.030459527 65
0.23471883 1.2660378 0.051421888 82
0.24865156 1.2441173 0.068978049 67
0.25012645 1.2417967 0.08854191 70
0.24459484 1.2504997 0.11066922 92
0.25103402 1.2403688 0.128672 89
0.23393571 1.2672698 0.15787962 65
0.24392137 1.2554806 0.010017681 87
0.25175053 1.2430626 0.029308135 100
0.23653901 1.2671901 0.051421888 82
0.24615657 1.2519354 0.069953002 49
0.25396469 1.2395506 0.087916173 70
0.24740505 1.2499552 0.1102876 78
0.26211372 1.2266252 0.12462288 83
0.22751808 1.2814984 0.16202073 63
0.24137563 1.2633272 0.0101573 57
0.25340363 1.2441008 0.029308135 100
0.23721975 1.2699703 0.051596198 82
0.24994633 1.2496272 0.069465525 49
0.2597962 1.2338824 0.086664692 71
0.24595854 1.2560016 0.11143246 91
0.26991063 1.2177148 0.12192347 85
0.23135468 1.2793455 0.16098544 64
0.24318582 1.2644551 0.0101573 85
0.25303718 1.2485789 0.029517479 100
0.23695335 1.2744992 0.051944822 81
0.24961296 1.2540972 0.069953002 49
0.26358142 1.231586 0.086038955 58
0.25395265 1.2471036 0.10914274 85
0.26744357 1.2253618 0.12372308 92
0.2434094 1.2640948 0.15580906 67
0.24578974 1.2637141 0.010122396 85
0.25454214 1.2495095 0.029517479 100
0.24585602 1.2636065 0.05072464 84
0.25530064 1.2482785 0.068978049 50
0.26503295 1.2324836 0.086038955 58
0.25545296 1.2480313 0.10914274 85
0.26069736 1.23952 0.1273223 89
0.24901679 1.2584767 0.15373851 68
0.25907162 1.2460566 0.0097384425 90
0.25838459 1.2471807 0.029308135 100
0.24455038 1.2698182 0.051247578 82
0.25498533 1.252743 0.069465525 49
0.26466981 1.236896 0.086664692 71
0.25311202 1.2558084 0.11066922 92
0.26648492 1.2339258 0.12552269 90
0.24677968 1.2661703 0.15580906 67
0.25339225 1.2589868 0.0099827768 87
0.27032685 1.2310685 0.028261416 100
0.2451762 1.2725317 0.051421888 82
0.25967634 1.2486269 0.068734311 50
0.26417071 1.2412175 0.087290429 57
0.26388836 1.241683 0.10723466 73
0.26600358 1.2381959 0.12642249 90
0.24241528 1.2770834 0.15891489 65
0.2572481 1.2566437 0.0099129668 87
0.26481169 1.2440706 0.028994121 100
0.25010127 1.2685238 0.050898954 83
0.26040924 1.2513888 0.068978049 50
0.26589972 1.242262 0.087290429 57
0.25853488 1.2545047 0.10990598 78
0.2697306 1.2358938 0.12552269 90
0.2442759 1.2782074 0.15891489 65
0.2527127 1.2679135 0.010122396 85
0.26536146 1.2467285 0.029098792 100
0.24767056 1.2763584 0.051596198 82
0.25997189 1.2557553 0.069465525 49
0.27658132 1.227937 0.084474608 59
0.25813025 1.2588398 0.11066922 85
0.2722761 1.2351475 0.12507279 92
0.26398912 1.249027 -0.0097384425 88
0.25388563 1.2659489 0.15477379 67
0.26472792 1.2517928 0.0097733475 89
0.26711068 1.2477686 0.029098792 100
0.25561911 1.2671766 0.05055033 84
0.26175424 1.2568151 0.069465525 49
0.27322939 1.2374349 0.086038955 58
0.26392496 1.2531489 0.10914274 85
0.27696145 1.2311318 0.12372308 92
0.25570536 1.267031 0.15477379 67
0.27037966 1.24584 0.0096337283 90
0.26667279 1.252148 0.029308135 100
0.26130709 1.261279 0.049853086 100
0.26940447 1.2474995 0.068003096 51
0.27177858 1.2434593 0.086977564 57
0.26851267 1.249017 0.10799789 87
0.27651751 1.235395 0.12462288 83
0.25931269 1.264673 0.15373851 68
0.26608482 1.2572281 0.0098431576 88
0.27749193 1.2376523 0.028366089 100
0.25909722 1.2692196 0.05055033 84
0.27115646 1.2485247 0.068003096 51
0.27848849 1.2359421 0.085413218 58
0.27224714 1.246653 0.10723466 81
0.28411192 1.2262918 0.12192347 76
0.25334665 1.2790883 0.15787962 65
0.27262369 1.2494631 0.0096686333 75
0.2799626 1.2367773 0.028261416 100
0.25767389 1.2753048 0.051073264 100
0.27663735 1.2425252 0.067028143 51
0.27995363 1.2367928 0.085413218 58
0.26883039 1.2560201 0.10914274 78
0.28749838 1.2237512 0.12102367 86
0.26361147 1.2650414 -0.0099827768 86
0.25881699 1.2733289 0.15580906 67
0.26741782 1.2626185 0.0099129668 87
0.27770004 1.2446938 0.028680105 100
0.25853652 1.2781011 0.051247578 82
0.27046916 1.2572992 0.068978049 50
0.28264925 1.236066 0.085100345 58
0.26279864 1.270671 0.11219569 91
0.28916323 1.2247102 0.12102367 86
0.26741782 1.2626185 -0.0099129668 87
0.26643124 1.2643384 0.15270324 76
0.2759777 1.2513878 0.0096686333 90
0.27729961 1.2490656 0.028889447 100
0.27599323 1.2513607 0.048458595 100
0.27405068 1.2547731 0.068490572 50
0.28419623 1.2369499 0.085100345 58
0.28291374 1.239203 0.10494494 82
0.28199616 1.2408149 0.12507279 83
0.26807207 1.2652761 0.15270324 68
0.27774391 1.252389 0.0096686333 75
0.27316722 1.260498 0.029517479 100
0.26698723 1.2714479 0.05037602 84
0.27778071 1.2523237 0.068003096 51
0.2868804 1.2362008 0.084787481 59
0.28174037 1.245308 0.1060898 81
0.2904284 1.2299144 0.12192347 85
0.26988927 1.266306 0.15270324 68
0.27942944 1.2533364 0.0096686333 90
0.28073469 1.2510047 0.028889447 100
0.27652508 1.2585245 0.048981529 87
0.28528392 1.2428782 0.066540658 52
0.28368479 1.2457347 0.086351827 58
0.27956516 1.253094 0.10761628 87
0.29203537 1.2308177 0.12192347 85
0.26973608 1.2706522 0.15373851 76
0.27829161 1.2595702 0.0097733475 89
0.28831467 1.2415104 0.028261416 100
0.27445009 1.2664919 0.049678773 86
0.2889455 1.2403738 0.066053182 52
0.29118177 1.2363445 0.084474608 59
0.28133762 1.2540818 0.10761628 87
0.2956174 1.2283522 0.12102367 86
0.27829161 1.2595702 -0.0097733475 99
0.26969802 1.2750543 0.15477379 67
0.27018207 1.2779365 0.010122396 85
0.28786984 1.2458289 0.02847076 100
0.2740885 1.2708454 0.050027397 85
0.28276175 1.2551013 0.068003096 51
0.29455441 1.2336948 0.083848871 59
0.28001779 1.2600822 0.10876112 79
0.29893923 1.2257354 0.12012386 77
0.2779012 1.2639244 -0.0098431576 87
0.27874333 1.2623957 0.15063268 70
0.28642258 1.2526332 0.0095988233 76
0.28578642 1.253798 0.028889447 100
0.28261077 1.2596129 0.048807215 88
0.27692983 1.2700152 0.069953002 49
0.289628 1.2467637 0.086038955 58
0.29028484 1.2455611 0.10532656 82
0.29687509 1.2334937 0.12192347 76
0.27587947 1.2719386 -0.0099827768 86
0.28240174 1.2599957 0.14959741 70
0.28992978 1.2499882 0.0095290141 92
0.29310107 1.2441353 0.028261416 100
0.28328669 1.2622488 0.048981529 87
0.28804627 1.2534645 0.067515619 51
0.29591569 1.2389405 0.084474608 59
0.29466912 1.2412412 0.10418171 82
0.29655677 1.2377573 0.12282328 85
0.28218746 1.2642775 0.15063268 78
0.28498137 1.2632236 0.0097733475 89
0.29286698 1.2485478 0.02847076 100
0.28123444 1.270197 0.049678773 86
0.29537296 1.243884 0.066053182 52
0.29568419 1.2433047 0.085100345 58
0.29166937 1.2507766 0.1060898 81
0.28391445 1.2652093 0.15063268 70
0.28491083 1.2677217 0.0098431576 88
0.29462269 1.249487 0.02847076 100
0.27744997 1.2817299 0.05072464 84
0.29617837 1.2465661 0.06629692 52
0.29927784 1.2407466 0.084474608 59
0.29066452 1.2569187 0.10723466 81
0.28491083 1.2677217 -0.0098431576 87
0.28209871 1.2730017 0.15270324 68
0.29131916 1.2598027 0.0096686333 75
0.29133379 1.2597749 0.048458595 88
0.29135412 1.2597365 0.068003096 51
0.29786688 1.2474048 0.10494494 75
0.29038528 1.2615709 -0.0097035384 89
0.28926924 1.2636842 0.14959741 78
0.29294482 1.2606578 0.0096686333 75
0.29233113 1.2618293 0.029098792 100
0.28926095 1.2676895 0.049155839 87
0.29666445 1.2535579 0.067028143 51
0.29854029 1.2499774 0.10532656 75
0.28459284 1.2765999 -0.0099827768 86
0.29180431 1.2628348 0.14907977 78
0.29926816 1.2526793 0.0094941091 92
0.2958909 1.2591809 0.028889447 100
0.29375511 1.2632924 0.048632905 88
0.29377854 1.2632473 0.068246834 85
0.29263565 1.2654475 0.14959741 78
0.29639086 1.2624125 0.048458595 59
0.29171303 1.2714951 0.15115032 77
0.29992339 1.259746 0.048109971 59
0.2926406 1.2740085 -0.0098780617 100
0.29610077 1.2672322 0.14959741 70
0.29349831 1.2766879 -0.0099129668 100
0.29347533 1.2767333 0.1521856 77
0.29526854 1.2775801 -0.0099129668 100
0.29526049 1.282047 -0.0099827768 100
