# .PCD v0.7 - Point Cloud Data file format
VERSION 0.7
FIELDS x y z intensity
SIZE 4 4 4 4
TYPE F F F F
COUNT 1 1 1 1
WIDTH 767
HEIGHT 1
VIEWPOINT 0 0 0 1 0 0 0
POINTS 767
DATA ascii
0.047869742 0.0064511895 0.015951499 8
0.040789187 0.0015408397 0.016091119 4
0.045822501 0.0091367364 0.047835063 100
0.045387745 0.014223397 0.047625721 77
0.042752683 0.015989423 0.047625721 38
0.031158924 0.0045385361 0.048463095 25
0.036505997 0.017810047 0.047730394 19
0.03727901 0.024543822 0.047416378 9
0.030129671 0.019771576 0.047835063 9
0.036660433 0.034692109 0.046997689 10
-0.57634372 0.71215349 0.019686315 3
-0.56454498 0.71646452 0.019476885 14
-0.56272739 0.72044432 0.019441981 26
-0.56090349 0.72460467 0.019407077 15
-0.53707558 0.72937876 0.018988218 14
-0.53520578 0.7330519 0.018953314 14
-0.52933186 0.73702341 0.0188486 12
-0.53544241 0.74081838 0.018953314 14
-0.5375368 0.74456066 0.018988218 12
-0.51762229 0.74856853 0.01863917 10
-0.51369172 0.75236171 0.01856936 12
-0.50574869 0.75617945 0.018429741 12
-0.5017913 0.75990319 0.018359931 12
-0.5038175 0.76319462 0.018394837 15
-0.49183673 0.76690876 0.018185407 19
-0.47584349 0.77071613 0.017906168 17
-0.48383349 0.7743305 0.018045789 15
-0.48381203 0.77793926 0.018045789 15
-0.48577756 0.7815702 0.018080693 14
-0.46573609 0.7848925 0.017731644 12
-0.46567792 0.78843802 0.017731644 10
-0.46160895 0.7918967 0.017661836 10
-0.46152633 0.79542774 0.017661836 12
-0.46143645 0.79878199 0.017661836 12
-0.44534039 0.8018015 0.017382598 14
-0.44122642 0.805134 0.017312787 14
-0.43710136 0.80843818 0.017242977 14
-0.44495279 0.81222272 0.017382598 16
-0.44479936 0.81569552 0.017382598 12
-0.43265027 0.81857538 0.017173167 13
-0.41050881 0.82084244 0.016789215 24
-0.41632456 0.8243643 0.016893929 19
-0.41812503 0.82785636 0.016928835 22
-0.41991287 0.83136165 0.016963739 31
-0.39974022 0.83341467 0.01661469 55
-0.40550911 0.83698326 0.016719405 31
-0.4052695 0.8403182 0.016719405 28
-0.40302444 0.84349853 0.016684501 21
-0.42468756 0.8485927 0.017068453 22
-0.41047281 0.85065311 0.016824121 37
-0.40221709 0.8533082 0.016684501 50
-0.41984367 0.85826266 0.016998643 26
-0.42749292 0.86240029 0.017138263 11
-0.44308567 0.86737287 0.017417502 5
-0.41289783 0.86780757 0.016893929 5
-1.0414624 1.1304032 0.085516952 3
-1.0492411 1.1321647 0.14345835 4
-1.0285563 1.1329877 0.028272899 7
-1.0032756 1.1271745 0.083528183 7
-1.0189056 1.1307685 0.14084367 11
-1.013649 1.1353112 0.028028565 11
-1.0059092 1.133503 0.08373753 46
-1.0273376 1.1385093 0.14171524 48
-0.99102587 1.1354191 0.027644612 32
-0.98720497 1.1345131 0.082795486 100
-1.0280454 1.1441976 0.14188954 91
-0.99745232 1.142939 0.02778423 40
-0.99750859 1.1429526 0.083423518 100
-1.0034201 1.1443772 0.13979781 86
-0.97872478 1.1437938 0.027470088 37
-0.97880238 1.1438128 0.082481466 100
-1.0002348 1.1490533 0.13962349 82
-0.98122591 1.1503584 0.027539898 22
-0.98129874 1.1503766 0.082690813 80
-0.99110061 1.1528113 0.13892625 89
-0.97219974 1.1534801 0.027400278 27
-0.98196572 1.1559403 0.082795486 39
-1.0014148 1.16084 0.13997212 71
-0.96884674 1.158561 0.027365373 44
-0.97473603 1.1600677 0.082481466 30
-0.99418122 1.1650423 0.13944919 85
-0.97142118 1.1645997 0.027435184 56
-0.97343415 1.1651218 0.082481466 78
-0.9774341 1.1661592 0.1380547 92
-0.96222943 1.1681368 0.027295563 68
-0.97197574 1.1707027 0.082481466 100
-0.97597176 1.1717548 0.1380547 92
-0.94923848 1.1703178 0.027086135 78
-0.96477872 1.1744673 0.082167454 96
-0.96686035 1.1750231 0.13735744 100
-0.9516924 1.1765939 0.027155945 92
-0.94600707 1.1750546 0.081225403 100
-0.96928352 1.1813569 0.13770607 100
-0.95797735 1.1839507 0.027295563 93
-0.94265801 1.1797454 0.081120729 100
-0.97744495 1.1892947 0.13857763 94
-0.95267028 1.1881398 0.027225753 96
-0.94121867 1.1849532 0.081120729 96
-0.9663747 1.1919533 0.13770607 91
-0.94350296 1.1912115 0.027086135 92
-0.94168335 1.1906981 0.081225403 84
-0.95338708 1.1939991 0.1366602 100
-0.93832654 1.1948036 0.027016325 66
-0.94035441 1.1953824 0.081225403 72
-0.94438416 1.1965326 0.13596296 100
-0.95604438 1.2055517 0.027365373 48
-0.92543 1.196698 0.080492698 34
-0.95245594 1.204514 0.13683452 94
-0.93916267 1.2063081 0.027086135 56
-0.91626483 1.1995993 0.080074012 24
-0.96431416 1.2136773 0.1380547 82
-0.93187946 1.2097968 0.026981421 74
-0.92050046 1.2064197 0.080388032 28
-0.9417457 1.2127249 0.13613728 89
-0.9150148 1.2103617 0.026702182 75
-0.91896814 1.21155 0.080388032 40
-0.92683488 1.2139146 0.1349171 99
-0.91155571 1.2148906 0.026667276 78
-0.9212392 1.2178383 0.080597371 94
-0.92908841 1.2202275 0.13526571 100
-0.91007239 1.2197349 0.026667276 88
-0.90638477 1.218599 0.079864666 97
-0.92377895 1.2239568 0.1349171 91
-0.91612977 1.22721 0.026806897 88
-0.89527649 1.2207069 0.079341307 85
-0.92598957 1.2302848 0.13526571 66
-0.91833872 1.233529 0.026876707 81
-0.90131289 1.2281542 0.07976 68
-0.91297406 1.2318354 0.13421984 45
-0.89766353 1.2325652 0.026527658 83
-0.90160722 1.2338253 0.079864666 80
-0.89996582 1.2333009 0.13317397 46
-0.88462394 1.2339239 0.02631823 89
-0.89997941 1.2388896 0.079864666 97
-0.9078185 1.2414246 0.13404553 47
-0.88679689 1.2401727 0.026388038 100
-0.88884276 1.2408422 0.079341307 100
-0.91941911 1.2508479 0.13526571 64
-0.88894361 1.2464423 0.026457848 99
-0.88529438 1.2452341 0.079236634 100
-0.91584021 1.255348 0.13509139 82
-0.89106399 1.2527326 0.026527658 100
-0.89120215 1.2527789 0.079655327 100
-0.9009127 1.2560318 0.13387123 82
-0.88179451 1.2551928 0.026388038 92
-0.88572496 1.2565247 0.07944598 100
-0.89165932 1.2585356 0.13317397 84
-0.86495894 1.2550006 0.0261088 93
-0.88779658 1.2628286 0.079655327 100
-0.89371473 1.2648571 0.1335226 100
-0.87837237 1.2651768 0.026388038 88
-0.86719674 1.2613025 0.07860861 100
-0.89762598 1.2718514 0.13404553 85
-0.8690868 1.2675133 0.02624842 81
-0.85604924 1.2629424 0.078085244 87
-0.90526634 1.2801974 0.1349171 50
-0.87488061 1.2751365 0.026388038 77
-0.84490758 1.2645108 0.077561885 46
-0.89220923 1.2812797 0.13387123 36
-0.86001998 1.2751379 0.026143705 90
-0.84890085 1.2711544 0.077875905 17
-0.87550062 1.2806838 0.13247673 39
-0.84884721 1.2766517 0.025969181 100
-0.87155539 1.2848765 0.079236634 53
-0.87558264 1.2863351 0.13265105 20
-0.85467106 1.2840366 0.0261088 93
-0.84733278 1.2813511 0.077980578 93
-0.87760454 1.2924291 0.13299966 15
-0.84902686 1.2877934 0.026038991 100
-0.84544927 1.2864692 0.077980578 100
-0.85699505 1.2907424 0.13125655 3
-0.84730202 1.2924298 0.026038991 100
-0.83063346 1.2861977 0.077247873 65
-0.87205642 1.3016851 0.13282534 1
-0.83789593 1.294719 0.025899371 99
-0.83994144 1.2954924 0.077875905 51
-0.83468884 1.2935065 0.12951343 3
-0.83054394 1.2971785 0.025794657 74
-0.84192282 1.3015237 0.078085244 53
-0.84225172 1.3016492 0.130385 18
-0.8360644 1.3051157 0.025934275 74
-0.83437568 1.3044637 0.077771232 68
-0.84586984 1.3089013 0.13090792 56
-0.83614534 1.3104355 0.025969181 78
-0.81770915 1.3032475 0.076933853 65
-0.86078173 1.3200407 0.13247673 100
-0.83415526 1.3155124 0.025969181 100
-0.81574553 1.3082569 0.076933853 69
-0.83095187 1.3142498 0.12986206 100
-0.82119077 1.3156631 0.025759751 99
-0.83251029 1.3201675 0.077980578 89
-0.82358581 1.3166162 0.12933913 97
-0.81185621 1.3174627 0.025620133 100
-0.82502204 1.3227553 0.077666558 91
-0.82721525 1.323637 0.12986206 100
-0.8063274 1.3204718 0.025550323 100
-0.81948012 1.3258097 0.077457212 95
-0.83275634 1.331198 0.1305593 100
-0.77251071 1.306747 0.17524812 13
-0.81170124 1.3284744 0.025689943 100
-0.80634648 1.3262782 0.07682918 100
-0.82515997 1.3339942 0.13003637 100
-0.78155428 1.3161101 0.17671055 16
-0.81723231 1.3360466 0.025829561 100
-0.79895824 1.328481 0.076515168 100
-0.80855531 1.3324542 0.12864187 100
-0.79440898 1.3265976 0.17866045 19
-0.80039006 1.3348804 0.025550323 100
-0.79874486 1.3341922 0.076619841 100
-0.81199878 1.3397365 0.12916481 100
-0.77404672 1.3238606 0.17622307 16
-0.7911405 1.3362441 0.025410704 100
-0.80422634 1.3417691 0.077038527 100
-0.80459553 1.3419249 0.12864187 100
-0.7850042 1.3336532 0.17792924 24
-0.7964136 1.3442941 0.025550323 83
-0.78007621 1.3373256 0.075782463 49
-0.80249017 1.3468859 0.12864187 90
-0.75188845 1.3253025 0.17378569 16
-0.82388979 1.3614061 0.0261088 60
-0.81487781 1.3575268 0.077875905 53
-0.82436031 1.3616087 0.13090792 20
-0.79015332 1.346884 0.17914793 5
-0.8180452 1.3648429 0.026038991 99
-0.80538887 1.3593398 0.077457212 100
-0.81304699 1.3626697 0.13003637 58
-0.78438908 1.3502088 0.17866045 15
-0.79409093 1.3597349 0.025620133 100
-0.80891389 1.3662386 0.077771232 100
-0.8092497 1.3663859 0.12986206 100
-0.78791112 1.3570235 0.17939167 38
-0.79212791 1.3641888 0.025620133 100
-0.81423444 1.3739758 0.078189917 100
-0.81455177 1.3741164 0.1305593 100
-0.75691456 1.3485991 0.17549185 28
-0.79562753 1.3710829 0.025724847 100
-0.80492967 1.3752382 0.077771232 100
-0.80890268 1.3770128 0.13021068 100
-0.76948851 1.3594068 0.17744176 30
-0.7952382 1.3768332 0.025759751 100
-0.80088168 1.3793788 0.077666558 100
-0.81574959 1.3860857 0.13108224 100
-0.77093846 1.3658715 0.17792924 22
-0.80221146 1.3856683 0.025934275 100
-0.80238169 1.3857458 0.077875905 100
-0.80452424 1.3867214 0.13021068 100
-0.78149682 1.3762369 0.17963541 15
-0.7926783 1.387279 0.025794657 100
-0.81100386 1.395704 0.078503937 100
-0.79501373 1.3883529 0.12951343 100
-0.79369491 1.3877465 0.18158533 15
-0.79232937 1.3928038 0.025829561 100
-0.81062323 1.4012916 0.07860861 100
-0.80007643 1.3963983 0.13021068 100
-0.77352327 1.3840783 0.17914793 12
-0.79206783 1.3980994 0.025864467 100
-0.80671328 1.4049535 0.078503937 100
-0.81242818 1.4076281 0.13160518 100
-0.77147967 1.3884639 0.17914793 5
-0.79167539 1.4036342 0.025899371 100
-0.79726475 1.4062738 0.078085244 100
-0.8137973 1.4140817 0.13195379 100
-0.75495285 1.3862913 0.17719802 3
-0.80209178 1.4143355 0.026143705 100
-0.80405051 1.4152689 0.07860861 100
-0.80434626 1.4154098 0.13125655 100
-0.78902131 1.4138519 0.025934275 100
-0.80718976 1.4225879 0.078922622 100
-0.8020851 1.4201334 0.13125655 100
-0.78485352 1.4178822 0.025899371 100
-0.80838245 1.4293021 0.079131968 100
-0.81044775 1.4303045 0.13230242 100
-0.78976756 1.4260554 0.026038991 100
-0.7988978 1.4305263 0.078713275 100
-0.80455583 1.4332969 0.13195379 100
-0.79845887 1.4355717 0.02624842 100
-0.79502505 1.4338768 0.07860861 100
-0.81318492 1.4428401 0.13299966 100
-0.80328768 1.4438398 0.026388038 100
-0.7980631 1.4412384 0.078922622 100
-0.80726093 1.4458182 0.13265105 100
-0.79354388 1.4454384 0.02624842 96
-0.80261368 1.449998 0.079341307 100
-0.79219526 1.4447604 0.13143086 100
-0.79117793 1.450124 0.02624842 100
-0.80379432 1.456522 0.079550654 100
-0.81115538 1.4602549 0.1335226 100
-0.79615718 1.4579742 0.026388038 100
-0.80163091 1.4607717 0.079550654 100
-0.8054319 1.4627142 0.13317397 100
-0.79730231 1.4645014 0.026457848 100
-0.79388565 1.4627402 0.079236634 100
-0.81717318 1.4747443 0.13456847 100
-0.80184418 1.4731259 0.026597468 100
-0.79665333 1.470426 0.079550654 100
-0.80397552 1.4742343 0.1335226 100
-0.79229814 1.4741247 0.026457848 96
-0.79596883 1.4760501 0.079655327 100
-0.79798025 1.4771054 0.13317397 100
-0.78642029 1.4767025 0.026388038 79
-0.79362005 1.4805098 0.079655327 100
-0.80619568 1.4871597 0.13421984 99
-0.80895823 1.4947019 0.13474278 29
0.12106061 1.3017803 0.13280307 5
0.15882826 1.2586116 0.010925206 26
0.15306371 1.265812 0.03328567 28
0.14407003 1.277046 0.056825545 23
0.1450671 1.2758006 0.10262101 11
0.14877903 1.2711641 0.12478908 24
0.18828237 1.2218206 0.13362093 7
0.15519667 1.2631478 0.16926765 7
0.156717 1.2646017 0.011029921 89
0.16714054 1.2514927 0.032238949 90
0.15195379 1.270592 0.055953987 73
0.15217614 1.2703123 0.078483857 14
0.15781149 1.2632252 0.099805191 24
0.16388392 1.2555884 0.12059128 95
0.18978265 1.2230176 0.13362093 23
0.15202481 1.2705027 0.1713382 21
0.16464135 1.2581239 0.010855397 100
0.1700612 1.2512586 0.032134276 100
0.15493816 1.2704146 0.055779677 100
0.16007522 1.2639077 0.077265166 29
0.17299986 1.2475363 0.096363634 37
0.16436476 1.2584741 0.1209729 100
0.18291351 1.2349789 0.13677025 45
0.1561684 1.2688563 0.17030293 43
0.1637944 1.2625463 0.010925206 100
0.17289159 1.2509441 0.032029606 100
0.15168229 1.2779934 0.056476921 100
0.17518881 1.2480145 0.074584037 30
0.17458549 1.2487838 0.096363634 25
0.16598672 1.2597502 0.1209729 100
0.18565992 1.2346601 0.13632034 30
0.16020888 1.2671191 0.16926765 44
0.16437414 1.2655367 0.010960111 100
0.17465687 1.2523232 0.032029606 91
0.15966493 1.2715881 0.055605363 98
0.17938164 1.2462517 0.07409656 30
0.17149016 1.2563924 0.097615108 37
0.16899005 1.2596051 0.12059128 100
0.19215268 1.2298406 0.13452072 31
0.1406776 1.2959871 0.17858514 40
0.16724238 1.2652304 0.010925206 65
0.16404459 1.2693679 0.033076324 58
0.16498563 1.2681503 0.055082429 50
0.16518179 1.2678967 0.077265166 43
0.17793718 1.2513931 0.096363634 25
0.18652928 1.2402761 0.13722014 22
0.15069374 1.286642 0.17496167 28
0.17149419 1.2634567 0.010855397 52
0.16952419 1.2660249 0.032762308 29
0.17045185 1.2648156 0.054559495 50
0.18150732 1.2504026 0.074340299 46
0.18571535 1.2449166 0.094799288 51
0.1915355 1.2373289 0.1144854 20
0.19062749 1.2385126 0.13632034 22
0.16082039 1.2773721 0.1713382 58
0.18282697 1.2519835 0.010576159 54
0.17117116 1.2672839 0.032762308 29
0.17209482 1.2660714 0.054559495 50
0.18791419 1.2453055 0.073365346 46
0.18370107 1.2508361 0.095737889 51
0.20022544 1.2291447 0.11219569 14
0.19690675 1.2335012 0.13452072 38
0.17538252 1.2617557 0.16564418 68
0.17253646 1.2692773 0.010925206 39
0.17299634 1.2686691 0.032762308 29
0.16910934 1.2738104 0.055256739 49
0.19444731 1.2402955 0.072390392 47
0.19499618 1.2395694 0.093234941 53
0.1995427 1.2335558 0.11295892 13
0.20330885 1.2285743 0.13272113 39
0.17019716 1.2723715 0.16875002 66
0.17908308 1.2641946 0.010785587 39
0.1723415 1.2731768 0.032971654 29
0.16847831 1.2783239 0.055605363 49
0.19251627 1.2462968 0.073121607 62
0.19308013 1.2455455 0.094173551 65
0.19644892 1.241057 0.1144854 13
0.21427 1.2173129 0.1291219 32
0.17659169 1.267514 0.16667947 67
0.18081039 1.2654862 0.010785587 65
0.19080687 1.2520702 0.031506244 31
0.18096882 1.2652737 0.054036561 51
0.18943676 1.2539089 0.07409656 61
0.2018238 1.2372844 0.092296332 66
0.19457632 1.2470112 0.11563025 13
0.2111761 1.2247328 0.13092151 32
0.18294764 1.2626179 0.16460891 69
0.17897466 1.271595 0.010890301 91
0.20436913 1.2372638 0.030459527 32
0.19099379 1.2553462 0.05281638 79
0.18994763 1.2567605 0.074340299 92
0.20110762 1.2416731 0.092922069 79
0.2079187 1.2324651 0.11181407 14
0.2162421 1.2212126 0.12957181 32
0.18466944 1.2638962 0.16460891 69
0.19484621 1.2534833 0.010471444 82
0.20473814 1.2400171 0.030564198 64
0.18198952 1.2709856 0.054385185 76
0.19626456 1.2515525 0.073365346 46
0.20384309 1.2412355 0.092609204 93
0.20364282 1.2415081 0.11372216 13
0.22235495 1.2160347 0.1277722 24
0.18745294 1.263548 0.16409127 69
0.20124888 1.2482572 0.010331824 84
0.20520413 1.2428331 0.03066887 64
0.18726227 1.2674376 0.053862248 77
0.2037957 1.2447646 0.072146654 63
0.19850683 1.2520175 0.094486415 91
0.21570149 1.2284377 0.1102876 14
0.22735846 1.2124519 0.12642249 8
0.18917796 1.2648106 0.16409127 69
0.19588506 1.2591906 0.010541254 81
0.21739697 1.2294731 0.029726824 100
0.18082288 1.2799982 0.055082429 75
0.20661905 1.2443621 0.071902916 96
0.20714134 1.2436407 0.092609204 100
0.21039659 1.2391437 0.1125773 13
0.23804638 1.200947 0.12282328 17
0.18637621 1.2723265 0.16616182 68
0.19059336 1.2701672 0.010750682 92
0.2155064 1.2354971 0.03004084 66
0.18841857 1.2731938 0.054210871 100
0.20248505 1.2536182 0.073121607 78
0.21571302 1.2352095 0.090731993 95
0.20974499 1.243515 0.11334054 13
0.24523839 1.1941206 0.12057377 17
0.19376844 1.2657486 0.16357364 69
0.20163131 1.258395 0.010471444 96
0.21249408 1.2431659 0.030459527 65
0.20174709 1.2582326 0.052467756 100
0.21109182 1.2451317 0.071659178 80
0.21619186 1.2379818 0.091044858 100
0.2091198 1.2478964 0.11410378 20
0.22974613 1.2189794 0.1273223 16
0.20223209 1.2575526 0.1604678 72
0.20333824 1.2596079 0.010471444 96
0.21645606 1.241081 0.030250182 65
0.20345348 1.2594452 0.052467756 100
0.21504661 1.2430717 0.071171694 81
0.20869556 1.2520416 0.093547814 100
0.20625213 1.2554926 0.11563025 33
0.22793704 1.2248659 0.128672 24
0.20058709 1.2634935 0.16202073 78
0.2050494 1.260815 0.010471444 96
0.21695402 1.2438765 0.030354854 97
0.19370773 1.2769526 0.054210871 100
0.21784142 1.2426139 0.070927955 48
0.21265197 1.2499976 0.092922069 100
0.20569113 1.259902 0.11639348 79
0.23288837 1.2212042 0.1273223 32
0.20231184 1.2647102 0.16202073 78
0.20676476 1.2620162 0.010471444 82
0.22203836 1.240122 0.03004084 66
0.19775936 1.2749251 0.053862248 100
0.21835741 1.2453985 0.071171694 81
0.22450137 1.2365913 0.090106249 100
0.20403349 1.2659314 0.11753834 100
0.23000544 1.2287014 0.1291219 80
0.20183021 1.2690897 0.163056 70
0.21059009 1.2598047 0.010401634 97
0.21782905 1.2493582 0.030564198 97
0.20388657 1.2694787 0.053165004 100
0.2187219 1.2480698 0.071415432 64
0.22259349 1.2424825 0.091044858 100
0.22124809 1.2444241 0.11219569 91
0.22811827 1.2345097 0.13047162 96
0.21000177 1.2606537 0.15995017 72
0.22136763 1.2478057 0.010122396 85
0.22063619 1.2488692 0.030459527 65
0.21692294 1.2542679 0.051421888 100
0.21926776 1.2508588 0.071659178 80
0.22872248 1.2371123 0.089793384 100
0.22401869 1.2439512 0.11181407 100
0.2220113 1.2468698 0.13362093 93
0.22047469 1.2491039 0.15580906 75
0.21635807 1.2589175 0.010331824 84
0.22464514 1.2467736 0.030250182 65
0.21533093 1.2604226 0.051944822 81
0.23110285 1.2373105 0.069465525 66
0.21930209 1.2546033 0.092922069 100
0.22686464 1.2435212 0.11143246 100
0.2259582 1.2448494 0.13272113 100
0.21787721 1.2566913 0.15787962 73
0.21694535 1.2617347 0.010366729 41
0.23303154 1.2379845 0.029622151 67
0.20810649 1.2747848 0.053339314 52
0.22494355 1.2499259 0.071171694 97
0.22431895 1.2508481 0.091983467 100
0.23072141 1.2413952 0.11066922 92
0.2374531 1.2314563 0.128672 97
0.20982793 1.2722433 0.16253836 70
0.21188241 1.2727928 0.010576159 40
0.2323561 1.2423477 0.029831495 33
0.20422319 1.2841824 0.054210871 51
0.23096785 1.2444122 0.07019674 66
0.24024558 1.2306159 0.087916173 98
0.22790411 1.248968 0.11219569 91
0.2378976 1.2341073 0.1291219 96
0.21041727 1.2749715 0.163056 70
0.22252035 1.2606639 0.010296919 42
0.22513685 1.2567436 0.03066887 32
0.22261077 1.2605283 0.051596198 54
0.22821781 1.2521274 0.071171694 81
0.2385655 1.2366234 0.088854775 98
0.23066786 1.2484565 0.11181407 91
0.23735592 1.2384357 0.13002171 96
0.2175442 1.2681197 0.1604678 72
0.22644368 1.2584697 0.01022711 42
0.20919079 1.2845162 0.032343622 30
0.21772352 1.2716345 0.05264207 53
0.22551781 1.2598674 0.072146654 79
0.24128708 1.2360607 0.08854191 98
0.2334241 1.2479315 0.11143246 84
0.24222142 1.2346503 0.128672 97
0.22461912 1.2612243 0.15787962 73
0.22595379 1.2629381 0.010296919 28
0.18904641 1.3190815 0.03443706 27
0.22713771 1.2611371 0.051421888 55
0.22613931 1.262656 0.072390392 100
0.24291584 1.2371355 0.08854191 84
0.23832965 1.244112 0.1102876 85
0.23849288 1.2438637 0.13092151 96
0.22739697 1.2607428 0.15736198 74
0.22994733 1.2607725 0.01022711 28
0.20633531 1.2969795 0.032971654 29
0.21696827 1.2806748 0.053339314 52
0.23553765 1.2522004 0.070684217 81
0.24355099 1.2399125 0.088854775 98
0.24435914 1.2386733 0.10876112 94
0.24555424 1.2368407 0.128672 97
0.22497672 1.2683945 0.15943253 73
0.22948945 1.2652444 0.010296919 42
0.23639086 1.2545805 0.030250182 32
0.22524792 1.2717981 0.052293446 53
0.23937982 1.249962 0.07019674 66
0.25055948 1.2326875 0.087290429 85
0.24173027 1.2463301 0.1102876 92
0.25142083 1.2313565 0.12687239 99
0.22251996 1.2760134 0.16150309 70
0.23104689 1.2662488 0.010296919 42
0.2476337 1.2404419 0.029308135 68
0.22574872 1.274492 0.052467756 53
0.24410909 1.2459257 0.069465525 49
0.25415063 1.2303025 0.086664692 86
0.24004376 1.2522509 0.11143246 84
0.25392535 1.2306529 0.12642249 99
0.23246738 1.2640387 0.15736198 74
0.24138361 1.2538714 0.010017681 43
0.24820367 1.2431784 0.029412808 67
0.24143976 1.2537833 0.050201707 56
0.23509762 1.2637271 0.071902916 96
0.2515102 1.2379942 0.087916173 56
0.25017479 1.240088 0.10837951 65
0.25239137 1.2366126 0.1277722 97
0.23523268 1.2635152 0.15684435 74
0.24521336 1.2515663 0.0099478718 73
0.24878907 1.2459166 0.029517479 100
0.23567173 1.2666422 0.051421888 82
0.24956235 1.2446949 0.068978049 50
0.25737131 1.2323567 0.086664692 71
0.24656785 1.2494262 0.1102876 85
0.25402197 1.2376486 0.1277722 97
0.234891 1.2678758 0.15787962 65
0.244854 1.2560674 0.010017681 58
0.25053543 1.2470175 0.029517479 100
0.23749414 1.267791 0.051421888 82
0.24919331 1.2491553 0.069465525 49
0.25276613 1.2434642 0.08854191 70
0.24519551 1.2555234 0.11143246 91
0.26299092 1.2271771 0.12462288 92
0.23877221 1.2657551 0.15684435 66
0.24452356 1.2605776 0.010087491 71
0.25650868 1.2413301 0.029098792 100
0.23089552 1.2824633 0.05281638 79
0.2509515 1.2502546 0.069465525 49
0.26076841 1.2344892 0.086664692 71
0.25424132 1.2449714 0.10876112 72
0.26672864 1.2249174 0.12372308 83
0.23242214 1.2800117 0.16098544 64
0.24842522 1.2582912 0.010017681 72
0.25613916 1.2458012 0.029308135 100
0.24324536 1.2666781 0.051073264 83
0.24541196 1.26317 0.071171694 65
0.26039678 1.2389076 0.087290429 71
0.24876273 1.2577447 0.11143246 91
0.26225385 1.2359008 0.12642249 90
0.24444491 1.2647359 0.15580906 67
0.25301254 1.2540704 0.0099129668 87
0.25441882 1.2517782 0.029622151 100
0.24159467 1.2726808 0.051596198 82
0.24687657 1.2640716 0.071171694 81
0.26592138 1.2330298 0.086038955 72
0.2594513 1.2435756 0.10799789 72
0.26567563 1.2334304 0.12552269 99
0.25197566 1.2557604 0.15270324 68
0.25894663 1.2483225 0.0097733475 89
0.25722483 1.2511522 0.029517479 100
0.24758187 1.2669995 0.050898954 83
0.25591266 1.2533085 0.069465525 49
0.26556671 1.237443 0.086664692 71
0.25812739 1.2496688 0.10914274 92
0.26535013 1.2377989 0.12642249 90
0.24371597 1.2733529 0.15787962 65
0.26260203 1.2458615 0.0097035384 90
0.26295218 1.2452818 0.029098792 100
0.24511153 1.2748215 0.051596198 82
0.2595695 1.2508826 0.068978049 50
0.26711836 1.2383835 0.086664692 57
0.26682439 1.2388704 0.10647142 81
0.27294776 1.2287315 0.12372308 83
0.24738428 1.2710584 0.15684435 66
0.25921044 1.2554892 0.0098780617 73
0.26880118 1.239477 0.028680105 100
0.25105894 1.2690988 0.050898954 83
0.26541406 1.245132 0.068003096 51
0.26680693 1.2428066 0.087290429 71
0.25643918 1.2601161 0.11105084 84
0.27963766 1.2213849 0.12147357 69
0.24922279 1.2721642 0.15684435 66
0.2578423 1.2616587 0.0099827768 87
0.26431996 1.2507577 0.029308135 100
0.25076732 1.2735648 0.051247578 82
0.2609899 1.2563617 0.069465525 49
0.27148637 1.2386976 0.086351827 58
0.25714889 1.2628255 0.11143246 91
0.28021944 1.2240012 0.12192347 85
0.25196439 1.2715503 0.1563267 74
0.26167673 1.2592804 0.0099129668 87
0.2701399 1.2449186 0.028889447 100
0.25868407 1.264359 0.050201707 100
0.26277444 1.2574177 0.069465525 49
0.27922335 1.2295041 0.084474608 59
0.27191454 1.2419071 0.10647142 73
0.27792782 1.2317026 0.12372308 83
0.2606701 1.2609887 0.15270324 68
0.26717016 1.2532306 0.0097733475 89
0.26549697 1.2560892 0.029517479 100
0.26619065 1.254904 0.049155839 87
0.26823282 1.2514149 0.068490572 50
0.27360317 1.2422394 0.086664692 57
0.27331594 1.2427301 0.10647142 81
0.27634582 1.2375534 0.12507279 75
0.26212817 1.261845 0.15270324 68
0.26894316 1.2542639 0.0097733475 89
0.27530092 1.2433095 0.028680105 100
0.25796875 1.273173 0.050898954 100
0.27398497 1.2455769 0.067515619 51
0.27335274 1.2466662 0.087290429 57
0.26913753 1.253929 0.10876112 87
0.28588688 1.2250696 0.12147357 77
0.25423563 1.2796052 0.15787962 65
0.26963755 1.2569751 0.0098082526 74
0.28492686 1.2304182 0.027842728 100
0.25972694 1.2741892 0.050898954 83
0.27564672 1.2465374 0.067515619 51
0.28093189 1.2373574 0.085413218 58
0.27082849 1.2549064 0.10876112 79
0.28844929 1.2243 0.12102367 86
0.25987181 1.2739377 0.15580906 67
0.2634933 1.2718925 0.010087491 71
0.27968502 1.2435285 0.028575432 100
0.26454008 1.2700589 0.05037602 84
0.27542689 1.2509878 0.068003096 51
0.28754321 1.2297628 0.083848871 59
0.26774108 1.2644514 0.11066922 92
0.29204836 1.2218708 0.12012386 86
0.26944155 1.2614727 -0.0098780617 87
0.26363626 1.2716422 0.15477379 67
0.27295876 1.258872 0.0098082526 89
0.27625042 1.2530636 0.029098792 100
0.2700417 1.2640196 0.049678773 86
0.26421607 1.2742996 0.071171694 81
0.28801498 1.2323036 0.084161744 59
0.28284708 1.2414229 0.10532656 67
0.28866529 1.2311561 0.12237337 76
0.26902348 1.2658165 0.15270324 68
0.27965006 1.2511674 0.0096337283 90
0.27410942 1.2610285 0.029517479 100
0.26599854 1.2754643 0.05072464 84
0.28065196 1.2493843 0.067515619 51
0.28487307 1.2418715 0.08572609 58
0.2816917 1.2475338 0.10647142 81
0.28653899 1.2389065 0.12417299 75
0.27084261 1.2668428 0.15270324 68
0.28327817 1.2486147 0.0095639192 91
0.28165862 1.2515209 0.028889447 100
0.2716442 1.269491 0.050027397 85
0.28425962 1.2468535 0.067028143 51
0.28748342 1.2410686 0.085413218 58
0.28431594 1.2467525 0.1060898 88
0.29671508 1.224503 0.12012386 86
0.27257863 1.2678143 0.15270324 68
0.27826497 1.2618413 0.0098082526 74
0.2834253 1.2525011 0.028889447 100
0.2725133 1.2722518 0.050201707 85
0.28408924 1.2512994 0.067515619 51
0.29207754 1.2368405 0.084474608 59
0.28321689 1.2528783 0.10723466 81
0.27439687 1.2688426 -0.0099478718 86
0.26879975 1.2789733 0.15580906 67
0.27404234 1.2732127 0.010017681 87
0.28686315 1.2498337 0.028680105 100
0.27505055 1.2713742 0.050027397 85
0.27701205 1.2677974 0.069709264 49
0.29449528 1.2359164 0.084161744 59
0.2800152 1.2623211 0.10914274 78
0.2988776 1.2279252 0.12057377 77
0.27788842 1.2661992 -0.0098780617 87
0.27504462 1.271385 0.15322088 76
0.29117003 1.2461109 0.009459204 77
0.28862357 1.250795 0.028680105 100
0.28259966 1.2618759 0.048981529 87
0.27978653 1.2670505 0.069465525 49
0.29620466 1.2368498 0.084161744 59
0.28838527 1.2512333 0.10647142 81
0.29869616 1.2322667 0.12147357 77
0.2814976 1.263903 0.15063268 70
0.2937825 1.2452512 0.0094242999 93
0.29219908 1.2481883 0.02847076 100
0.28242728 1.2663138 0.049330149 87
0.2890594 1.254012 0.067515619 51
0.29596099 1.2412105 0.084787481 59
0.29751995 1.2383187 0.10341848 83
0.2795482 1.2716541 -0.0099478718 86
0.28138974 1.2682383 0.15166797 69
0.28798613 1.2602963 0.0097035384 90
0.29395345 1.24913 0.02847076 100
0.28612626 1.2637767 0.048981529 87
0.29644883 1.2444605 0.066053182 52
0.29675874 1.2438805 0.085100345 58
0.29183558 1.2530931 0.10647142 73
0.28139666 1.2726271 0.15270324 68
0.29242337 1.2558622 0.0095988233 91
0.29056478 1.2593681 0.048458595 88
0.28965536 1.2610835 0.068246834 51
0.29435855 1.2522119 0.1060898 81
0.28493023 1.2699964 -0.0098780617 87
0.28487462 1.2701013 0.15166797 69
0.29141539 1.2621136 0.0097035384 90
0.29544654 1.254442 0.028680105 100
0.29699397 1.251497 0.047587037 90
0.29515049 1.2550054 0.067271881 51
0.29430124 1.2566216 0.10685304 73
0.29048523 1.2638838 -0.0097384425 88
0.2938982 1.2573886 0.14752686 79
0.29859444 1.2523289 0.0094941091 92
0.29675025 1.255867 0.047935657 89
0.29033747 1.26817 0.068978049 50
0.29863867 1.252244 0.10570818 66
0.29304874 1.2629684 -0.0097035384 100
0.29372999 1.2616614 0.14856213 79
0.29844344 1.2567564 0.0095639192 91
0.29416507 1.2650349 0.029203463 100
0.29204464 1.269138 0.049155839 58
0.29754633 1.2584924 0.067515619 51
0.29367387 1.2659854 0.14959741 78
0.29742274 1.2629427 0.048458595 59
0.29744256 1.2629039 0.068003096 51
0.29540676 1.2668772 0.14959741 70
0.29553553 1.2709267 0.049155839 58
0.29889262 1.264318 0.14856213 79
0.29627106 1.2736077 0.0098431576 100
0.29627106 1.2736077 -0.0098431576 100
0.29624403 1.2825351 -0.0099827768 100
