# .PCD v0.7 - Point Cloud Data file format
VERSION 0.7
FIELDS x y z intensity
SIZE 4 4 4 4
TYPE F F F F
COUNT 1 1 1 1
WIDTH 749
HEIGHT 1
VIEWPOINT 0 0 0 1 0 0 0
POINTS 749
DATA ascii
0.062602401 0.01832515 0.015637357 57
0.053705305 0.015898407 0.047311705 20
0.039415836 5.209446e-05 0.016126024 4
0.042245507 0.004319191 0.048149079 100
0.038466275 0.0044355989 0.048253752 70
0.03579706 0.006225884 0.048253752 43
0.039861202 0.017942667 0.047625721 28
0.038366139 0.021376908 0.047521047 19
0.037148893 0.024633348 0.047416378 9
0.027723074 0.016579449 0.04804441 9
-0.73433071 0.65130836 0.022513604 3
-0.7407127 0.65526104 0.022618318 9
-0.73911291 0.65993726 0.022583414 4
-0.72354501 0.66574305 0.022304175 4
-0.69001025 0.67284459 0.021710794 3
-0.67638296 0.67821825 0.02146646 4
-0.68066984 0.68200034 0.02153627 4
-0.66101867 0.68765336 0.021187222 4
-0.64335221 0.69324768 0.020873077 13
-0.60768467 0.69959855 0.020244792 17
-0.59393698 0.70424128 0.020000458 22
-0.59016591 0.70845038 0.019930648 29
-0.57639378 0.71313643 0.019686315 21
-0.59256536 0.71631783 0.019965554 14
-0.57076985 0.7212621 0.019581599 21
-0.56294078 0.72549421 0.019441981 21
-0.56908447 0.72916061 0.019546695 17
-0.57321745 0.73293525 0.019616505 17
-0.5913294 0.7363255 0.019930648 19
-0.589441 0.74036169 0.019895744 29
-0.58553463 0.7442311 0.019825934 33
-0.56962305 0.74850214 0.019546695 14
-1.0312209 1.1304057 0.084993593 5
-1.0487339 1.1343974 0.14345835 6
-1.035841 1.136995 0.028412517 8
-0.99499208 1.1275417 0.083109498 13
-1.0222826 1.1338573 0.1411923 16
-1.0014577 1.1347482 0.027819136 17
-1.0092888 1.1365893 0.083946876 75
-1.0248818 1.1402552 0.14154093 68
-0.9905141 1.1375705 0.027644612 36
-1.0100071 1.1422216 0.084051549 100
-1.0081415 1.1417764 0.14014643 100
-0.97950429 1.1405911 0.027470088 45
-0.99899286 1.1453133 0.083528183 100
-0.99908894 1.1453364 0.13944919 91
-0.98784441 1.1485847 0.027644612 32
-0.98209208 1.1471686 0.082690813 100
-0.99963742 1.1514878 0.13962349 87
-0.98263341 1.1529809 0.027574802 23
-0.97495311 1.1510618 0.082376793 66
-1.0021622 1.1578609 0.13997212 81
-0.98322552 1.15882 0.027609708 30
-0.97942156 1.1578553 0.082690813 35
-0.99693638 1.162297 0.13962349 68
-0.96249288 1.1591864 0.027260659 50
-0.97225565 1.1616986 0.082376793 40
-0.97433275 1.162233 0.13770607 85
-0.95725542 1.1634535 0.027190849 63
-0.97474414 1.1680187 0.082586139 88
-0.97680992 1.168558 0.1380547 91
-0.95200664 1.1676887 0.027121039 74
-0.9656226 1.1712939 0.082167454 98
-0.97733539 1.1743951 0.13822901 94
-0.95268136 1.1729233 0.027155945 81
-0.9489215 1.1719152 0.081330076 96
-0.98183066 1.1807393 0.13875194 100
-0.9628436 1.181314 0.027365373 92
-0.94750935 1.177145 0.081330076 100
-0.96885198 1.1829476 0.13770607 99
-0.94975966 1.1836659 0.027155945 96
-0.95178312 1.184224 0.081644088 100
-0.95964557 1.1863927 0.13700883 92
-0.9406032 1.1867448 0.027016325 96
-0.95032805 1.1894637 0.081644088 90
-0.95434529 1.1905868 0.1366602 91
-0.94683522 1.194126 0.027155945 89
-0.94116837 1.1925204 0.081225403 84
-0.95670182 1.1969217 0.13700883 100
-0.96072191 1.2037632 0.027435184 50
-0.92624646 1.1938646 0.080492698 58
-0.95903248 1.2032782 0.13735744 100
-0.95727843 1.2084755 0.027400278 42
-0.92859346 1.2001308 0.080702044 22
-0.94794542 1.2057605 0.13648589 89
-0.93655735 1.2080815 0.027051231 63
-0.92133564 1.2035958 0.080388032 24
-0.93877071 1.2087338 0.13578865 84
-0.91210145 1.2061492 0.026632372 74
-0.92754537 1.2107562 0.080806717 28
-0.93157977 1.2119597 0.13526571 92
-0.91631275 1.2129852 0.026737086 78
-0.91643828 1.2130231 0.080283359 56
-0.93765706 1.2194334 0.13596296 99
-0.91858202 1.2192708 0.026806897 78
-0.90533346 1.2152178 0.07976 100
-0.9360792 1.2246237 0.13596296 99
-0.91700476 1.2243944 0.026806897 85
-0.90758616 1.221477 0.079969339 90
-0.9287737 1.2280397 0.13544002 85
-0.90777737 1.2271192 0.026667276 85
-0.91743582 1.2301478 0.080597371 78
-0.90625352 1.2266413 0.1335226 63
-0.89092499 1.2273651 0.026388038 77
-0.91201335 1.2340589 0.080388032 68
-0.90844876 1.2329273 0.13387123 43
-0.89701623 1.2345861 0.026527658 81
-0.89905661 1.2352412 0.07976 85
-0.91828769 1.2414156 0.1349171 43
-0.89538568 1.2396343 0.026527658 96
-0.89172524 1.2384449 0.07944598 100
-0.91094857 1.2446909 0.13439415 54
-0.89745384 1.2461785 0.026597468 100
-0.88999861 1.243726 0.07944598 100
-0.90919894 1.2500424 0.13439415 73
-0.88819343 1.248702 0.026457848 100
-0.89212626 1.2500111 0.079655327 100
-0.90373355 1.2538745 0.13404553 82
-0.87522656 1.2496417 0.02624842 96
-0.89431244 1.2560649 0.079864666 100
-0.89834434 1.2574217 0.13369691 77
-0.87354368 1.2546138 0.02624842 93
-0.88126284 1.2572416 0.079236634 100
-0.90229231 1.2644006 0.13421984 85
-0.8718434 1.2595799 0.02624842 93
-0.87011105 1.2589834 0.078713275 100
-0.89678997 1.2681698 0.13387123 100
-0.87767953 1.2671707 0.026388038 81
-0.87028164 1.2645944 0.078817949 100
-0.90633172 1.2771482 0.1349171 80
-0.86839086 1.2694943 0.02624842 79
-0.87043041 1.2702125 0.078922622 68
-0.89891475 1.2802434 0.13439415 40
-0.85345179 1.2697467 0.026004085 83
-0.87055725 1.2758377 0.079027295 29
-0.88398618 1.2806195 0.13317397 37
-0.86119479 1.2777832 0.02617861 96
-0.850079 1.2737834 0.077980578 21
-0.88228506 1.285372 0.13317397 30
-0.8594138 1.282706 0.02617861 96
-0.85206586 1.2800331 0.078189917 68
-0.88796669 1.2930928 0.13387123 17
-0.85752517 1.2878684 0.02617861 100
-0.84831256 1.2844789 0.078085244 100
-0.86547154 1.2907921 0.13195379 13
-0.84071463 1.2872021 0.025899371 100
-0.8465082 1.2893567 0.078085244 100
-0.88045186 1.3019803 0.1335226 1
-0.8278504 1.2873511 0.025689943 100
-0.83739048 1.2909331 0.077666558 46
-0.87131268 1.3036702 0.13282534 1
-0.83725387 1.2964143 0.025899371 93
-0.83182901 1.2943556 0.077457212 51
-0.85640162 1.3036802 0.13160518 7
-0.8410092 1.3034014 0.026004085 71
-0.83371991 1.3006063 0.077666558 55
-0.86197144 1.3114395 0.13230242 33
-0.84659725 1.3111436 0.026143705 74
-0.82627231 1.3032682 0.077352546 68
-0.84706813 1.311326 0.13108224 90
-0.82607907 1.3087254 0.025794657 88
-0.83184177 1.3109815 0.077771232 61
-0.84888059 1.3176521 0.13143086 95
-0.81861156 1.3113191 0.025689943 99
-0.83551675 1.3180056 0.078085244 76
-0.8358441 1.318135 0.130385 99
-0.82423729 1.3188212 0.025829561 100
-0.81885332 1.3166711 0.077247873 91
-0.83401877 1.3227276 0.130385 97
-0.81860417 1.3221185 0.025759751 100
-0.81323236 1.3199515 0.077038527 96
-0.83577639 1.3290461 0.13073361 100
-0.82037228 1.3284018 0.025829561 100
-0.81500357 1.3262141 0.077247873 100
-0.82459098 1.3301208 0.12986206 100
-0.79749662 1.3190804 0.17866045 22
-0.80731958 1.3286154 0.025620133 100
-0.80566579 1.327935 0.07682918 100
-0.81341523 1.3311242 0.1289905 100
-0.77721471 1.3162255 0.17622307 15
-0.7977795 1.3307505 0.025480513 100
-0.80720156 1.3346705 0.077038527 100
-0.80941111 1.3355899 0.12881619 100
-0.76594371 1.317505 0.17500438 16
-0.79950112 1.3370008 0.025550323 100
-0.79785687 1.3363101 0.076619841 100
-0.80926532 1.3411033 0.1289905 100
-0.78232569 1.3297845 0.17744176 24
-0.7977131 1.3412377 0.025550323 100
-0.78135997 1.3343062 0.075782463 85
-0.82030541 1.3508135 0.13021068 100
-0.7750774 1.3316433 0.17671055 20
-0.81409496 1.3538065 0.025899371 61
-0.80141598 1.3483803 0.077038527 42
-0.79812104 1.3469701 0.12829325 58
-0.78588361 1.3417327 0.17841671 12
-0.80837744 1.3569782 0.025829561 71
-0.81222278 1.3586397 0.077771232 68
-0.81621712 1.3603659 0.13021068 30
-0.80027992 1.3534791 0.18061037 5
-0.79898876 1.3585178 0.025689943 100
-0.81199032 1.3641899 0.077875905 100
-0.81232184 1.3643346 0.13003637 93
-0.7818597 1.3510449 0.17841671 24
-0.7987563 1.364029 0.025724847 100
-0.80808014 1.3681355 0.077771232 100
-0.82847279 1.3771169 0.13177948 100
-0.78345674 1.3572907 0.17890419 40
-0.79667455 1.3687334 0.025724847 100
-0.80050892 1.3704382 0.077457212 100
-0.8136012 1.3762591 0.1305593 100
-0.7650736 1.3546836 0.17671055 24
-0.80745345 1.3789251 0.025969181 100
-0.81308883 1.3814529 0.07829459 100
-0.80431181 1.3775158 0.12986206 100
-0.78486198 1.368791 0.17963541 21
-0.79256803 1.3778861 0.025724847 100
-0.80366844 1.382912 0.077875905 100
-0.8058129 1.383883 0.13021068 100
-0.77733856 1.3709905 0.17890419 15
-0.78680032 1.3809063 0.025655037 100
-0.81060344 1.3917842 0.078399263 100
-0.81091028 1.3919245 0.13090792 100
-0.76620513 1.3714945 0.1776855 15
-0.79192322 1.3889191 0.025794657 100
-0.79935652 1.3923475 0.077875905 100
-0.80873114 1.3966712 0.13090792 100
-0.7586897 1.3735912 0.17695428 11
-0.79870957 1.3980541 0.025969181 100
-0.79344529 1.3956027 0.077666558 100
-0.81364983 1.4050113 0.13160518 100
-0.76366681 1.3817357 0.17792924 11
-0.80555815 1.4070106 0.026143705 100
-0.80932957 1.4087827 0.078713275 100
-0.80421203 1.4063779 0.13090792 100
-0.77050656 1.3905389 0.17914793 5
-0.78898233 1.4046504 0.025864467 100
-0.80720371 1.4132869 0.078713275 100
-0.79849344 1.4091585 0.1305593 100
-0.77561671 1.3983153 0.18012288 3
-0.78675884 1.4093205 0.025864467 100
-0.80675179 1.4188824 0.078817949 100
-0.80703861 1.4190195 0.13160518 100
-0.79352397 1.418328 0.026038991 100
-0.80267972 1.4227463 0.078713275 100
-0.8119424 1.4272161 0.13230242 100
-0.79844433 1.4265153 0.02617861 100
-0.80218869 1.4283383 0.078817949 100
-0.80963999 1.4319661 0.13230242 100
-0.80691367 1.4365079 0.026388038 100
-0.79629713 1.4312932 0.07860861 100
-0.80732101 1.4367081 0.13230242 100
-0.79024464 1.4341373 0.0261088 100
-0.79398054 1.4359887 0.07860861 100
-0.79784459 1.4379034 0.13160518 100
-0.78434092 1.4370234 0.026038991 100
-0.80772597 1.4487133 0.079550654 100
-0.80263346 1.4461677 0.13230242 100
-0.79271764 1.4470793 0.02624842 100
-0.80178183 1.45165 0.079341307 100
-0.80738097 1.4544735 0.13299966 100
-0.80104023 1.4572017 0.026457848 100
-0.79049319 1.4518371 0.078817949 100
-0.81031102 1.4619173 0.1335226 100
-0.80575007 1.4655647 0.026597468 100
-0.8005442 1.462894 0.079550654 100
-0.80434209 1.4648426 0.13317397 100
-0.79277903 1.4645445 0.026388038 100
-0.80001301 1.4682863 0.079655327 100
-0.80380017 1.4702451 0.13334829 100
-0.78680056 1.4673777 0.02631823 100
-0.79756731 1.4729944 0.079655327 100
-0.80311412 1.475888 0.1335226 100
-0.78789753 1.473902 0.026388038 100
-0.79510528 1.477694 0.079655327 100
-0.8112213 1.4861732 0.13456847 100
-0.78896517 1.4804423 0.026457848 44
-0.77674812 1.4739599 0.078713275 46
-0.80871302 1.4909203 0.13456847 78
0.15054801 1.2673512 0.011134636 12
0.13852796 1.2823172 0.03443706 27
0.098359555 1.3323301 0.063100755 19
0.14184541 1.2781866 0.12669717 17
0.19245428 1.2151743 0.13182132 7
0.12780872 1.2956634 0.18065569 6
0.15478003 1.2656155 0.011064826 38
0.16771388 1.2493961 0.032134276 30
0.16119277 1.2575737 0.054559495 50
0.15395325 1.2666523 0.077996381 14
0.14111257 1.2827549 0.10387249 11
0.14484581 1.2780733 0.12631555 58
0.1879355 1.2240378 0.13407083 15
0.14771301 1.2744777 0.17289113 14
0.16271889 1.2591531 0.010890301 100
0.17310894 1.24603 0.03182026 91
0.15052959 1.2745488 0.056302611 96
0.16677931 1.2540246 0.075802729 30
0.17478585 1.243912 0.095737889 38
0.16002712 1.262553 0.12211776 100
0.18589363 1.2298824 0.13542053 45
0.15667143 1.2667913 0.16978529 36
0.16319293 1.2620741 0.010925206 100
0.17971009 1.2410619 0.031401575 100
0.14613679 1.283772 0.057174169 100
0.16847119 1.2553594 0.075802729 30
0.1813255 1.2390068 0.094486415 39
0.16660196 1.2577373 0.12059128 100
0.19954428 1.2158298 0.13092151 40
0.1512447 1.2772739 0.17289113 35
0.15990448 1.2696589 0.011064826 100
0.1726706 1.2533072 0.032134276 100
0.15274709 1.2788265 0.056476921 100
0.172526 1.2534925 0.075315252 30
0.17558908 1.2495691 0.096363634 25
0.17184594 1.2543635 0.11944643 100
0.18663388 1.2354221 0.13632034 38
0.15768442 1.2725025 0.17082056 29
0.17267668 1.256793 0.010750682 92
0.17680714 1.2514642 0.031924933 61
0.15696684 1.2770607 0.056128297 97
0.16448697 1.2673588 0.077265166 29
0.17484501 1.2539957 0.096989371 25
0.1807555 1.2463704 0.11715672 59
0.18945459 1.2351475 0.13587044 30
0.15470681 1.2799764 0.17289113 28
0.18047595 1.2501833 0.010576159 67
0.17605388 1.2559297 0.032134276 30
0.16602978 1.2689557 0.055082429 50
0.18559575 1.2435304 0.073365346 46
0.18617454 1.2427783 0.094486415 39
0.18960455 1.2383211 0.11486702 13
0.17563027 1.2564802 0.14171916 21
0.14824215 1.2920702 0.1765146 55
0.17244226 1.2641824 0.010855397 52
0.18017745 1.2540579 0.031924933 30
0.17624083 1.2592105 0.053862248 51
0.1920715 1.2384899 0.072390392 47
0.18303007 1.2503241 0.095737889 51
0.19481716 1.2348961 0.11372216 20
0.20572454 1.2206194 0.13092151 32
0.16648647 1.2719779 0.16926765 59
0.17175266 1.2686838 0.010925206 39
0.16738555 1.2744415 0.033180997 28
0.17193055 1.2684493 0.054733805 50
0.19250935 1.241318 0.072634131 63
0.19545278 1.2374375 0.092922069 53
0.19169638 1.2423899 0.11524864 13
0.20965493 1.2187133 0.13002171 40
0.17407835 1.2656176 0.16667947 67
0.17590147 1.2668062 0.010855397 39
0.17876011 1.2630099 0.032343622 30
0.17487127 1.2681744 0.054559495 50
0.18938032 1.2489061 0.073609084 62
0.20659271 1.226048 0.090419121 55
0.19570944 1.240501 0.1144854 13
0.20653436 1.2261255 0.13182132 39
0.17464858 1.26847 0.16719711 60
0.18234134 1.2616384 0.010715778 53
0.18996602 1.2514424 0.031506244 31
0.18010497 1.2646289 0.054036561 51
0.18740392 1.2548686 0.074340299 92
0.19982573 1.2382579 0.092609204 53
0.19374433 1.2463901 0.11563025 13
0.20571467 1.2303832 0.13272113 31
0.18787318 1.2542411 0.16202073 70
0.19240364 1.2516795 0.010471444 82
0.19879198 1.2430744 0.030878214 31
0.18064618 1.2675167 0.054210871 51
0.19264847 1.2513497 0.073609084 77
0.19557494 1.2474078 0.094173551 65
0.21179315 1.225562 0.1102876 14
0.20964703 1.2284528 0.13182132 31
0.18841416 1.2570534 0.16253836 70
0.19171444 1.2561443 0.010541254 95
0.19570574 1.2507286 0.031296901 62
0.18002099 1.2720108 0.054559495 100
0.20375258 1.2398102 0.071659178 80
0.19958746 1.2454617 0.093547814 78
0.2133854 1.2267398 0.1102876 14
0.22281086 1.2139508 0.1273223 24
0.18667811 1.262978 0.16409127 69
0.18869057 1.2638476 0.010680873 93
0.20092389 1.2471267 0.030982886 63
0.17824629 1.2781231 0.055082429 75
0.20070612 1.2474244 0.072634131 63
0.20591483 1.2403049 0.092296332 100
0.20570791 1.2405877 0.11334054 13
0.23011583 1.2072264 0.12507279 16
0.18269768 1.2720387 0.16667947 67
0.19041663 1.2651057 0.010680873 93
0.20376518 1.2467263 0.030878214 63
0.18821794 1.268133 0.053862248 100
0.20237476 1.2486408 0.072634131 78
0.21336269 1.2335116 0.090731993 95
0.20735267 1.2417867 0.11334054 13
0.24653116 1.1878424 0.11922406 8
0.19694003 1.2561238 0.16098544 72
0.20150271 1.2533813 0.010401634 97
0.21243954 1.2382114 0.030250182 98
0.19461969 1.2629282 0.053165004 100
0.19127759 1.2675638 0.075315252 60
0.21613795 1.2330815 0.090419121 100
0.21244603 1.2382023 0.11219569 14
0.22975707 1.2141912 0.12642249 16
0.19750929 1.2589202 0.16150309 86
0.20319214 1.2545948 0.010401634 83
0.21756306 1.2345142 0.029936166 99
0.18938529 1.2738872 0.054210871 100
0.21034589 1.2445989 0.071659178 80
0.21085864 1.2438824 0.092296332 100
0.21293986 1.2409743 0.1125773 13
0.23584604 1.2089674 0.12462288 8
0.18909937 1.2742865 0.16616182 76
0.2002534 1.2623233 0.010541254 95
0.21571648 1.2405565 0.030250182 98
0.18999252 1.276767 0.054385185 100
0.21200463 1.2457815 0.071659178 80
0.20793879 1.2515049 0.093547814 100
0.20548993 1.254952 0.11563025 20
0.22948012 1.2211821 0.1277722 16
0.19198066 1.2739685 0.16564418 76
0.19958255 1.2667484 0.010611063 94
0.21958131 1.2383983 0.03004084 66
0.19512042 1.2730739 0.053862248 100
0.21129569 1.250144 0.072146654 79
0.21636942 1.2429515 0.091670595 100
0.20370492 1.2609046 0.1167751 53
0.23547131 1.2158728 0.12597258 33
0.19476745 1.2735742 0.16512655 76
0.19902471 1.2712448 0.010680873 93
0.216636 1.246093 0.030459527 97
0.20373535 1.2645172 0.05281638 100
0.21411237 1.2496972 0.071902916 64
0.23048568 1.2263137 0.088229038 98
0.19866416 1.2717595 0.11906482 97
0.22696984 1.2313349 0.13002171 64
0.20095965 1.2684813 0.163056 86
0.21447155 1.2527622 0.010262015 84
0.22057965 1.2439737 0.030250182 65
0.20318949 1.2689949 0.053165004 100
0.21692181 1.2492367 0.071659178 80
0.22869834 1.2322925 0.089167647 84
0.21946552 1.2455769 0.1125773 89
0.22413349 1.2388605 0.13182132 78
0.20600942 1.2649376 0.16150309 86
0.21842977 1.2506384 0.010192205 85
0.221102 1.2467648 0.030354854 97
0.19814524 1.2800425 0.054210871 100
0.22310555 1.2438605 0.070684217 65
0.22134036 1.2464193 0.091670595 100
0.22558689 1.2402636 0.11105084 98
0.22245237 1.2448074 0.13317102 93
0.20225421 1.2740862 0.16409127 77
0.21785 1.2550929 0.010262015 84
0.23292369 1.2330782 0.029412808 67
0.20443028 1.2746918 0.053513627 100
0.22812617 1.2400849 0.069953002 49
0.22300538 1.2475636 0.091670595 100
0.2227937 1.2478727 0.1125773 100
0.23512149 1.2298684 0.128672 97
0.20838165 1.268921 0.16202073 86
0.21392533 1.2645189 0.010436539 68
0.23790994 1.2292266 0.029098792 68
0.21291342 1.2660078 0.052467756 100
0.23311639 1.2362801 0.069221787 50
0.23244667 1.2372656 0.089480512 100
0.22777432 1.2441406 0.11143246 84
0.23344257 1.2358 0.13002171 96
0.2101253 1.2701104 0.16202073 78
0.20894429 1.275636 0.010645968 40
0.22499576 1.2518386 0.030459527 32
0.22133166 1.2572708 0.051421888 55
0.21698517 1.2637148 0.073121607 93
0.23187041 1.2416465 0.090106249 100
0.22064865 1.2582835 0.1144854 87
0.24051908 1.2288244 0.1277722 97
0.21835476 1.2616843 0.15891489 73
0.21738589 1.266853 0.010436539 41
0.2089026 1.2795253 0.032134276 30
0.22968471 1.2484813 0.05037602 56
0.23196214 1.2450793 0.07019674 82
0.2390132 1.2345465 0.08854191 100
0.22890797 1.2496415 0.11219569 100
0.23670217 1.2379987 0.13002171 96
0.22007307 1.262839 0.15891489 73
0.22567677 1.2579609 0.01022711 42
0.21280524 1.2773268 0.031924933 30
0.22024456 1.266134 0.052119136 54
0.22364992 1.2610104 0.072390392 95
0.23508817 1.243801 0.090106249 100
0.23810741 1.2392583 0.10952436 92
0.24041322 1.2357892 0.1291219 96
0.21850115 1.268757 0.1604678 72
0.22738206 1.2590899 0.01022711 28
0.21457821 1.2785008 0.031924933 30
0.21100777 1.2839135 0.053862248 51
0.23957542 1.2406049 0.069221787 83
0.23783165 1.2432485 0.089793384 83
0.23542327 1.2468995 0.11105084 98
0.24418709 1.2336135 0.12822211 97
0.22130787 1.2682985 0.15995017 72
0.22142452 1.2719247 0.010471444 27
0.21854308 1.2763264 0.031715591 30
0.21389496 1.2834268 0.053687938 52
0.23034751 1.2582942 0.071659178 80
0.24381322 1.2377243 0.08854191 98
0.23278871 1.2545651 0.1125773 100
0.24580726 1.2346783 0.12822211 97
0.22304925 1.2694428 0.15995017 72
0.2329832 1.2579765 0.0101573 42
0.23772174 1.2506826 0.03004084 33
0.2363123 1.2528522 0.05037602 56
0.229891 1.2627363 0.072146654 95
0.24544775 1.2387902 0.08854191 84
0.23982984 1.2474377 0.11066922 85
0.25273937 1.2275664 0.12597258 99
0.22479463 1.270581 0.15995017 72
0.23677081 1.2556641 0.010087491 57
0.23715243 1.2550725 0.030250182 32
0.23143592 1.2639359 0.051421888 55
0.23367861 1.2604587 0.071659178 64
0.2491453 1.2364774 0.087916173 84
0.24247888 1.2468138 0.1102876 92
0.24897724 1.236738 0.12822211 97
0.23273882 1.2619158 0.15684435 74
0.24709171 1.2432804 0.0098082526 59
0.24423081 1.2477505 0.029726824 67
0.23423606 1.2633668 0.051247578 55
0.24074301 1.2532001 0.070440479 49
0.24651602 1.24418 0.089167647 70
0.24837843 1.2412701 0.10876112 87
0.24745679 1.24271 0.12957181 88
0.23549923 1.2613931 0.1563267 74
0.2444573 1.251087 0.0099478718 58
0.2512542 1.2403851 0.029203463 68
0.2295512 1.2745571 0.052293446 80
0.25094557 1.240871 0.068490572 50
0.25029117 1.2419014 0.08854191 56
0.25634056 1.2323763 0.10647142 81
0.25746679 1.2306031 0.12597258 90
0.22789508 1.2771647 0.16098544 64
0.23974138 1.2623011 0.0101573 85
0.25183308 1.2431147 0.029308135 100
0.22812751 1.2807294 0.05281638 79
0.24835747 1.2486296 0.069465525 49
0.25404665 1.2396023 0.087916173 70
0.24330181 1.2566516 0.11181407 98
0.26427147 1.2233782 0.12372308 92
0.23378742 1.2717485 0.15891489 65
0.2393412 1.266772 0.01022711 70
0.24925047 1.2509263 0.029726824 100
0.2436454 1.2598892 0.05055033 84
0.25003004 1.2496796 0.069465525 49
0.26197192 1.2305834 0.086038955 87
0.25124809 1.2477318 0.10952436 78
0.26378927 1.2276773 0.12462288 92
0.23554078 1.2728493 0.15891489 65
0.24845755 1.2559593 0.0099827768 87
0.25514328 1.2451847 0.029308135 100
0.24535728 1.2609557 0.05055033 84
0.25170627 1.2507238 0.069465525 49
0.26462293 1.2299075 0.08572609 58
0.25084725 1.2521081 0.1102876 99
0.26847106 1.223706 0.12327318 76
0.24137226 1.2673779 0.15684435 66
0.25111941 1.255254 0.0099478718 87
0.24834126 1.2597644 0.030145511 98
0.24385241 1.2670524 0.051073264 83
0.25330204 1.2517103 0.069465525 49
0.25993392 1.240943 0.087603301 57
0.26274356 1.2363813 0.10647142 81
0.2618013 1.2379112 0.12687239 99
0.23897082 1.2749782 0.15891489 65
0.25385785 1.254588 0.0099129668 87
0.25942606 1.2454765 0.029203463 100
0.24351144 1.2715182 0.051421888 82
0.25084478 1.2595184 0.070440479 98
0.26054952 1.2436382 0.087916173 70
0.25720704 1.2491076 0.10914274 85
0.26851729 1.2306002 0.12462288 92
0.24476492 1.2694671 0.15684435 66
0.2534776 1.2590387 0.0099827768 87
0.26005203 1.2481958 0.029308135 100
0.25146195 1.262363 0.05037602 84
0.2607891 1.2469802 0.068490572 50
0.26834968 1.2345109 0.086038955 72
0.25786331 1.2518055 0.10952436 85
0.27618903 1.2215819 0.12192347 93
0.23849732 1.2837448 0.16098544 64
0.25827891 1.2549301 0.0098780617 88
0.26275256 1.2474935 0.029203463 100
0.25112832 1.2668166 0.05072464 100
0.25426951 1.261595 0.070440479 49
0.266918 1.2405694 0.086977564 57
0.25246269 1.2645985 0.11219569 77
0.27475336 1.2275445 0.12327318 85
0.25224262 1.2649642 0.15477379 67
0.25894859 1.2576625 0.0099129668 87
0.25930318 1.2570684 0.029726824 100
0.25899085 1.2575917 0.049678773 86
0.25293526 1.267738 0.071171694 81
0.27362415 1.2330734 0.085413218 58
0.26022789 1.255519 0.10990598 78
0.27435473 1.2318492 0.12417299 83
0.2539722 1.2660006 0.15477379 67
0.26269028 1.2552342 0.0098431576 88
0.2630403 1.254643 0.029517479 100
0.25764933 1.2637477 0.050201707 85
0.26074284 1.2585232 0.069709264 33
0.27322939 1.2374349 0.086038955 87
0.26892626 1.2447023 0.10723466 81
0.27298996 1.2378392 0.12552269 82
0.25373685 1.2703555 0.15580906 67
0.26447067 1.256284 0.0098431576 88
0.26886368 1.2488022 0.029098792 100
0.25542572 1.2716885 0.050898954 83
0.27158141 1.2441738 0.067515619 51
0.27194387 1.2435564 0.086977564 57
0.26669177 1.2525012 0.10876112 87
0.28062683 1.2287685 0.12282328 85
0.25361639 1.2747698 0.15684435 66
0.26616988 1.2572777 0.0098431576 88
0.27455777 1.2428774 0.028680105 100
0.26118997 1.2658272 0.050201707 85
0.27124 1.2485733 0.068003096 51
0.27459282 1.2428172 0.086664692 57
0.2673896 1.2551837 0.10914274 92
0.28615326 1.2229704 0.12102367 86
0.25538018 1.2758014 0.15684435 66
0.26378429 1.2651412 0.0099827768 87
0.27212927 1.2507048 0.029098792 100
0.25884739 1.2736819 0.050898954 83
0.26587442 1.2615254 0.069709264 83
0.28308234 1.2317564 0.084474608 59
0.27194762 1.251019 0.10799789 72
0.28765678 1.2238429 0.12102367 86
0.26478502 1.26341 -0.0099478718 75
0.26285991 1.2667403 0.15373851 68
0.2704879 1.2574636 0.0098082526 89
0.27182195 1.2551371 0.029308135 100
0.26952699 1.2591394 0.049330149 87
0.2725291 1.2539039 0.068490572 50
0.2846958 1.2326853 0.084474608 59
0.27655813 1.2468773 0.10685304 81
0.28439581 1.2332085 0.12327318 76
0.26651752 1.2643878 0.15270324 68
0.2841365 1.2376242 0.0093893949 77
0.2755762 1.2526809 0.029098792 100
0.26836747 1.2653602 0.049853086 85
0.27038005 1.2618203 0.069465525 49
0.28444079 1.237089 0.085100345 58
0.27636713 1.2512897 0.10761628 79
0.28513217 1.235873 0.12372308 83
0.26069298 1.2788588 0.15684435 66
0.27987686 1.2490003 0.0095988233 76
0.27726275 1.2536359 0.029098792 100
0.26324758 1.2784884 0.051073264 83
0.28184947 1.2455024 0.067028143 51
0.28122124 1.2466164 0.086664692 71
0.27804881 1.2522418 0.10761628 79
0.29154617 1.2283075 0.12147357 86
0.26816463 1.2697692 0.15373851 68
0.2776458 1.2569213 0.0097384425 75
0.29260248 1.2301813 0.027633386 100
0.26988733 1.270792 0.050201707 85
0.28157282 1.2499005 0.067515619 51
0.2877081 1.2389317 0.085100345 58
0.27590024 1.260042 0.10914274 78
0.29600146 1.2241046 0.12012386 86
0.27276489 1.2656474 -0.0099129668 97
0.26991087 1.27075 0.15373851 68
0.2764369 1.2631149 0.0098431576 88
0.28452137 1.2485421 0.028680105 100
0.27743638 1.2613133 0.049155839 87
0.27939761 1.2577779 0.068490572 50
0.29222146 1.2346623 0.084161744 59
0.28142211 1.2541287 0.10761628 79
0.29191595 1.2352129 0.12282328 85
0.27837706 1.2596176 -0.0097733475 88
0.27634639 1.263278 0.15115032 77
0.28385928 1.2535083 0.0096337283 90
0.28225732 1.2564187 0.029098792 100
0.28771392 1.2465055 0.047587037 90
0.27718771 1.2656288 0.069465525 49
0.29185864 1.2389755 0.084787481 59
0.28870925 1.2446972 0.10532656 82
0.29439977 1.234359 0.12237337 76
0.27807361 1.2640194 -0.0098431576 87
0.28077832 1.2591056 0.14959741 70
0.28746498 1.250924 0.0095639192 91
0.28778484 1.2503381 0.028680105 100
0.28174156 1.2614083 0.048981529 87
0.28652871 1.2526391 0.067515619 51
0.29349723 1.2398738 0.084787481 73
0.28848645 1.2490528 0.1060898 73
0.28433856 1.256651 0.14856213 71
0.28542253 1.2589178 0.0097035384 90
0.29144824 1.2477827 0.02847076 100
0.27975151 1.2693974 0.049678773 86
0.2920785 1.246618 0.066540658 52
0.29334083 1.2442853 0.085413218 58
0.29117841 1.2482815 0.10570818 81
0.27780882 1.2729874 -0.0099827768 86
0.28428516 1.2610196 0.14959741 70
0.29185867 1.2510283 0.0095290141 76
0.29500642 1.2451627 0.028261416 100
0.28620696 1.2615598 0.048807215 88
0.28717312 1.2597595 0.068246834 100
0.29377782 1.247452 0.10532656 75
0.27956623 1.2739344 -0.0099827768 86
0.28051981 1.2721574 0.15270324 68
0.28508461 1.2678142 0.0098431576 88
0.29854316 1.2425236 0.028052073 100
0.28886044 1.2607188 0.048632905 88
0.28701916 1.2641788 0.068734311 50
0.29944217 1.2408341 0.084474608 59
0.28806764 1.2622086 0.10837951 79
0.28414518 1.2695794 -0.0098780617 97
0.2859045 1.2662735 0.15063268 70
0.29522315 1.2528187 0.0095290141 76
0.29646567 1.2504641 0.02847076 100
0.29337797 1.2563155 0.067515619 51
0.29803354 1.2474928 0.10494494 75
0.28495741 1.2722729 -0.0099129668 97
0.29394951 1.2552323 0.14700922 81
0.29868039 1.2501177 0.009459204 93
0.29435533 1.2583802 0.028889447 100
0.29035869 1.2660153 0.048981529 87
0.29591265 1.2554051 0.067271881 34
0.29898843 1.2495291 0.08572609 58
0.28569707 1.2749207 -0.0099478718 96
0.29108045 1.2646365 0.14959741 70
0.29390952 1.2634162 0.0097035384 90
0.29759863 1.2563082 0.047935657 59
0.29191867 1.267252 0.15011504 78
0.29938272 1.25723 0.047935657 59
0.29576063 1.2642719 0.068246834 85
0.28840229 1.2785773 -0.0099827768 100
0.29285929 1.2699125 0.15063268 70
0.29562992 1.2687988 0.0097733475 100
0.29017913 1.2794874 -0.0099827768 100
0.29372823 1.2725279 0.15115032 77
0.29904431 1.2659471 0.068246834 68
0.29358673 1.2767327 -0.0099129668 100
0.29530823 1.2733306 0.15115032 77
0.29356387 1.2811995 -0.0099827768 100
0.29991657 1.2731282 0.049155839 58
0.29632932 1.2803452 -0.0099478718 100
0.29899612 1.2794337 -0.0099129668 100
