# .PCD v0.7 - Point Cloud Data file format
VERSION 0.7
FIELDS x y z intensity
SIZE 4 4 4 4
TYPE F F F F
COUNT 1 1 1 1
WIDTH 732
HEIGHT 1
VIEWPOINT 0 0 0 1 0 0 0
POINTS 732
DATA ascii
0.054149985 0.0023579597 0.015951499 129
0.053670406 0.0016155243 0.047939736 64
0.05534941 0.01004833 0.047521047 40
0.046138585 0.0075924993 0.015951499 8
0.041246474 0.00019007921 0.048358422 100
0.037130892 0.0053295493 0.048253752 61
0.044529498 0.022017956 0.047311705 30
0.030680954 0.0072777867 0.048358422 17
0.035930455 0.020624042 0.047625721 19
0.026146233 0.017674923 0.04804441 9
0.0093797445 0.0050399899 0.049091127 7
-0.83856839 0.64949274 0.024328655 4
-0.72339827 0.66396499 0.022304175 9
-0.67791325 0.67206717 0.021501364 30
-0.68422931 0.6758979 0.021606078 45
-0.68654472 0.6800617 0.021640984 66
-0.68485612 0.68451667 0.021606078 48
-0.68511862 0.68839651 0.021606078 32
-0.68340021 0.69283324 0.021571174 30
-0.68169111 0.69768691 0.02153627 40
-0.69591266 0.70121515 0.021780603 52
-0.68014663 0.70596129 0.021501364 66
-1.0220451 1.1257174 0.084470235 3
-1.0512476 1.1323253 0.14363267 4
-1.050122 1.1373587 0.028656852 7
-1.0072935 1.127526 0.08373753 5
-1.0190315 1.1302209 0.14084367 9
-1.0118289 1.1343112 0.02799366 10
-1.006036 1.1329598 0.08373753 43
-1.0138838 1.1347904 0.14049506 42
-0.98719794 1.1342281 0.027574802 32
-0.9989292 1.1370077 0.083423518 91
-1.0203559 1.1420847 0.1411923 91
-0.9800846 1.1381882 0.027470088 38
-0.99375504 1.1414778 0.083214171 100
-1.009362 1.1452334 0.14032075 87
-0.98267514 1.1444762 0.027539898 38
-0.96722645 1.1407017 0.081853434 100
-1.0080428 1.1506742 0.14032075 87
-0.98912221 1.1517496 0.027679516 23
-0.97755438 1.1488804 0.082481466 90
-1.0009031 1.1546715 0.13979781 84
-0.97614509 1.1541908 0.027470088 25
-0.97622257 1.1542102 0.082481466 40
-0.98022979 1.1552191 0.1380547 78
-0.96123236 1.1560512 0.027225753 44
-0.9864828 1.1625015 0.083109498 33
-0.984667 1.1620376 0.13857763 82
-0.95987564 1.1613239 0.027225753 61
-0.97736984 1.165858 0.082690813 73
-0.99100381 1.1693916 0.13927488 89
-0.97010428 1.1696427 0.027435184 61
-0.96245736 1.1676323 0.081958108 98
-0.97996575 1.1722354 0.13840333 92
-0.96483558 1.173916 0.027365373 78
-0.95334083 1.170851 0.081539422 96
-0.97085184 1.1755202 0.13770607 100
-0.94797343 1.1750258 0.027086135 81
-0.95964462 1.1781814 0.081958108 100
-0.9655804 1.1797864 0.13735744 100
-0.94269341 1.1791949 0.027016325 96
-0.95050579 1.1813365 0.081539422 100
-0.95837623 1.1834941 0.13683452 98
-0.94510931 1.1854737 0.027086135 93
-0.94136339 1.1844327 0.081120729 100
-0.96460229 1.1908906 0.13753176 89
-0.93987352 1.1893457 0.027016325 93
-0.92652303 1.1855881 0.080388032 86
-0.95936257 1.1948311 0.13718314 98
-0.95763069 1.2000289 0.027365373 67
-0.93082529 1.1923831 0.080702044 70
-0.9463746 1.1968182 0.13613728 100
-0.96380466 1.2075098 0.027504992 46
-0.92550451 1.1964405 0.080492698 36
-0.94104749 1.2009326 0.13578865 98
-0.92964321 1.2032386 0.026911611 55
-0.92209011 1.2010272 0.080388032 24
-0.94909471 1.2089341 0.1366602 84
-0.92620474 1.2078323 0.026876707 75
-0.91866177 1.2055951 0.080283359 26
-0.94564325 1.2135977 0.13648589 87
-0.92275232 1.2124072 0.026841801 75
-0.91521949 1.2101445 0.080178685 38
-0.94599384 1.219389 0.1366602 99
-0.92311209 1.2181275 0.026876707 78
-0.91367418 1.2152563 0.080178685 90
-0.92916697 1.2199693 0.13526571 100
-0.91007239 1.2197349 0.026667276 89
-0.91592854 1.2215387 0.080388032 96
-0.91806668 1.2221973 0.13439415 94
-0.90085751 1.2224474 0.026527658 83
-0.91434342 1.226653 0.080388032 82
-0.92028338 1.2285054 0.13474278 68
-0.89545554 1.2263051 0.026457848 85
-0.9051221 1.2293568 0.079969339 68
-0.9110741 1.2312356 0.13404553 47
-0.9052828 1.2349998 0.026667276 85
-0.89589971 1.2320017 0.079550654 85
-0.91514868 1.2381521 0.13456847 43
-0.90365082 1.2400768 0.026667276 88
-0.89997941 1.2388896 0.079864666 97
-0.90402704 1.2401985 0.13369691 45
-0.88687891 1.239922 0.026388038 99
-0.90221316 1.2449369 0.080074012 100
-0.91192824 1.2481142 0.13456847 64
-0.88143295 1.2436783 0.02631823 99
-0.89865035 1.2493758 0.079969339 100
-0.90457577 1.2513366 0.13404553 82
-0.87968713 1.2489216 0.02631823 93
-0.88552064 1.2508757 0.079341307 100
-0.90658027 1.2579304 0.13439415 84
-0.88566726 1.2562258 0.026457848 96
-0.87824291 1.2537115 0.079027295 100
-0.8974058 1.2602015 0.13369691 77
-0.88017768 1.2599381 0.026388038 96
-0.88221413 1.2606359 0.079341307 100
-0.89757079 1.2658966 0.13387123 94
-0.87098664 1.2620608 0.02624842 88
-0.88246661 1.266036 0.07944598 100
-0.88273937 1.2661304 0.13265105 95
-0.85785049 1.263298 0.026038991 77
-0.87309927 1.2686411 0.079027295 80
-0.9015947 1.2786257 0.13456847 52
-0.86374682 1.2706339 0.02617861 78
-0.84884554 1.2653571 0.077771232 53
-0.89990002 1.2834365 0.13456847 36
-0.85813743 1.2744634 0.0261088 93
-0.85642177 1.2738488 0.07829459 17
-0.89800853 1.2887473 0.13456847 36
-0.86397797 1.2818528 0.02624842 96
-0.86413318 1.281909 0.078817949 55
-0.87192589 1.28473 0.13230242 22
-0.85082573 1.2829067 0.026038991 99
-0.86037201 1.286402 0.078713275 97
-0.8644169 1.287883 0.13177948 15
-0.83411318 1.281999 0.025759751 100
-0.85677856 1.2903831 0.07860861 100
-0.87203497 1.2960267 0.13265105 3
-0.83971912 1.2898712 0.025899371 100
-0.83241397 1.2871385 0.077352546 70
-0.87196356 1.3019333 0.13282534 1
-0.84546989 1.2973042 0.026038991 100
-0.82882315 1.2910138 0.077247873 48
-0.8515541 1.2996032 0.13108224 3
-0.84539586 1.303129 0.026073895 75
-0.83809859 1.3003409 0.077875905 53
-0.84215885 1.3018923 0.130385 16
-0.83242649 1.303434 0.025864467 72
-0.84192234 1.3070982 0.078189917 63
-0.84410506 1.3079404 0.13073361 58
-0.82496685 1.3060771 0.025759751 78
-0.83445662 1.309777 0.077875905 65
-0.85335654 1.3171458 0.13177948 100
-0.82690293 1.3120989 0.025829561 99
-0.82522529 1.3114384 0.077457212 65
-0.83670336 1.3159574 0.130385 99
-0.82490677 1.3171418 0.025829561 100
-0.81580871 1.3135214 0.077038527 94
-0.83469301 1.3210363 0.130385 99
-0.81937379 1.3202071 0.025759751 100
-0.81955868 1.3202814 0.077352546 97
-0.82546312 1.3226538 0.12968774 99
-0.80993682 1.3222131 0.025620133 100
-0.81938308 1.3260489 0.077457212 95
-0.82158226 1.3269417 0.12951343 100
-0.80439764 1.3252028 0.025550323 100
-0.82677168 1.3343745 0.077980578 100
-0.82710189 1.3345098 0.13021068 100
-0.80235368 1.3301632 0.025550323 100
-0.79701549 1.3279521 0.076410495 100
-0.81582004 1.3357412 0.12933913 100
-0.77597195 1.3192356 0.17622307 24
-0.8078683 1.3377302 0.025689943 100
-0.79331523 1.3316455 0.076305822 100
-0.82128924 1.3433415 0.13003637 100
-0.7741434 1.3236296 0.17622307 20
-0.80209416 1.3411469 0.025620133 100
-0.79124767 1.3365653 0.076305822 96
-0.80816644 1.3437119 0.1289905 100
-0.79222029 1.3369761 0.17890419 17
-0.80019277 1.3456275 0.025620133 83
-0.80038506 1.3457094 0.076933853 58
-0.80075806 1.3458686 0.12846756 91
-0.78485459 1.3390884 0.17817298 15
-0.80562407 1.3532631 0.025759751 59
-0.83149225 1.364393 0.078817949 53
-0.80982214 1.3550693 0.12951343 20
-0.79025394 1.34665 0.17914793 5
-0.80357987 1.3579915 0.025759751 99
-0.80193073 1.3572751 0.077247873 100
-0.8205635 1.3653691 0.13073361 58
-0.76638418 1.3418338 0.17622307 16
-0.7996878 1.3619096 0.025724847 100
-0.80901796 1.3660014 0.077771232 100
-0.82395083 1.3725502 0.13125655 100
-0.78074175 1.3536007 0.17841671 40
-0.80127043 1.3682364 0.025794657 100
-0.80145043 1.3683161 0.077457212 100
-0.81455177 1.3741164 0.1305593 100
-0.76780552 1.3534207 0.17695428 30
-0.79552263 1.3713177 0.025724847 100
-0.8084709 1.3771044 0.077980578 100
-0.80152076 1.3739984 0.12951343 100
-0.76394862 1.3572073 0.17671055 26
-0.78976983 1.3743663 0.025655037 100
-0.81362587 1.3851278 0.078399263 100
-0.80303639 1.3803508 0.12986206 100
-0.76370043 1.3626065 0.17695428 18
-0.79118532 1.3809307 0.025724847 100
-0.80772692 1.3884656 0.078189917 100
-0.80804282 1.3886095 0.1305593 100
-0.7669391 1.3698862 0.1776855 15
-0.80721337 1.3939614 0.026073895 100
-0.80193049 1.3915327 0.077980578 100
-0.80949575 1.3950107 0.13090792 100
-0.76844424 1.3761377 0.17817298 12
-0.80321318 1.3978536 0.026038991 100
-0.80337626 1.3979292 0.078189917 100
-0.80007643 1.3963983 0.13021068 100
-0.77892536 1.3865848 0.17987914 10
-0.7937693 1.3991816 0.025899371 100
-0.81022006 1.4068842 0.078713275 100
-0.79788166 1.4011071 0.13021068 100
-0.77856284 1.3920615 0.18012288 5
-0.78614074 1.4013054 0.025794657 100
-0.8061828 1.4107752 0.07860861 100
-0.80287617 1.4092128 0.13090792 100
-0.7925368 1.4043276 0.18231654 3
-0.78753895 1.4076868 0.025864467 100
-0.79852933 1.4129267 0.07829459 100
-0.81142741 1.419076 0.13195379 100
-0.79814535 1.4179494 0.0261088 100
-0.80190331 1.4197555 0.07860861 100
-0.81297308 1.4250759 0.13230242 100
-0.79947394 1.4243964 0.02617861 100
-0.79782981 1.4235991 0.078503937 100
-0.80350727 1.4263523 0.13160518 100
-0.78617567 1.4242966 0.025969181 100
-0.80427903 1.4331614 0.079027295 100
-0.80455583 1.4332969 0.13195379 100
-0.78746933 1.4307281 0.026038991 100
-0.80553728 1.4396539 0.079236634 100
-0.80580479 1.4397861 0.13230242 100
-0.79254729 1.4384918 0.02617861 100
-0.7962752 1.4403481 0.078817949 100
-0.81082803 1.4475944 0.13299966 100
-0.79735345 1.4467645 0.02631823 100
-0.79392713 1.4450434 0.078817949 100
-0.80845445 1.4523404 0.13299966 100
-0.79855043 1.4532712 0.026388038 100
-0.79512578 1.4515359 0.079027295 100
-0.80606443 1.4570782 0.13299966 100
-0.78903466 1.4543341 0.02624842 100
-0.80163091 1.4607717 0.079550654 100
-0.80365783 1.4618075 0.13299966 100
-0.79007202 1.4610704 0.02631823 100
-0.80796558 1.4702981 0.080074012 100
-0.80996698 1.4713302 0.13387123 100
-0.79474789 1.469435 0.026457848 100
-0.79310948 1.4685827 0.079341307 100
-0.81458098 1.4797506 0.13456847 100
-0.79950505 1.4776049 0.026597468 99
-0.79078549 1.4730328 0.079341307 100
-0.81927806 1.4879727 0.13526571 100
-0.7934913 1.4804416 0.026527658 79
-0.78832334 1.4777088 0.079341307 97
-0.80091184 1.4843657 0.13369691 94
-0.79326087 1.4860299 0.13317397 30
0.13744166 1.2822031 0.12784202 11
0.16149724 1.2556251 0.010855397 26
0.14949375 1.2706294 0.033599682 28
0.14922562 1.2709646 0.056128297 24
0.14030764 1.2821119 0.10387249 11
0.15263331 1.2667049 0.12364423 42
0.20061386 1.2067297 0.1291219 8
0.14450741 1.2768623 0.1739264 7
0.15706238 1.2648761 0.011029921 89
0.17741245 1.2392466 0.031401575 93
0.14982551 1.2739904 0.056302611 96
0.16610384 1.253489 0.075802729 30
0.1642977 1.2557638 0.098240845 24
0.16300219 1.2573954 0.1209729 100
0.19131079 1.2217427 0.13317102 31
0.1523743 1.2707803 0.1713382 29
0.15994391 1.2646062 0.010995016 100
0.17773384 1.2420479 0.031506244 100
0.15273273 1.2737503 0.056128297 100
0.16033387 1.2641118 0.077265166 29
0.17569637 1.2446315 0.095737889 25
0.1524635 1.2740917 0.12478908 100
0.19401753 1.2213995 0.13272113 39
0.15523341 1.2705793 0.17082056 43
0.16158623 1.265897 0.010995016 100
0.174375 1.2495692 0.031924933 100
0.15686253 1.2719278 0.055779677 100
0.16075051 1.266964 0.077508904 29
0.17727238 1.2458701 0.095737889 25
0.17592794 1.2475866 0.11791996 100
0.18830654 1.2317826 0.13542053 30
0.14855698 1.2825317 0.17444403 42
0.16822982 1.2609355 0.010855397 100
0.17850342 1.2477242 0.031715591 92
0.16473234 1.2654331 0.054908119 100
0.16979915 1.2589173 0.076046467 44
0.16680947 1.262762 0.098866582 36
0.18121284 1.24424 0.1167751 100
0.18992066 1.2330422 0.13542053 30
0.15034848 1.2839298 0.17444403 42
0.17238989 1.2590995 0.010785587 52
0.1716294 1.2600844 0.032448292 59
0.16524649 1.2683519 0.055082429 50
0.18121302 1.2476712 0.07409656 30
0.16853186 1.2640965 0.098866582 24
0.18439376 1.2435514 0.13811995 22
0.14270025 1.297555 0.17858514 40
0.16193441 1.2762856 0.011134636 63
0.1769875 1.2566468 0.032134276 30
0.1548678 1.2855049 0.056825545 47
0.18650553 1.2442291 0.073365346 46
0.19068801 1.2387725 0.093547814 52
0.19050431 1.2390121 0.11486702 13
0.19553307 1.2324514 0.13452072 31
0.15159565 1.2897739 0.17547931 56
0.17339173 1.2649064 0.010855397 52
0.17626953 1.2611246 0.032343622 30
0.16028926 1.2821245 0.056302611 48
0.18575889 1.2486545 0.073852822 46
0.19711146 1.2337359 0.092296332 66
0.18501031 1.2496382 0.11715672 19
0.20304999 1.225932 0.13227122 39
0.17564005 1.2619518 0.16564418 68
0.17753235 1.2630268 0.010785587 52
0.17076257 1.2719879 0.032971654 29
0.1752902 1.2659948 0.054385185 51
0.18025234 1.2594265 0.075315252 45
0.19277865 1.2428457 0.093860678 52
0.19260395 1.2430769 0.11524864 13
0.1987702 1.2349148 0.13452072 46
0.18085307 1.2586313 0.16409127 69
0.18405488 1.257925 0.010645968 53
0.17251715 1.2733085 0.032971654 29
0.17343751 1.2720814 0.054908119 50
0.18791831 1.2527738 0.07409656 61
0.19206092 1.2472503 0.094486415 52
0.19779134 1.2396098 0.11410378 13
0.20156446 1.234579 0.13407083 31
0.18372005 1.2583714 0.16357364 69
0.19053721 1.2527837 0.010506349 68
0.18143296 1.2650113 0.032343622 30
0.17995188 1.2670006 0.054210871 51
0.19671875 1.2444814 0.072634131 63
0.18783048 1.2564189 0.096050762 51
0.20763999 1.2298135 0.11143246 14
0.21482623 1.2201618 0.12957181 32
0.17965847 1.2673945 0.16616182 68
0.18976235 1.2571888 0.010576159 81
0.19970086 1.2437478 0.030878214 31
0.18041745 1.2698269 0.054385185 76
0.20301503 1.2392658 0.071659178 80
0.2082366 1.2322041 0.091044858 81
0.20333049 1.2388391 0.11334054 13
0.22790694 1.2056017 0.12507279 25
0.18016136 1.2701733 0.16667947 67
0.18318215 1.2697275 0.010820492 78
0.19308379 1.2562382 0.031610917 61
0.18570131 1.2662956 0.053862248 77
0.19290876 1.2564766 0.07409656 61
0.21102098 1.2318017 0.090731993 95
0.20380741 1.241629 0.11372216 13
0.22597006 1.2114363 0.12642249 16
0.19334093 1.2558879 0.16150309 70
0.19678989 1.2549051 0.010471444 82
0.20309988 1.2462424 0.030878214 63
0.1933881 1.2595752 0.05299069 79
0.1865128 1.269014 0.075802729 100
0.2069006 1.2410246 0.092296332 100
0.20553836 1.2428948 0.11372216 13
0.24480066 1.1889935 0.11967396 17
0.19398677 1.2587533 0.16202073 70
0.20317155 1.2496532 0.010331824 98
0.20008323 1.2539244 0.031296901 62
0.18692714 1.2721188 0.054210871 100
0.20221484 1.2509763 0.072877869 94
0.20854688 1.2422193 0.092296332 100
0.22329628 1.2218213 0.10837951 14
0.23713019 1.2026894 0.12327318 8
0.19682696 1.2584276 0.16150309 70
0.19543335 1.2637954 0.010611063 81
0.21566892 1.2356138 0.03004084 66
0.19091839 1.2700832 0.053862248 100
0.21191645 1.2408397 0.071171694 81
0.21126685 1.2417445 0.091983467 93
0.21334553 1.2388495 0.11219569 14
0.24993294 1.1878953 0.11877415 8
0.191688 1.2690114 0.16460891 77
0.20644444 1.252003 0.010331824 98
0.21150002 1.24491 0.030564198 97
0.18804049 1.2778233 0.054559495 100
0.20549676 1.2533325 0.072877869 63
0.21176904 1.2445326 0.092296332 100
0.20928663 1.2480154 0.11410378 20
0.23103395 1.2175043 0.12687239 16
0.19455335 1.2686859 0.16409127 69
0.19888929 1.2662587 0.010611063 94
0.21431339 1.2444583 0.030459527 97
0.19902134 1.266072 0.053165004 100
0.21062562 1.2496705 0.072146654 79
0.22483677 1.2295846 0.089167647 100
0.20188591 1.2620232 0.11715672 39
0.22697029 1.2265691 0.1291219 16
0.20299095 1.2604613 0.16098544 72
0.20407149 1.2625718 0.010506349 100
0.21941519 1.2407238 0.030145511 98
0.19846496 1.270555 0.053513627 100
0.21344292 1.2492278 0.071902916 64
0.22303715 1.2355665 0.090106249 100
0.19909224 1.2696619 0.1186832 84
0.22744599 1.2292886 0.12957181 40
0.20470509 1.2616696 0.16098544 72
0.21265426 1.2539337 0.010296919 100
0.21991819 1.2435133 0.030250182 65
0.20591122 1.2636068 0.05264207 100
0.21625298 1.2487712 0.071659178 80
0.22692353 1.2334639 0.089480512 100
0.22104722 1.2418938 0.11181407 84
0.21790713 1.2463982 0.13407083 93
0.20531869 1.2644567 0.16150309 70
0.21548337 1.2534639 0.010262015 98
0.2238459 1.2413778 0.03004084 99
0.20423535 1.2697202 0.053165004 100
0.22018525 1.2466685 0.071171694 81
0.21842754 1.2492088 0.092296332 100
0.22269645 1.2430391 0.11181407 91
0.22733381 1.2363368 0.13092151 96
0.2103444 1.260891 0.15995017 72
0.21029434 1.2644596 0.010471444 96
0.22541085 1.2424568 0.03004084 66
0.2081508 1.2675797 0.05281638 100
0.22176775 1.2477596 0.071171694 81
0.22672996 1.2405367 0.090419121 96
0.21759659 1.2538309 0.11410378 100
0.23439953 1.2293733 0.128672 97
0.20759839 1.2683837 0.16202073 70
0.20976919 1.2689468 0.010541254 81
0.23043767 1.2386365 0.029726824 67
0.21437967 1.2621856 0.052119136 100
0.21896398 1.2554626 0.072146654 95
0.23616463 1.230238 0.088229038 100
0.21596932 1.2598543 0.11524864 100
0.2316134 1.2369123 0.13047162 96
0.20934016 1.269576 0.16202073 70
0.21711701 1.2618511 0.010366729 41
0.22871709 1.2447113 0.03004084 66
0.21163288 1.2699541 0.05281638 79
0.22288585 1.2533273 0.071659178 80
0.23112994 1.2411462 0.090106249 100
0.2286852 1.2447585 0.11143246 91
0.2299684 1.2428625 0.13182132 94
0.22191399 1.2547632 0.15684435 74
0.22106597 1.25969 0.010296919 42
0.22146672 1.2590935 0.030878214 31
0.2133801 1.2711322 0.05281638 53
0.22678873 1.2511705 0.071171694 81
0.23057356 1.245536 0.090731993 95
0.23472321 1.2393583 0.10990598 92
0.23488081 1.2391237 0.13047162 96
0.22145373 1.2591128 0.15787962 73
0.23173451 1.2475801 0.010017681 43
0.22326156 1.2602943 0.030878214 31
0.22074354 1.2640728 0.051944822 54
0.22855449 1.2523519 0.071171694 81
0.23450956 1.2434158 0.090106249 96
0.2288245 1.2519467 0.1125773 82
0.23984438 1.2354106 0.1291219 100
0.21789205 1.2683517 0.1604678 88
0.21795979 1.2720387 0.010506349 27
0.23378924 1.2481048 0.03004084 33
0.20928106 1.2851608 0.054036561 51
0.23352537 1.2485038 0.070440479 98
0.2372537 1.2428666 0.089793384 97
0.23267481 1.2497898 0.11181407 91
0.24147087 1.2364904 0.1291219 96
0.21323946 1.2791758 0.16357364 77
0.22182161 1.269794 0.010436539 27
0.21125895 1.2858801 0.032343622 30
0.22739491 1.2613062 0.051421888 55
0.22203901 1.2694628 0.073365346 100
0.24316046 1.2372963 0.08854191 98
0.23319 1.2524806 0.11219569 84
0.24088025 1.2407689 0.13002171 96
0.22129187 1.2706007 0.1604678 72
0.2235682 1.2709365 0.010436539 41
0.21306175 1.2870595 0.032343622 30
0.23563841 1.2524137 0.05037602 56
0.23570597 1.25231 0.070684217 81
0.2447935 1.2383645 0.08854191 100
0.24237907 1.2420696 0.10952436 85
0.24358937 1.2402123 0.12957181 88
0.23253366 1.2571782 0.15580906 75
0.24052125 1.2485645 0.0099478718 43
0.24740571 1.2379186 0.029203463 34
0.23299655 1.2602003 0.051073264 55
0.22984573 1.2650726 0.072390392 47
0.2442849 1.2427444 0.089167647 84
0.24722707 1.2381948 0.10837951 87
0.24311614 1.2445518 0.13047162 96
0.231089 1.26315 0.15736198 74
0.23787355 1.2563736 0.010087491 71
0.2501196 1.2372911 0.029098792 68
0.22717708 1.2730415 0.052293446 53
0.24658573 1.2427979 0.068978049 50
0.25020447 1.2371588 0.087916173 84
0.24674255 1.2425535 0.10914274 85
0.25003701 1.2374198 0.12822211 97
0.23281237 1.2642603 0.15736198 74
0.24172148 1.2540867 0.010017681 72
0.25067973 1.2400197 0.029203463 68
0.22679454 1.2775264 0.05264207 53
0.24717164 1.2455285 0.069221787 67
0.25608131 1.2315377 0.086664692 57
0.25261217 1.2369852 0.10761628 87
0.25899783 1.2269579 0.12507279 75
0.22831339 1.2751414 0.1604678 72
0.23486719 1.2686836 0.010296919 70
0.24378669 1.2545688 0.03004084 99
0.24027592 1.2601244 0.05072464 84
0.24777293 1.2482607 0.069465525 66
0.25558367 1.2359006 0.087290429 71
0.23851237 1.2629151 0.11334054 100
0.25851262 1.2312657 0.12597258 99
0.23317465 1.2713618 0.15891489 65
0.24298385 1.2596154 0.010087491 71
0.24866313 1.2505584 0.029726824 100
0.24622247 1.2544507 0.050027397 85
0.24522591 1.25604 0.070440479 49
0.2593106 1.2335783 0.086664692 71
0.25692254 1.2373867 0.10723466 73
0.25805399 1.2355824 0.12687239 99
0.23903185 1.265918 0.15684435 66
0.2499769 1.2521949 0.0099129668 87
0.25034243 1.2516074 0.029726824 100
0.24370515 1.2622747 0.05072464 84
0.24692434 1.2571008 0.070440479 49
0.25884342 1.2379446 0.087290429 57
0.25025848 1.2517424 0.1102876 99
0.25865144 1.2382531 0.1273223 97
0.24076483 1.2670004 0.15684435 66
0.25157759 1.2531871 0.0099129668 87
0.25299066 1.2508991 0.029622151 100
0.24010456 1.2717636 0.051596198 82
0.25167063 1.2530364 0.069709264 33
0.26039678 1.2389076 0.087290429 71
0.25804743 1.2427115 0.10799789 72
0.26634988 1.2292687 0.12462288 92
0.24444491 1.2647359 0.15580906 67
0.246997 1.2644559 0.010122396 85
0.25884539 1.2451211 0.029203463 100
0.24914506 1.2609507 0.05037602 100
0.25439575 1.2523823 0.069465525 49
0.26203534 1.2399156 0.087290429 57
0.25046712 1.2587932 0.11143246 84
0.27100939 1.2252712 0.12327318 85
0.24415493 1.2690938 0.15684435 66
0.24872482 1.2655106 0.010122396 85
0.26154324 1.244428 0.029098792 100
0.24568522 1.27051 0.051247578 82
0.25814399 1.2500188 0.068978049 50
0.27393985 1.2240392 0.084161744 74
0.25319511 1.2581583 0.11105084 98
0.26753825 1.234568 0.12552269 90
0.24589896 1.2701583 0.15684435 66
0.25562087 1.2579979 0.0099478718 87
0.25804281 1.253983 0.029622151 100
0.25360897 1.261333 0.050201707 85
0.25366914 1.2612333 0.070440479 49
0.26736364 1.2385316 0.086664692 71
0.26504177 1.2423806 0.10723466 73
0.26815504 1.2372198 0.12597258 90
0.2556296 1.2579833 0.15270324 68
0.26246071 1.2504431 0.0097733475 89
0.26178536 1.2515715 0.029412808 100
0.25532585 1.2623646 0.050201707 100
0.25946337 1.2554513 0.069465525 49
0.26900086 1.2395153 0.086664692 71
0.26366776 1.2484263 0.10837951 79
0.26778612 1.241545 0.12687239 82
0.25336644 1.2656386 0.15477379 67
0.26311859 1.2531633 0.0098082526 74
0.26856655 1.2439879 0.028889447 100
0.25297752 1.2702429 0.050898954 100
0.26521358 1.249635 0.068490572 50
0.2666074 1.2472875 0.087916173 56
0.27035117 1.2409823 0.10647142 73
0.279383 1.225771 0.12237337 76
0.25509834 1.2666709 0.15477379 67
0.26582181 1.2524388 0.0097733475 89
0.27123648 1.2432466 0.028784776 100
0.25270307 1.2747099 0.051247578 82
0.2689046 1.2472053 0.068003096 51
0.2682752 1.2482738 0.087916173 56
0.26103622 1.2605631 0.11066922 85
0.27998653 1.2283919 0.12282328 93
0.2529119 1.2743555 0.15684435 66
0.26145416 1.263787 0.0099827768 87
0.27188244 1.2459412 0.028889447 100
0.26250839 1.2619829 0.049853086 85
0.26856899 1.2516115 0.068490572 50
0.27791944 1.23561 0.085413218 58
0.26175985 1.2632639 0.11105084 84
0.28158826 1.2293316 0.12282328 85
0.26145416 1.263787 -0.0099827768 86
0.26247162 1.2620459 0.15270324 68
0.27019966 1.252681 0.0097384425 90
0.27955535 1.2365415 0.028261416 100
0.26422748 1.2629834 0.049853086 85
0.27025184 1.2525909 0.068490572 50
0.27657437 1.241684 0.086351827 58
0.27136016 1.250679 0.10799789 79
0.28026131 1.2353237 0.12417299 83
0.26225325 1.2663893 0.15373851 68
0.27288303 1.2519212 0.0097035384 90
0.27122945 1.2547969 0.029308135 100
0.26197731 1.2708868 0.05055033 84
0.27589628 1.246681 0.067515619 51
0.28413072 1.2323608 0.084474608 59
0.27499706 1.2482448 0.10723466 81
0.28091583 1.2379518 0.12462288 83
0.26976573 1.2573423 0.15063268 70
0.27753925 1.2476746 0.0095988233 76
0.27292341 1.255767 0.029308135 100
0.2617532 1.2753505 0.050898954 83
0.27756187 1.2476349 0.067515619 51
0.28574628 1.2332861 0.084474608 59
0.27569541 1.2509072 0.10761628 79
0.29027507 1.2253463 0.12102367 86
0.26381138 1.2717421 0.15477379 67
0.27231541 1.2608058 0.0098431576 88
0.28445572 1.2393479 0.028261416 100
0.26450005 1.2746195 0.05072464 84
0.28118581 1.2451274 0.067028143 51
0.28736508 1.2342057 0.084474608 59
0.276409 1.2535704 0.10799789 72
0.29282573 1.2245541 0.12057377 86
0.27034602 1.2642868 -0.0099129668 87
0.26366195 1.2761009 0.15580906 67
0.27892342 1.2530527 0.0096686333 75
0.28609565 1.240272 0.028261416 100
0.27406359 1.2617129 0.049330149 87
0.27507418 1.259912 0.068978049 50
0.29092047 1.2316743 0.083848871 59
0.27521628 1.2596588 0.10914274 78
0.29155293 1.2305472 0.12192347 85
0.27305174 1.2635159 -0.0098780617 76
0.26732114 1.2737279 0.15477379 67
0.2835288 1.2487543 0.0095639192 91
0.28191081 1.2516613 0.028889447 100
0.27771959 1.2591913 0.048981529 87
0.28064767 1.2539307 0.068003096 51
0.28869081 1.2394799 0.085100345 58
0.2807464 1.2537532 0.10761628 79
0.29126665 1.2348521 0.12282328 93
0.27574864 1.2627325 -0.0098431576 87
0.27659741 1.2612075 0.15063268 70
0.2910001 1.2391775 0.0093544899 93
0.28166327 1.2560911 0.029098792 100
0.27654019 1.2653716 0.049504463 86
0.28233853 1.2548679 0.068003096 51
0.29033121 1.2403892 0.085100345 58
0.28053904 1.2581277 0.10837951 94
0.29289085 1.2357523 0.12282328 85
0.2736046 1.2706895 -0.0099827768 86
0.2745792 1.2689239 0.15270324 68
0.28783792 1.2488489 0.0095290141 76
0.28911644 1.2465136 0.02847076 100
0.2677463 1.2855469 0.051421888 82
0.28593925 1.2523168 0.067515619 51
0.28818026 1.2482235 0.086351827 58
0.29167256 1.2418447 0.10456333 75
0.29826152 1.2298098 0.12102367 86
0.27817789 1.2664933 0.15166797 69
0.28187764 1.2638199 0.0098082526 74
0.29459342 1.2404004 0.028052073 100
0.271449 1.2830272 0.051073264 83
0.28951886 1.2497466 0.067028143 51
0.29550657 1.2387186 0.084474608 59
0.28582692 1.2565463 0.10761628 79
0.28092346 1.2655773 -0.0098431576 87
0.27253824 1.281021 0.15580906 67
0.28075892 1.270035 0.0099129668 87
0.28487447 1.2623916 0.029308135 100
0.27985346 1.2717166 0.049853086 85
0.28460732 1.2628877 0.068734311 84
0.29808077 1.2378647 0.084161744 59
0.28287312 1.2661085 0.10952436 78
0.28455105 1.2629921 -0.0097733475 88
0.28531414 1.261575 0.14959741 70
0.29380858 1.2498039 0.0094941091 92
0.2941207 1.2492193 0.02847076 100
0.29192927 1.2533236 0.047935657 89
0.29100445 1.2550555 0.067515619 51
0.29662779 1.244524 0.10456333 75
0.28721541 1.2621518 -0.0097384425 88
0.2888515 1.2590877 0.14856213 71
0.29361352 1.2542298 0.0095639192 91
0.29392588 1.2536398 0.028680105 100
0.29082105 1.2595038 0.048458595 88
0.29269919 1.2559566 0.067515619 51
0.29580715 1.2500868 0.086038955 58
0.29920441 1.2436705 0.10418171 75
0.28612781 1.2683679 -0.0098431576 87
0.28875241 1.2634108 0.14959741 78
0.29530537 1.2551218 0.0095639192 91
0.28882673 1.2674618 0.049155839 87
0.29624256 1.2533367 0.067028143 51
0.29748452 1.2509711 0.086038955 58
0.29227233 1.2608988 0.14856213 71
0.28961346 1.2701979 0.0098431576 88
0.29424474 1.2613013 0.048458595 88
0.29426482 1.2612627 0.068003096 68
0.28776675 1.2737454 -0.0099129668 97
0.29041934 1.2686498 0.15063268 70
0.2950297 1.2639959 0.0097035384 90
0.29413363 1.265732 0.048807215 58
0.29962304 1.2550964 0.067028143 51
0.28952673 1.2746577 -0.0099129668 100
0.29747778 1.2592528 0.14752686 71
0.29950929 1.2595018 0.067515619 51
0.29923114 1.2638651 0.048458595 59
0.29722962 1.2678069 0.14959741 78
0.29561698 1.2799904 -0.0099478718 100
0.299936 1.2713317 0.15011504 78
0.29927287 1.2817978 -0.0099478718 100
