# .PCD v0.7 - Point Cloud Data file format
VERSION 0.7
FIELDS x y z intensity
SIZE 4 4 4 4
TYPE F F F F
COUNT 1 1 1 1
WIDTH 737
HEIGHT 1
VIEWPOINT 0 0 0 1 0 0 0
POINTS 737
DATA ascii
0.055683732 0.00031876564 0.047939736 76
0.052393794 0.0011121631 0.015986403 119
0.055170357 0.0054024458 0.047730394 52
0.05250442 0.007134378 0.047730394 36
0.041217744 0.007401526 0.04804441 72
0.042033553 0.01406616 0.047730394 47
0.04163748 0.019151628 0.047521047 29
0.036899924 0.017541289 0.047730394 19
0.023964107 0.0046129823 0.048672438 8
0.030522585 0.019499481 0.047835063 9
0.023204446 0.014856279 0.048253752 8
0.0092217326 0.00026476383 0.049300469 7
-0.81793946 0.64334089 0.023979606 24
-0.79288894 0.65510988 0.023525843 69
-0.78130478 0.66054678 0.023316415 55
-0.7796852 0.66535151 0.023281511 46
-0.78401297 0.66946089 0.023351319 42
-0.79035622 0.67392206 0.023456035 37
-0.78069228 0.67904913 0.023281511 34
-0.79698092 0.68289465 0.023560749 19
-0.86513954 0.68344635 0.024747513 13
-0.9273209 0.68481821 0.025829561 5
-0.99549931 0.68629873 0.027016325 2
-1.0118721 1.125422 0.083946876 5
-1.0391474 1.1316288 0.1425868 4
-1.026227 1.1341904 0.028237993 8
-0.98733288 1.1252038 0.082690813 9
-1.010762 1.1306173 0.14014643 16
-0.99185091 1.1319218 0.027644612 15
-1.0094166 1.136045 0.083946876 75
-1.0153127 1.137429 0.14066938 65
-0.98266989 1.1359816 0.027504992 36
-0.99828631 1.1397107 0.083423518 100
-1.0235798 1.1457504 0.14154093 100
-0.98526973 1.1422719 0.027574802 37
-0.97175318 1.1389943 0.082062781 100
-1.0164499 1.1498324 0.14101799 91
-0.98215073 1.1466159 0.027539898 31
-0.98610264 1.1475873 0.082900152 100
-0.9978357 1.1504713 0.13944919 91
-0.97694641 1.1509936 0.027470088 23
-0.97896177 1.1514964 0.082586139 66
-0.99069887 1.1544249 0.13892625 87
-0.96584755 1.1541314 0.027295563 34
-0.99691385 1.162004 0.083632857 37
-0.99314219 1.1610482 0.13927488 71
-0.96062404 1.1584244 0.027225753 50
-0.97425836 1.1619302 0.082481466 42
-0.98983818 1.1659362 0.13910057 89
-0.96126276 1.1639361 0.027260659 61
-0.95748883 1.1629524 0.081644088 90
-0.98658878 1.1705377 0.13892625 89
-0.96567827 1.1707425 0.027365373 71
-0.96190077 1.1697437 0.081958108 98
-0.97555023 1.1733526 0.1380547 99
-0.94874829 1.1721492 0.027086135 83
-0.95849639 1.1747649 0.081853434 94
-0.96059138 1.1753269 0.13683452 100
-0.94733542 1.1773783 0.027086135 92
-0.95707434 1.180028 0.081853434 100
-0.9630124 1.1816435 0.13718314 100
-0.9459042 1.1826025 0.027086135 99
-0.93445486 1.1794446 0.080702044 100
-0.96348685 1.1874522 0.13735744 92
-0.9445278 1.1875608 0.027086135 93
-0.93885976 1.1859772 0.081016064 96
-0.96593207 1.193541 0.13770607 92
-0.9546054 1.196044 0.027295563 85
-0.93932039 1.191716 0.081120729 80
-0.95294231 1.1955731 0.1366602 100
-0.95702881 1.2021335 0.027365373 56
-0.93983358 1.1972029 0.081225403 54
-0.94003147 1.1972597 0.13561434 100
-0.9342373 1.2017727 0.026981421 42
-0.93434674 1.2018045 0.081016064 24
-0.95751077 1.2085431 0.13735744 91
-0.93279737 1.2066922 0.026981421 64
-0.9194954 1.2027748 0.080283359 26
-0.9484033 1.2112882 0.1366602 84
-0.92359895 1.209579 0.026841801 75
-0.91414791 1.2067597 0.080074012 28
-0.9430353 1.2153769 0.13631158 91
-0.92213315 1.2144632 0.026841801 75
-0.92033952 1.2139217 0.080492698 62
-0.9301061 1.2168703 0.13526571 99
-0.91475755 1.2181009 0.026737086 81
-0.91488284 1.2181392 0.080283359 100
-0.92274255 1.2205436 0.13474278 100
-0.90562242 1.2205904 0.026597468 85
-0.91720456 1.2241757 0.080492698 90
-0.92504698 1.2266033 0.13509139 87
-0.90396124 1.2259225 0.026597468 85
-0.90790707 1.2271599 0.080074012 72
-0.92526466 1.2326027 0.13526571 56
-0.91006571 1.2331601 0.026737086 83
-0.89686424 1.2289723 0.079550654 74
-0.91232771 1.2338777 0.13421984 43
-0.90844005 1.2382538 0.026737086 81
-0.89905661 1.2352412 0.07976 89
-0.90311152 1.2365431 0.1335226 46
-0.88785988 1.2369115 0.026388038 89
-0.90510422 1.2425113 0.080178685 98
-0.90155643 1.2413592 0.1335226 61
-0.88605648 1.2424291 0.026388038 99
-0.90517646 1.2487191 0.080283359 100
-0.90919894 1.2500424 0.13439415 77
-0.88448197 1.2471886 0.026388038 99
-0.89221007 1.2497594 0.079655327 100
-0.91327065 1.2567654 0.1349171 85
-0.88659805 1.2534686 0.026457848 99
-0.8829549 1.2522426 0.079236634 100
-0.90589756 1.2599636 0.13439415 77
-0.88498694 1.25823 0.026457848 99
-0.88323861 1.2576351 0.079341307 100
-0.89860624 1.2628636 0.13387123 85
-0.86806184 1.2582779 0.02617861 93
-0.87577635 1.2609341 0.079027295 100
-0.88737077 1.2649264 0.13299966 100
-0.86643487 1.2629776 0.02617861 81
-0.88168567 1.2682855 0.07944598 100
-0.90077513 1.2749295 0.13439415 78
-0.87216312 1.2708228 0.02631823 77
-0.85912722 1.266232 0.07829459 70
-0.89891475 1.2802434 0.13439415 38
-0.87614638 1.2775474 0.026422944 83
-0.84430236 1.2662146 0.077561885 31
-0.89909178 1.2857134 0.13456847 35
-0.86486918 1.2793841 0.02624842 96
-0.84999102 1.2740278 0.077980578 23
-0.8784458 1.2842722 0.13282534 31
-0.85189682 1.2799716 0.026038991 93
-0.85957354 1.2827642 0.07860861 68
-0.87486023 1.2883251 0.13265105 20
-0.84644419 1.2832381 0.025969181 100
-0.85786539 1.2874358 0.07860861 100
-0.85817295 1.2875488 0.13125655 13
-0.84080487 1.2869594 0.025899371 100
-0.8409825 1.2870255 0.077771232 100
-0.87307447 1.298954 0.13282534 1
-0.84638816 1.2948678 0.026038991 100
-0.82973045 1.2886065 0.077247873 46
-0.88977617 1.3111763 0.13456847 1
-0.84071654 1.2985613 0.025969181 92
-0.83528823 1.2964983 0.077666558 51
-0.8412227 1.2987537 0.13021068 7
-0.83344811 1.3007789 0.025864467 72
-0.83922154 1.302994 0.077980578 57
-0.8581565 1.3102586 0.13195379 37
-0.82403594 1.3029535 0.025724847 74
-0.83725864 1.3080821 0.077980578 68
-0.84316403 1.3103727 0.13073361 90
-0.82598501 1.3089656 0.025794657 90
-0.82430857 1.308309 0.077352546 63
-0.85620564 1.3208029 0.1321281 100
-0.82585961 1.3147414 0.025829561 100
-0.81675535 1.3111367 0.077038527 81
-0.85047251 1.3244863 0.13177948 97
-0.82775921 1.3207855 0.025899371 100
-0.82608062 1.3201144 0.077666558 91
-0.83012563 1.3217314 0.13003637 99
-0.81460673 1.321337 0.025689943 100
-0.82405514 1.3251543 0.077666558 95
-0.82255226 1.3245471 0.12951343 100
-0.80555743 1.3223649 0.025550323 100
-0.82425147 1.3299825 0.077771232 97
-0.82828122 1.3316245 0.13021068 100
-0.79014331 1.3160839 0.1776855 24
-0.80722207 1.3288524 0.025620133 100
-0.79818112 1.3251297 0.076410495 100
-0.81700188 1.3328793 0.12933913 100
-0.76977712 1.3134339 0.17524812 15
-0.80905443 1.334885 0.025689943 100
-0.7963329 1.3295974 0.076410495 100
-0.81512779 1.3374094 0.12933913 100
-0.78813142 1.3261884 0.17792924 22
-0.80697483 1.3398623 0.025689943 100
-0.79058987 1.3329816 0.076201156 100
-0.80569106 1.3393233 0.12864187 100
-0.7879141 1.3318578 0.17817298 21
-0.79403085 1.3396769 0.025480513 100
-0.79607111 1.3405416 0.076619841 85
-0.79095477 1.3383731 0.12742169 100
-0.78056043 1.3339674 0.17744176 18
-0.79561037 1.3461734 0.025550323 64
-0.81600326 1.3549054 0.077875905 40
-0.80168337 1.3487738 0.12864187 60
-0.78030938 1.3396218 0.1776855 11
-0.81011051 1.3580089 0.025864467 71
-0.8102867 1.3580849 0.077666558 72
-0.82891566 1.3661387 0.13143086 28
-0.78013498 1.3450496 0.17792924 7
-0.80794626 1.3629899 0.025864467 100
-0.79530972 1.3574717 0.076933853 100
-0.81576616 1.3664048 0.130385 90
-0.77801841 1.349921 0.17792924 20
-0.80790669 1.3680592 0.025899371 100
-0.80442446 1.3665254 0.077561885 100
-0.81935591 1.3731016 0.13090792 100
-0.78709012 1.3588909 0.17939167 35
-0.79291588 1.3673431 0.025655037 100
-0.80770355 1.3739208 0.077875905 100
-0.80257279 1.3716385 0.12951343 100
-0.79943281 1.3702419 0.18134159 42
-0.79082257 1.372027 0.025655037 100
-0.81105334 1.3811107 0.078189917 100
-0.80773479 1.3796206 0.13021068 100
-0.77922004 1.3668176 0.17890419 33
-0.79042822 1.3777632 0.025689943 100
-0.80698532 1.3852704 0.078085244 100
-0.80912048 1.3862383 0.1305593 100
-0.7571364 1.3626683 0.17622307 18
-0.79771298 1.3858933 0.025864467 100
-0.80515379 1.3892938 0.078085244 100
-0.8145346 1.3935808 0.13125655 100
-0.77523261 1.3756201 0.17890419 15
-0.8027094 1.3941802 0.026004085 100
-0.80287486 1.3942566 0.078085244 100
-0.80500358 1.3952389 0.1305593 100
-0.77480644 1.381305 0.17914793 12
-0.79700631 1.3969748 0.025934275 100
-0.8080402 1.4021106 0.078503937 100
-0.79569751 1.3963656 0.12986206 100
-0.77457172 1.3865325 0.17939167 8
-0.78756958 1.3982723 0.025794657 100
-0.80763322 1.4076964 0.07860861 100
-0.80792981 1.4078357 0.13125655 100
-0.76342779 1.3869326 0.17817298 5
-0.78898233 1.4046504 0.025864467 100
-0.79998463 1.4098651 0.07829459 100
-0.80929583 1.4142785 0.13160518 100
-0.76664764 1.3940642 0.17890419 3
-0.7993868 1.41536 0.0261088 100
-0.79594105 1.4137119 0.078189917 100
-0.81602556 1.4233177 0.13247673 100
-0.79712588 1.4200662 0.0261088 100
-0.80088097 1.4218783 0.07860861 100
-0.80476481 1.4237524 0.13160518 100
-0.7948485 1.4247646 0.0261088 100
-0.80757588 1.4309611 0.079131968 100
-0.80247456 1.4284775 0.13160518 100
-0.7853753 1.4259286 0.025969181 100
-0.80884582 1.4374571 0.079341307 100
-0.80732101 1.4367081 0.13230242 100
-0.79382819 1.4359131 0.02617861 100
-0.79577011 1.4368755 0.078713275 100
-0.81212634 1.4449806 0.13299966 100
-0.79865021 1.4441764 0.02631823 100
-0.79522055 1.442462 0.078817949 100
-0.80976194 1.4497311 0.13299966 100
-0.80343074 1.4524815 0.026457848 100
-0.78394836 1.4426572 0.07829459 100
-0.80738097 1.4544735 0.13299966 100
-0.79391068 1.4535754 0.02631823 100
-0.79939419 1.4563644 0.079341307 100
-0.80143172 1.4574008 0.13265105 100
-0.78439957 1.4546111 0.02617861 100
-0.80942935 1.4674525 0.080074012 100
-0.80966026 1.4675709 0.13369691 100
-0.79265779 1.4647789 0.026388038 99
-0.79811734 1.467604 0.079550654 100
-0.8054474 1.4713972 0.1335226 100
-0.79731554 1.4731623 0.026527658 100
-0.79213279 1.4704573 0.079341307 100
-0.81182235 1.4807334 0.13439415 100
-0.79839188 1.4797238 0.026597468 100
-0.79321426 1.4769986 0.079550654 100
-0.80404395 1.4826987 0.13387123 100
-0.78707486 1.4797385 0.026422944 45
-0.78720993 1.4798101 0.079341307 46
-0.79098898 1.4818161 0.13282534 88
0.14271927 1.2738483 0.12593393 6
0.16824484 1.2456571 0.010645968 13
0.1387068 1.2824607 0.03443706 27
0.14594501 1.273442 0.056476921 24
0.13587856 1.2859845 0.12860526 17
0.18529111 1.2244178 0.13452072 7
0.12799224 1.2958107 0.18065569 6
0.15744549 1.2626257 0.010995016 38
0.16912591 1.2479676 0.032029606 60
0.15018812 1.271733 0.056128297 48
0.15165243 1.2698954 0.078483857 14
0.17083675 1.2458206 0.096363634 25
0.1450232 1.2782147 0.12631555 70
0.19780961 1.2119718 0.13047162 16
0.15150088 1.2700856 0.1713382 14
0.16147763 1.2607208 0.010925206 100
0.17682824 1.2413323 0.031506244 100
0.1554766 1.2683004 0.055605363 98
0.15076041 1.2742572 0.078971334 14
0.17478585 1.243912 0.095737889 38
0.15758979 1.2656314 0.122881 100
0.18589363 1.2298824 0.13542053 38
0.15667143 1.2667913 0.16978529 36
0.16566452 1.2589298 0.010855397 100
0.17106998 1.2520533 0.032134276 100
0.15598711 1.2712409 0.055779677 98
0.16601762 1.2584805 0.076290213 29
0.18376705 1.2359009 0.093860678 39
0.16538867 1.2592807 0.1209729 100
0.18990976 1.2280865 0.13452072 38
0.15960184 1.2666425 0.16926765 44
0.16983417 1.2571156 0.010785587 100
0.18135664 1.2423515 0.031401575 93
0.15773916 1.2726133 0.055779677 100
0.17627436 1.2488636 0.074584037 15
0.18053418 1.2434053 0.095112152 25
0.18280149 1.2405002 0.11601187 100
0.18671513 1.2354856 0.13632034 38
0.14588642 1.2878004 0.17599694 41
0.17031205 1.2600204 0.010820492 78
0.17322123 1.2562658 0.032238949 60
0.15583503 1.2787042 0.056302611 72
0.19010675 1.2344736 0.072146654 31
0.15799084 1.2759219 0.10136953 23
0.17843369 1.2495387 0.11791996 39
0.19311655 1.2305892 0.13452072 23
0.15006283 1.2861538 0.17496167 35
0.1757676 1.2566531 0.010715778 53
0.1810936 1.2497271 0.031715591 61
0.16498944 1.2706691 0.055256739 49
0.18092069 1.2499521 0.074340299 46
0.19115627 1.2366416 0.093234941 39
0.17660341 1.2555662 0.11906482 13
0.19005534 1.2380732 0.13632034 22
0.14842439 1.2922103 0.1765146 55
0.17018786 1.267493 0.010925206 52
0.17792249 1.2573619 0.032134276 30
0.17157555 1.2656754 0.054559495 50
0.18259826 1.2512374 0.074340299 46
0.18919125 1.2426016 0.094173551 52
0.18068331 1.2537457 0.11830158 19
0.19642156 1.2331312 0.13452072 38
0.16900632 1.2690407 0.16823238 60
0.18142033 1.2559379 0.010645968 53
0.16497159 1.2776241 0.033390339 28
0.17795077 1.2605122 0.053862248 51
0.17931339 1.2587156 0.075315252 45
0.19067773 1.2437329 0.094173551 52
0.19762856 1.2345688 0.11334054 13
0.20494428 1.2249238 0.13182132 39
0.17874819 1.2594609 0.16460891 69
0.18311882 1.2572216 0.010645968 40
0.17155156 1.272583 0.032971654 29
0.17606977 1.2665827 0.054385185 51
0.17624518 1.2663498 0.076290213 100
0.185204 1.2544523 0.096050762 63
0.20043331 1.2342277 0.11295892 13
0.20653436 1.2261255 0.13182132 31
0.17813483 1.2638403 0.16564418 83
0.1873858 1.2554226 0.010576159 54
0.18782759 1.2548311 0.031715591 30
0.18155637 1.2632263 0.053862248 51
0.19716188 1.2423356 0.072390392 47
0.19770658 1.2416064 0.093234941 53
0.20221838 1.2355666 0.11295892 13
0.21062079 1.2243185 0.13092151 40
0.17425305 1.2730031 0.16823238 75
0.18431786 1.2631103 0.010715778 79
0.20141914 1.2400497 0.03066887 32
0.17734635 1.2725111 0.054733805 50
0.19999525 1.2419698 0.072146654 63
0.20288494 1.2380731 0.092296332 80
0.20384565 1.2367777 0.11295892 13
0.21685189 1.2192392 0.1291219 32
0.17716187 1.2727599 0.16771474 75
0.18485582 1.2659941 0.010750682 79
0.19950977 1.2460889 0.030982886 63
0.1873711 1.2625774 0.053513627 78
0.19693735 1.2495831 0.073121607 93
0.20920539 1.2329189 0.091044858 81
0.20896888 1.2332401 0.11181407 14
0.21842206 1.2203994 0.1291219 24
0.18808159 1.2616124 0.16357364 69
0.19130901 1.2608076 0.010611063 94
0.20942304 1.2360218 0.030250182 65
0.19144392 1.2606231 0.053165004 100
0.19392842 1.2572235 0.07409656 92
0.20732668 1.2388902 0.091983467 93
0.21058798 1.2344277 0.11181407 14
0.22459564 1.2152606 0.1273223 16
0.1920796 1.2597532 0.16253836 70
0.20241854 1.2491078 0.010331824 98
0.2133975 1.2339745 0.03004084 99
0.18847883 1.2683225 0.053862248 100
0.19912836 1.253643 0.073365346 93
0.20664555 1.2432814 0.092609204 93
0.21105835 1.2371987 0.11219569 14
0.23759526 1.2006202 0.12282328 17
0.19492576 1.2594359 0.16202073 70
0.19708142 1.2600543 0.010541254 95
0.21501911 1.2351465 0.03004084 66
0.18789181 1.2728149 0.054210871 100
0.21125937 1.2403673 0.071171694 81
0.20252773 1.2524918 0.094173551 100
0.22072241 1.2272271 0.10952436 14
0.25048858 1.1858945 0.11832426 8
0.19550741 1.2622401 0.16253836 70
0.19870844 1.261222 0.010541254 95
0.22004884 1.2313811 0.029726824 100
0.18956119 1.2740129 0.054210871 100
0.20820215 1.2479467 0.072146654 79
0.21217313 1.242394 0.091983467 93
0.20396811 1.2538673 0.11563025 13
0.24166718 1.2011515 0.12237337 17
0.19377044 1.268127 0.16409127 69
0.19579515 1.2689677 0.010680873 80
0.21472463 1.2423018 0.030354854 97
0.19824255 1.2655201 0.053165004 100
0.2075744 1.2523743 0.072634131 63
0.21725452 1.2387379 0.091044858 100
0.19884059 1.2646776 0.11791996 19
0.22963762 1.2212939 0.1277722 16
0.20222095 1.2599157 0.16098544 72
0.20445001 1.2603933 0.010471444 96
0.21752575 1.2418365 0.030250182 98
0.19997439 1.2667449 0.053165004 100
0.21154714 1.2503213 0.072146654 63
0.21889275 1.2398965 0.091044858 100
0.19943863 1.2675052 0.11830158 58
0.23233736 1.2208164 0.1273223 32
0.2061587 1.2579683 0.15995017 72
0.21304065 1.2517645 0.010262015 100
0.22260895 1.2380843 0.029936166 99
0.20399433 1.2646984 0.05281638 100
0.20867485 1.2580065 0.073121607 62
0.21827066 1.244287 0.091670595 100
0.20342788 1.2655083 0.11753834 100
0.22497761 1.2346977 0.13092151 64
0.2100786 1.2559994 0.15891489 73
0.21227387 1.2561052 0.010331824 84
0.22294152 1.2407508 0.03004084 66
0.20100299 1.2723279 0.053513627 100
0.22380126 1.2395134 0.07019674 66
0.21638104 1.2501936 0.092609204 100
0.2206687 1.2440221 0.11219569 84
0.22643912 1.2357166 0.13092151 96
0.20389131 1.2681707 0.16253836 70
0.21170229 1.2605736 0.010401634 83
0.23025596 1.2336684 0.029517479 100
0.20049641 1.2768235 0.053862248 100
0.21868053 1.2504543 0.071659178 80
0.22815204 1.2367194 0.089793384 100
0.21340904 1.2580986 0.11524864 100
0.23027933 1.2336346 0.13002171 88
0.20124549 1.2757373 0.16460891 69
0.20898587 1.2684116 0.010541254 81
0.22970194 1.238134 0.029726824 100
0.20685661 1.2715237 0.053165004 100
0.22156465 1.2500272 0.071415432 96
0.2354421 1.2297444 0.088229038 98
0.22296053 1.2479869 0.1125773 82
0.23308119 1.2331949 0.12957181 96
0.21728283 1.2562852 0.15787962 73
0.21971509 1.2563646 0.010262015 84
0.22909388 1.2425537 0.029936166 66
0.20749003 1.2743667 0.053339314 78
0.21543574 1.2626662 0.073121607 78
0.2370488 1.2308396 0.088229038 100
0.2290428 1.2426291 0.11105084 91
0.23579478 1.2326863 0.1291219 96
0.21138519 1.2686309 0.16150309 70
0.22253245 1.2558563 0.01022711 42
0.21400121 1.2685139 0.031506244 31
0.21593401 1.2656463 0.052293446 53
0.2260333 1.2506622 0.071171694 65
0.22872296 1.2466717 0.091044858 100
0.22849998 1.2470025 0.11181407 98
0.2341443 1.2386281 0.13047162 96
0.21852639 1.2618001 0.15891489 73
0.21533567 1.2702932 0.010506349 40
0.21130145 1.276324 0.031924933 30
0.21877393 1.2651534 0.052119136 54
0.23102427 1.2468402 0.070440479 98
0.23368376 1.2428646 0.090106249 96
0.23125857 1.24649 0.11143246 100
0.23903257 1.2348685 0.1291219 100
0.21917099 1.2645597 0.15943253 73
0.21699655 1.2714003 0.010506349 40
0.22624207 1.2574794 0.03066887 32
0.21049723 1.2811863 0.053687938 52
0.23370552 1.2462418 0.07019674 82
0.23525357 1.2439109 0.090106249 96
0.23392659 1.245909 0.11105084 84
0.24596649 1.2277806 0.12687239 99
0.21546888 1.2737005 0.16202073 70
0.22315079 1.2658812 0.010366729 27
0.22574735 1.2619418 0.030878214 31
0.21886256 1.272387 0.05264207 53
0.23318493 1.2506578 0.070684217 98
0.2401711 1.2400587 0.089167647 100
0.23342887 1.2502878 0.11181407 91
0.24649385 1.2304661 0.1273223 97
0.2257345 1.2619612 0.15787962 73
0.2226944 1.270366 0.010436539 27
0.22309318 1.2697563 0.031296901 31
0.22389022 1.2685379 0.052119136 54
0.23160464 1.2567445 0.071415432 96
0.24505788 1.2361779 0.088229038 98
0.23940617 1.244818 0.1102876 85
0.24276915 1.2396768 0.12957181 96
0.23168385 1.2566234 0.15580906 75
0.23533118 1.2547326 0.010087491 43
0.22048968 1.2775953 0.031715591 30
0.22563243 1.2696731 0.052119136 54
0.24087173 1.2461977 0.069709264 83
0.24776256 1.2355827 0.087916173 84
0.24534139 1.2393124 0.10876112 87
0.24653265 1.2374773 0.128672 97
0.22917691 1.2642131 0.15787962 73
0.23919106 1.252466 0.010017681 43
0.24389628 1.2451621 0.029622151 33
0.22953659 1.2674525 0.051770512 54
0.24038574 1.2506115 0.07019674 66
0.24725002 1.2399561 0.08854191 84
0.2480447 1.2387226 0.10837951 87
0.2513324 1.2336191 0.1273223 97
0.22881156 1.2685781 0.15891489 73
0.23118332 1.2687114 0.010331824 84
0.25523871 1.2310827 0.028680105 69
0.23234814 1.2668895 0.051596198 82
0.24634215 1.2449992 0.069221787 67
0.25314826 1.2343527 0.087290429 71
0.23593575 1.2612774 0.11334054 96
0.25295255 1.2346588 0.1273223 97
0.22951335 1.2713238 0.15943253 73
0.24033931 1.2579472 0.010087491 71
0.25783953 1.2303712 0.028575432 70
0.23186249 1.2713046 0.051944822 54
0.24260065 1.2543839 0.070440479 49
0.26104051 1.2253273 0.085413218 73
0.24598232 1.2490551 0.1102876 78
0.25553924 1.2339959 0.12687239 90
0.23635325 1.2642282 0.15684435 74
0.24630681 1.2522566 0.0099478718 87
0.24986967 1.2465988 0.029517479 100
0.24210787 1.2589244 0.05055033 84
0.23794648 1.2655326 0.071902916 96
0.25631586 1.2363625 0.087290429 57
0.2476564 1.2501135 0.1102876 99
0.25612223 1.23667 0.1273223 97
0.24013919 1.2620506 0.15580906 67
0.25231391 1.2465824 0.0098082526 74
0.24738616 1.2544715 0.029936166 99
0.23862439 1.2684988 0.051421888 82
0.26079768 1.2330003 0.067028143 51
0.25384113 1.2441374 0.08854191 84
0.25773874 1.2378975 0.10723466 81
0.26093179 1.2327856 0.12597258 99
0.23989785 1.2664599 0.15684435 66
0.24976549 1.2544174 0.0099478718 87
0.25960082 1.2385485 0.028889447 100
0.24141598 1.2678891 0.051247578 82
0.25823256 1.2407562 0.068003096 51
0.25549799 1.2451682 0.08854191 56
0.25109974 1.2522647 0.1102876 85
0.26152238 1.2354481 0.12642249 99
0.23959729 1.2708235 0.15787962 65
0.24622068 1.2639794 0.010122396 85
0.25600696 1.2480658 0.029412808 100
0.23793736 1.277449 0.052119136 81
0.25363842 1.2519174 0.069465525 49
0.26233232 1.2377801 0.086977564 57
0.26101238 1.2399265 0.10723466 73
0.26927379 1.2264924 0.12372308 92
0.23729947 1.2784863 0.15995017 64
0.24794686 1.2650368 0.010122396 85
0.25871778 1.2473842 0.029308135 100
0.24905041 1.2632282 0.05055033 84
0.25118658 1.2597271 0.070440479 49
0.27014029 1.2286638 0.085100345 58
0.24936092 1.2627193 0.11219569 91
0.26680887 1.2341237 0.12552269 90
0.25419623 1.2547946 -0.0099129668 87
0.25115103 1.2597854 0.15373851 68
0.25381908 1.2592455 0.0099827768 87
0.25935161 1.2501066 0.029412808 100
0.25696483 1.2540493 0.049504463 86
0.2477577 1.269258 0.071659178 80
0.26867405 1.2347074 0.086038955 72
0.26226664 1.2452915 0.10799789 79
0.2704491 1.2317753 0.12462288 83
0.24685976 1.2707412 0.15684435 66
0.26067677 1.2517052 0.0098082526 74
0.25794417 1.2562548 0.029726824 100
0.2525011 1.2653171 0.05055033 84
0.25870121 1.2549944 0.069465525 49
0.26622948 1.2424603 0.087290429 57
0.26291662 1.2479759 0.10837951 79
0.2710593 1.2344189 0.12507279 83
0.24562544 1.2767646 0.15839726 73
0.2571561 1.2612503 0.0099827768 87
0.26160362 1.2537894 0.029517479 100
0.25108472 1.271435 0.051073264 83
0.262344 1.2525475 0.068978049 50
0.26982072 1.2400051 0.086664692 71
0.26249269 1.252298 0.10914274 85
0.2745966 1.2319936 0.12417299 92
0.25225356 1.2694743 0.15580906 67
0.26498023 1.2519422 0.0097733475 89
0.26939425 1.2444785 0.028889447 100
0.24776581 1.2810501 0.051944822 81
0.26605114 1.2501314 0.068490572 50
0.27246863 1.23928 0.086351827 58
0.26617673 1.2499189 0.10837951 87
0.28117087 1.2245653 0.12192347 85
0.25399888 1.2705106 0.15580906 67
0.2626166 1.2598331 0.0099129668 87
0.2750949 1.2385644 0.02847076 100
0.25660905 1.2700727 0.05072464 84
0.2697379 1.2476952 0.068003096 51
0.28310487 1.2249117 0.083536007 60
0.25891241 1.2661468 0.11181407 84
0.27980086 1.2305433 0.12327318 100
0.25770295 1.2682083 0.15477379 67
0.2653341 1.259105 0.0098780617 88
0.26869488 1.2533306 0.029308135 100
0.2643697 1.260762 0.049678773 86
0.26341873 1.2623959 0.069953002 49
0.28071982 1.2326697 0.084787481 59
0.26953408 1.2518888 0.10837951 87
0.27944958 1.2348521 0.12417299 83
0.26333085 1.2625469 0.15270324 68
0.27404204 1.2479732 0.0096337283 75
0.26838648 1.2577689 0.029517479 100
0.25911117 1.2738342 0.050898954 83
0.26910946 1.2565167 0.068978049 67
0.27641034 1.2438712 0.086664692 71
0.27416277 1.2477641 0.10723466 81
0.28204826 1.2341061 0.12372308 83
0.26312006 1.2668906 0.15373851 68
0.27273077 1.2541394 0.0097384425 90
0.27803153 1.2448838 0.028680105 100
0.26285198 1.2713888 0.05055033 84
0.28067482 1.2402682 0.066540658 52
0.27904785 1.2431091 0.086351827 58
0.27388078 1.2521313 0.10799789 87
0.2875438 1.2282743 0.12192347 85
0.25717562 1.2813002 0.15787962 65
0.2793611 1.2464106 0.0095639192 76
0.28166389 1.242357 0.02847076 100
0.26854038 1.2654586 0.049853086 85
0.27839592 1.2481096 0.067515619 51
0.28557956 1.2354641 0.084787481 59
0.27944437 1.2462641 0.10647142 73
0.29010764 1.2274933 0.12147357 86
0.26277906 1.2756002 0.15580906 67
0.27317247 1.2612897 0.0098431576 73
0.27743158 1.253731 0.029098792 100
0.26733738 1.2716453 0.05037602 84
0.27421954 1.2594315 0.068978049 50
0.28817567 1.2346634 0.084474608 59
0.27532586 1.2574681 0.10876112 79
0.29361945 1.2250022 0.12057377 69
0.27415413 1.2595476 -0.0098082526 88
0.2683391 1.2698675 0.15373851 68
0.28171808 1.250034 0.0095988233 91
0.28107053 1.2511926 0.028889447 100
0.26811814 1.2743682 0.05055033 84
0.27980345 1.2534598 0.068003096 51
0.28690812 1.2407475 0.085413218 58
0.28277588 1.2481413 0.10647142 81
0.29520929 1.2258943 0.12057377 77
0.27762547 1.2573569 0.14959741 70
0.28630376 1.2457206 0.0094941091 76
0.27887869 1.2591158 0.029308135 100
0.27567601 1.2648935 0.049504463 86
0.2795679 1.2578725 0.068490572 50
0.28951061 1.2399353 0.085100345 58
0.28444654 1.2490711 0.10647142 81
0.29302314 1.2335986 0.12237337 76
0.27745515 1.2616839 0.15063268 70
0.2860392 1.2501429 0.0095639192 91
0.28828517 1.2460575 0.02847076 100
0.27260599 1.2745779 0.05037602 84
0.28701049 1.2483761 0.067028143 51
0.28639436 1.2494969 0.086664692 57
0.28612041 1.2499952 0.10647142 81
0.2983982 1.227662 0.12057377 77
0.27731177 1.266018 0.15166797 69
0.28388786 1.2580842 0.0097035384 75
0.29186067 1.243461 0.028261416 100
0.2772302 1.2702951 0.049853086 85
0.28488097 1.2562628 0.068003096 51
0.29847127 1.2313364 0.083223134 60
0.2906169 1.2457423 0.10532656 82
0.27814445 1.2686183 -0.0099129668 97
0.2753458 1.2737515 0.15373851 76
0.28369102 1.2625282 0.0097733475 74
0.28971514 1.2513868 0.028680105 100
0.29224503 1.2467079 0.047412723 90
0.28374746 1.2624238 0.068734311 84
0.28947783 1.2518257 0.10647142 73
0.28273991 1.2642872 -0.0098082526 88
0.28078124 1.2679098 0.15166797 77
0.29297155 1.249356 0.0094941091 92
0.29328468 1.248772 0.02847076 100
0.28449556 1.2651637 0.049155839 87
0.28828213 1.2581017 0.068003096 51
0.29983118 1.2365628 0.083848871 59
0.29487225 1.2458112 0.10494494 82
0.28257701 1.2687417 -0.0098780617 87
0.2843467 1.2654413 0.15063268 70
0.29558519 1.2484847 0.009459204 93
0.2968328 1.2461382 0.028261416 100
0.28903174 1.2608099 0.048632905 88
0.2937153 1.2520014 0.067028143 51
0.29775178 1.2444099 0.085100345 58
0.29745638 1.2449654 0.10456333 75
0.28607774 1.2663655 0.15063268 70
0.29259381 1.2582144 0.0096337283 90
0.29849637 1.2470191 0.028261416 100
0.28888813 1.2652428 0.048981529 87
0.29539937 1.2528931 0.067028143 51
0.29820022 1.2475808 0.10494494 75
0.28420803 1.2741194 0.15270324 68
0.29059374 1.2661984 0.0097733475 74
0.29831237 1.2514341 0.02847076 100
0.28508005 1.2767451 0.050027397 85
0.29714012 1.2536764 0.1060898 66
0.28781441 1.2715149 -0.0098780617 97
0.29133946 1.2647719 0.14959741 70
0.29692867 1.258224 0.0095988233 91
0.291435 1.2688224 0.049155839 87
0.29329553 1.265233 0.068490572 50
0.29883 1.2545561 0.1060898 73
0.29232737 1.2671008 -0.0097733475 99
0.29484618 1.2622416 0.14856213 71
0.29666862 1.2625066 0.068003096 100
0.29992846 1.2561691 0.14649157 72
0.29746443 1.2652016 0.048632905 59
0.2972388 1.2656441 0.14907977 78
0.29846939 1.267946 0.048807215 58
0.29740173 1.2700596 0.15011504 78
0.2948162 1.2795902 -0.0099478718 100
0.2974188 1.2743931 0.15115032 77
0.29570743 1.282269 -0.0099827768 100
0.29838002 1.2813594 -0.0099478718 100
