# .PCD v0.7 - Point Cloud Data file format
VERSION 0.7
FIELDS x y z intensity
SIZE 4 4 4 4
TYPE F F F F
COUNT 1 1 1 1
WIDTH 762
HEIGHT 1
VIEWPOINT 0 0 0 1 0 0 0
POINTS 762
DATA ascii
0.055222273 0.0016663671 0.015951499 119
0.057030052 0.010021925 0.015811881 100
0.053283036 0.0042454004 0.047835063 52
0.055474311 0.013421237 0.015776975 32
0.049520314 0.0043121576 0.047939736 32
0.049047768 0.0093997717 0.047730394 20
0.039994419 0.013030946 0.047835063 37
0.039467514 0.018209875 0.047625721 19
0.028951705 0.0084580183 0.048358422 17
0.03889519 0.028280795 0.047207031 10
0.024919212 0.013662934 0.048253752 8
0.024702847 0.018682063 0.04804441 9
0.019783139 0.017254531 0.048253752 8
-0.42918456 0.55811387 0.017487312 1
-0.38098556 0.57177323 0.01661469 19
-0.38754368 0.57379532 0.016719405 46
-0.37255317 0.58029139 0.016440166 66
-0.37712997 0.58272099 0.016509976 57
-0.37192553 0.58728659 0.016405262 43
-0.38433504 0.5882144 0.01661469 52
-0.36921954 0.5943169 0.016335452 71
-0.35803455 0.59973788 0.016126024 78
-0.36061925 0.60270578 0.016160928 88
-0.36707294 0.604662 0.016265642 89
-0.37352359 0.60665923 0.016370358 79
-0.37800068 0.60903913 0.016440166 31
-0.38649821 0.61126691 0.016579786 29
-0.4106915 0.61044168 0.016998643 7
-0.43887585 0.60930562 0.017487312 5
-0.45520216 0.61007214 0.01776655 5
-0.48347348 0.60964042 0.018255217 5
-0.499816 0.61066794 0.018534455 8
-0.51022881 0.61268258 0.01870898 10
-0.54438776 0.61132133 0.019302361 15
-0.56674236 0.61225694 0.019686315 19
-0.57716411 0.61459547 0.019860838 5
-1.0662303 1.138682 0.02893609 3
-1.0116856 1.1262398 0.083946876 5
-1.0486703 1.1346763 0.14345835 6
-1.0357127 1.1375484 0.028412517 8
-0.99292153 1.12763 0.083004825 13
-1.0163326 1.1330564 0.14066938 19
-0.9974373 1.1343731 0.027749326 20
-1.0033283 1.1357603 0.083632857 82
-1.0169952 1.1389784 0.14084367 71
-0.9805972 1.1360514 0.027470088 37
-1.0098121 1.1430384 0.084051549 100
-1.0176353 1.1449094 0.14101799 100
-0.98125333 1.1418639 0.027504992 42
-0.97744685 1.1409395 0.082376793 100
-1.0105088 1.1489686 0.14049506 86
-0.98577064 1.1486428 0.027609708 26
-0.97226435 1.1453128 0.082167454 100
-1.0091765 1.1544135 0.14049506 86
-0.98637944 1.1544868 0.027644612 23
-0.98256999 1.1535335 0.082795486 56
-0.99429566 1.1564679 0.13927488 84
-0.96758443 1.1554173 0.027330469 37
-0.97735029 1.1578976 0.082586139 38
-0.98521286 1.1598943 0.13857763 77
-0.96429342 1.1602134 0.027295563 61
-0.9895255 1.1667154 0.083318844 46
-0.97612506 1.1632622 0.13788038 91
-0.96098739 1.1649911 0.027260659 66
-0.96301109 1.1655202 0.081958108 94
-0.98630875 1.1716104 0.13892625 89
-0.95959944 1.1702631 0.027260659 75
-0.96355182 1.171311 0.082062781 98
-0.98489743 1.1769707 0.13892625 94
-0.96398634 1.1770878 0.027365373 81
-0.95056921 1.1734802 0.081434749 98
-0.96615106 1.1776699 0.13735744 100
-0.94712192 1.1781622 0.027086135 92
-0.95107859 1.1792409 0.081539422 100
-0.96471888 1.1829598 0.13735744 100
-0.94190508 1.1820599 0.027016325 93
-0.95548886 1.1858118 0.081853434 100
-0.96526152 1.1885109 0.13753176 94
-0.94045764 1.1872652 0.027016325 93
-0.94633502 1.1889105 0.081434749 86
-0.96379143 1.1937976 0.13753176 94
-0.94291347 1.1932963 0.027086135 83
-0.93340844 1.1906013 0.080806717 78
-0.95662731 1.1971847 0.13700883 100
-0.96449012 1.2051313 0.027504992 50
-0.93001169 1.1952252 0.080702044 50
-0.94363743 1.1991401 0.13596296 100
-0.94560593 1.2056462 0.027190849 42
-0.92269057 1.1989713 0.080388032 22
-0.9439674 1.205169 0.13613728 85
-0.9229787 1.2046388 0.026806897 68
-0.92884654 1.2063704 0.080806717 26
-0.93861741 1.2092534 0.13578865 84
-0.9118728 1.2069147 0.026632372 75
-0.91009182 1.2063824 0.079864666 29
-0.93516606 1.2138765 0.13561434 92
-0.92756432 1.2172288 0.026946515 78
-0.92002934 1.2149481 0.080492698 68
-0.94123548 1.2213668 0.13631158 99
-0.92423993 1.2212831 0.026911611 83
-0.91289479 1.2178103 0.080178685 100
-0.92266399 1.2208006 0.13474278 100
-0.91310531 1.2234664 0.026737086 83
-0.91704601 1.2246878 0.080492698 90
-0.91156596 1.2229893 0.13387123 84
-0.89617044 1.2240341 0.026457848 83
-0.92489737 1.233053 0.081016064 72
-0.92510313 1.2331176 0.13526571 54
-0.90219992 1.2315019 0.026597468 77
-0.90043062 1.2309396 0.07976 74
-0.91967994 1.237057 0.1349171 43
-0.8966915 1.2355962 0.026527658 81
-0.89873141 1.2362527 0.07976 89
-0.91416508 1.2412198 0.13456847 43
-0.89886028 1.2418817 0.026597468 93
-0.89519602 1.2406883 0.079655327 100
-0.91251129 1.2463278 0.13456847 57
-0.88597411 1.2426797 0.026388038 96
-0.9012987 1.2477241 0.080074012 100
-0.90154511 1.2478052 0.13369691 78
-0.88052088 1.2464256 0.02631823 100
-0.90151721 1.2534183 0.080178685 100
-0.90931994 1.256017 0.13456847 85
-0.87876505 1.2516656 0.02631823 100
-0.89027256 1.2555449 0.079655327 100
-0.90564078 1.2607259 0.13439415 78
-0.87707502 1.25665 0.02631823 92
-0.87344605 1.2554123 0.078817949 100
-0.9001475 1.2645179 0.13404553 87
-0.87914842 1.2629324 0.026388038 96
-0.8830716 1.2642856 0.07944598 100
-0.8908785 1.2669783 0.13334829 100
-0.86609036 1.2639663 0.02617861 85
-0.87002248 1.2653379 0.078817949 99
-0.89289731 1.2733173 0.13369691 66
-0.86067265 1.2673298 0.0261088 79
-0.87779027 1.2733645 0.079341307 61
-0.90249461 1.282074 0.13474278 35
-0.86834604 1.2756083 0.026283324 88
-0.85156757 1.2696271 0.077980578 25
-0.89131469 1.2837961 0.13387123 36
-0.8646912 1.2798781 0.02624842 96
-0.85169393 1.2751937 0.078085244 31
-0.8857637 1.287473 0.1335226 31
-0.85538739 1.2820748 0.0261088 99
-0.85742825 1.2828184 0.078503937 72
-0.86897272 1.2870247 0.1321281 16
-0.84617525 1.2839692 0.025969181 100
-0.85197133 1.2861028 0.07829459 100
-0.86538059 1.2910392 0.13195379 13
-0.83312768 1.2846553 0.025759751 100
-0.8520332 1.29169 0.078399263 100
-0.89529747 1.3077885 0.1349171 1
-0.8349753 1.2911298 0.025829561 100
-0.83328789 1.2904949 0.077457212 44
-0.88958722 1.3116789 0.13456847 1
-0.84062427 1.298804 0.025969181 93
-0.82212836 1.2917708 0.076933853 54
-0.85044187 1.3025374 0.13108224 7
-0.83690327 1.3029377 0.025934275 75
-0.83521348 1.3022885 0.077771232 57
-0.86531264 1.3138545 0.13265105 43
-0.83130628 1.3063282 0.025864467 72
-0.83334702 1.3071206 0.077771232 68
-0.83926076 1.3094168 0.130385 93
-0.8220734 1.3079859 0.025724847 88
-0.82969886 1.3109758 0.077666558 59
-0.84859365 1.3183844 0.13143086 100
-0.81832796 1.3120356 0.025689943 100
-0.82223147 1.3135819 0.077352546 76
-0.83185214 1.3173929 0.13003637 99
-0.82385379 1.3197805 0.025829561 100
-0.82032567 1.3183687 0.077352546 97
-0.8354823 1.3244339 0.1305593 100
-0.8219263 1.3245728 0.025829561 100
-0.80544132 1.317909 0.076619841 96
-0.82984418 1.3277733 0.13021068 100
-0.80887419 1.3248229 0.025620133 100
-0.81831306 1.3286768 0.077457212 100
-0.82419962 1.3310802 0.12986206 100
-0.80323189 1.3280382 0.025550323 100
-0.81266171 1.3319268 0.077247873 95
-0.81302315 1.3320758 0.1289905 100
-0.8013739 1.3325226 0.025550323 100
-0.79603964 1.3303022 0.076410495 100
-0.82218808 1.3411868 0.13003637 100
-0.78050929 1.3238375 0.17695428 22
-0.79940206 1.3372364 0.025550323 100
-0.79039329 1.3334494 0.076201156 100
-0.81651253 1.344429 0.12968774 100
-0.79137784 1.3338633 0.17866045 22
-0.79741389 1.3419433 0.025550323 100
-0.78474134 1.3365641 0.075991809 81
-0.797993 1.3421891 0.12811895 100
-0.76930124 1.3300102 0.17597933 16
-0.80643708 1.3513696 0.025759751 61
-0.808456 1.352235 0.077457212 40
-0.79965001 1.3484607 0.12846756 45
-0.78193504 1.340868 0.17792924 9
-0.80623478 1.3568952 0.025794657 83
-0.81924635 1.3625257 0.078189917 78
-0.82139343 1.3634549 0.13073361 39
-0.78539962 1.3478789 0.17866045 10
-0.79135066 1.3560216 0.025550323 100
-0.8061884 1.3625041 0.077561885 100
-0.81201047 1.3650477 0.13003637 93
-0.77973622 1.3509474 0.17817298 28
-0.79295617 1.3623142 0.025620133 100
-0.80045706 1.3656225 0.077352546 100
-0.82815462 1.3778386 0.13177948 100
-0.78496534 1.3587899 0.17914793 33
-0.80001456 1.3710651 0.025794657 100
-0.80384356 1.37277 0.077666558 100
-0.80600303 1.3737314 0.12986206 100
-0.76476723 1.3553721 0.17671055 24
-0.79618984 1.3747193 0.025759751 100
-0.80365914 1.3780745 0.077771232 100
-0.80035859 1.3765919 0.12951343 100
-0.78092664 1.3678629 0.17914793 21
-0.7922495 1.3785889 0.025724847 100
-0.80880433 1.386095 0.078189917 100
-0.80912048 1.3862383 0.1305593 100
-0.76979202 1.3684065 0.17792924 20
-0.79204243 1.3838685 0.025759751 100
-0.80857009 1.3914285 0.07829459 100
-0.8106932 1.3923995 0.13090792 100
-0.75877434 1.3686512 0.17671055 15
-0.79715377 1.3919019 0.025899371 100
-0.80639261 1.3961669 0.07829459 100
-0.81574804 1.4004858 0.13160518 100
-0.75847894 1.374048 0.17695428 11
-0.80222529 1.3999784 0.026038991 100
-0.80238825 1.4000543 0.078189917 100
-0.7990908 1.3985181 0.13021068 100
-0.76715881 1.3836416 0.17841671 8
-0.79096955 1.4004407 0.025864467 100
-0.80741054 1.4081702 0.07860861 100
-0.80410093 1.4066143 0.13090792 100
-0.77758402 1.3941476 0.18012288 5
-0.78514737 1.4034035 0.025794657 100
-0.81058806 1.4154727 0.078922622 100
-0.80547065 1.413045 0.13125655 100
-0.77719074 1.3996289 0.18036664 3
-0.78653568 1.4097871 0.025864467 100
-0.80292219 1.4176311 0.07860861 100
-0.80321771 1.4177725 0.13125655 100
-0.7968989 1.4205364 0.0261088 100
-0.79885489 1.4214811 0.078503937 100
-0.81171292 1.4276915 0.13230242 100
-0.80181032 1.4287379 0.02624842 100
-0.80195886 1.4288104 0.078817949 100
-0.80582672 1.4306951 0.13195379 100
-0.79232448 1.4299235 0.0261088 100
-0.80323559 1.4352878 0.079027295 100
-0.80351216 1.4354239 0.13195379 100
-0.78284687 1.4310511 0.025969181 100
-0.80985147 1.4444447 0.079550654 100
-0.80475098 1.4419149 0.13230242 100
-0.79137856 1.440834 0.02617861 100
-0.80224854 1.4462702 0.079236634 100
-0.80429739 1.447295 0.13247673 100
-0.79259938 1.4473135 0.02624842 100
-0.79631323 1.4491872 0.079027295 100
-0.81081921 1.4565051 0.13334829 100
-0.79735583 1.4556236 0.026388038 100
-0.79927438 1.4566 0.079341307 100
-0.811966 1.4630582 0.13369691 100
-0.79495436 1.4603226 0.026388038 100
-0.80397695 1.4649537 0.07976 100
-0.80422086 1.4650788 0.13317397 100
-0.78531247 1.461569 0.02624842 100
-0.8067413 1.4726672 0.080074012 100
-0.80520254 1.4718702 0.1335226 100
-0.78643519 1.4680775 0.02631823 100
-0.79188818 1.4709258 0.079341307 100
-0.80627626 1.4784414 0.13387123 100
-0.79119045 1.4762323 0.026457848 96
-0.78955644 1.4753718 0.079341307 100
-0.8109712 1.4866483 0.13456847 100
-0.79578155 1.4846611 0.026597468 38
-0.78708607 1.4800434 0.079341307 38
-0.79614371 1.4848534 0.13334829 80
-0.19215065 1.4548368 0.01762693 5
-0.20733398 1.4737582 0.018045789 3
-0.19173187 1.4641004 0.017731644 12
-0.18057257 1.4584568 0.017522216 17
-0.17961544 1.4623792 0.01755712 19
-0.18756008 1.4743353 0.017801454 12
-0.19806927 1.4893804 0.018115599 5
-0.2027362 1.4989429 0.018290121 3
-0.19302887 1.4945853 0.018115599 3
-0.18193442 1.4887679 0.017906168 7
0.13522464 1.2829367 0.12822364 5
0.14070842 1.2799668 0.011413874 12
0.13745669 1.2840183 0.03454173 27
0.16091004 1.254796 0.054385185 25
0.099937797 1.3307658 0.11388429 9
0.14816704 1.2706735 0.12478908 18
0.12799224 1.2958107 0.18065569 6
0.16483837 1.253175 0.010785587 39
0.15659291 1.2635188 0.033076324 58
0.15755212 1.2623155 0.055082429 50
0.15156519 1.2698259 0.078483857 14
0.15720922 1.2627456 0.099805191 24
0.14493451 1.2781439 0.12631555 64
0.18922946 1.2225771 0.13362093 15
0.14539269 1.2775692 0.1739264 14
0.15784022 1.2654927 0.011029921 100
0.1744315 1.2445297 0.031715591 92
0.14814469 1.277743 0.056651235 95
0.16193599 1.2603178 0.076777689 29
0.17486855 1.2439774 0.095737889 25
0.15889469 1.2641604 0.12249938 100
0.19081146 1.2238337 0.13362093 46
0.1483658 1.2774637 0.17340876 42
0.16204327 1.2637138 0.010960111 100
0.17115411 1.2521194 0.032134276 8
0.15361255 1.2744429 0.056128297 100
0.16487637 1.2601085 0.076533951 14
0.18384838 1.2359648 0.093860678 52
0.16911313 1.2547169 0.11982805 100
0.19360185 1.2235525 0.13317102 38
0.15491408 1.2727866 0.1713382 43
0.16991919 1.2571819 0.010785587 100
0.17652494 1.2487148 0.03182026 100
0.1578269 1.2726817 0.055779677 98
0.17025268 1.2567544 0.075802729 30
0.18304697 1.2403549 0.094486415 26
0.17201504 1.2544955 0.11944643 100
0.17361078 1.2524501 0.14126927 36
0.15073001 1.2817783 0.1739264 35
0.17774472 1.2506011 0.010611063 81
0.17819825 1.2500155 0.03182026 61
0.16568422 1.2661718 0.054908119 75
0.1768164 1.2517996 0.074827775 30
0.17259473 1.25725 0.097615108 24
0.18813506 1.2371866 0.11486702 40
0.18723035 1.2383547 0.13677025 30
0.15725079 1.2770598 0.17185585 29
0.1757676 1.2566531 0.010715778 66
0.19083369 1.2370611 0.030878214 63
0.16134581 1.2754073 0.055779677 49
0.18576106 1.2436576 0.073365346 46
0.17670619 1.2554326 0.096989371 37
0.17780021 1.25401 0.1186832 13
0.18886742 1.2396181 0.13677025 22
0.14371383 1.298336 0.17858514 54
0.1774686 1.2579565 0.010715778 53
0.18034643 1.254187 0.031924933 30
0.16794845 1.2704263 0.055082429 50
0.18741664 1.2449261 0.073365346 62
0.18799254 1.2441719 0.094486415 52
0.18902275 1.2428224 0.11563025 13
0.210612 1.2145439 0.1291219 32
0.16666174 1.2721118 0.16926765 59
0.16951096 1.2720032 0.010995016 38
0.16756165 1.274575 0.033180997 28
0.17330807 1.2669934 0.054559495 50
0.18907666 1.2461889 0.073365346 62
0.20038882 1.231264 0.091670595 54
0.19660485 1.2362565 0.11372216 13
0.20392597 1.2265973 0.13227122 39
0.17891905 1.2595904 0.16460891 69
0.18088424 1.2605453 0.010715778 39
0.16692355 1.2790987 0.033390339 28
0.17863902 1.2635292 0.054036561 51
0.18477333 1.2553768 0.074584037 76
0.20437649 1.2293247 0.091044858 54
0.20413664 1.2296435 0.11181407 14
0.20552188 1.2278025 0.13227122 47
0.18295339 1.2577955 0.16357364 69
0.18730107 1.2553593 0.010576159 54
0.18535185 1.2579677 0.031924933 30
0.18027765 1.2647579 0.054036561 51
0.19113803 1.2502247 0.073609084 46
0.19525933 1.2447096 0.093860678 52
0.20683798 1.2292151 0.11143246 14
0.20237583 1.2351865 0.13407083 31
0.17994735 1.2651999 0.16564418 68
0.18542323 1.2614404 0.010680873 80
0.2013371 1.2399889 0.03066887 32
0.18556815 1.261245 0.053513627 52
0.19399923 1.2498802 0.073365346 62
0.20044938 1.2411855 0.092922069 53
0.20610359 1.2335638 0.11219569 14
0.208646 1.2301366 0.13227122 31
0.17937616 1.2695917 0.16667947 67
0.18468273 1.2658666 0.010750682 79
0.21829802 1.2202386 0.029308135 68
0.17301804 1.2816997 0.055605363 73
0.19676998 1.2494599 0.073121607 62
0.21138716 1.229619 0.090419121 82
0.2088072 1.233121 0.11181407 14
0.21479726 1.2249904 0.13047162 24
0.1833266 1.2677073 0.16564418 68
0.18877679 1.2639105 0.010680873 80
0.20336524 1.2439634 0.030773543 64
0.18068728 1.2749716 0.054733805 75
0.20313314 1.2442807 0.072146654 63
0.21182749 1.2323928 0.090731993 95
0.21042588 1.2343092 0.11181407 14
0.22559062 1.2135741 0.12687239 16
0.18848741 1.2643063 0.16409127 77
0.20007002 1.2523451 0.010401634 83
0.20401484 1.2469075 0.030878214 63
0.19315869 1.2618717 0.053165004 100
0.20262542 1.2488227 0.072634131 78
0.20896551 1.2400835 0.091983467 93
0.21105835 1.2371987 0.11219569 14
0.2158528 1.23059 0.13137141 7
0.18811923 1.2688181 0.16512655 76
0.19941863 1.256809 0.010471444 96
0.20918322 1.2432501 0.030564198 97
0.19022048 1.2695813 0.053862248 100
0.20661908 1.2468107 0.072146654 63
0.21060848 1.241271 0.091983467 93
0.21613315 1.2335997 0.11105084 14
0.23796147 1.2032894 0.12327318 8
0.19776532 1.2591047 0.16150309 78
0.20568776 1.2514627 0.010331824 98
0.21075442 1.2443777 0.030564198 97
0.19187912 1.2707717 0.053862248 100
0.21743992 1.2350292 0.07019674 82
0.20642778 1.2504278 0.093547814 100
0.21196225 1.2426889 0.11295892 13
0.24053359 1.2027366 0.12282328 17
0.19826543 1.2618415 0.16202073 70
0.19579515 1.2689677 0.010680873 93
0.21703687 1.2390445 0.030145511 98
0.18670952 1.2817667 0.054908119 100
0.2029781 1.2588491 0.073609084 77
0.21725452 1.2387379 0.091044858 95
0.20224991 1.2598749 0.1167751 26
0.23302174 1.2165267 0.12642249 16
0.1955114 1.2693675 0.16409127 69
0.19984269 1.2669318 0.010611063 94
0.21522489 1.2451019 0.030459527 97
0.19538388 1.2732596 0.053862248 100
0.20926028 1.2535666 0.072634131 78
0.22230622 1.2350523 0.090106249 96
0.19830781 1.2691101 0.1186832 52
0.23121488 1.2224095 0.1277722 32
0.2061587 1.2579683 0.15995017 72
0.20845616 1.2583191 0.010401634 97
0.210017 1.2560875 0.031087559 94
0.2062782 1.261433 0.052467756 100
0.21095034 1.2547531 0.072634131 78
0.21827066 1.244287 0.091670595 100
0.20567834 1.2622907 0.1167751 99
0.22944528 1.2283101 0.1291219 56
0.20786414 1.2591655 0.15995017 72
0.21472436 1.2529378 0.010262015 98
0.22424486 1.2392242 0.029936166 99
0.20572326 1.2659031 0.05281638 100
0.21943688 1.2461498 0.071171694 65
0.22218129 1.2421967 0.091044858 100
0.22195381 1.2425244 0.11181407 91
0.21882236 1.247035 0.13407083 93
0.20957372 1.2603569 0.15995017 72
0.20960426 1.2639849 0.010471444 82
0.2247515 1.2420031 0.03004084 66
0.20293435 1.2736642 0.053513627 100
0.21884826 1.2505699 0.071659178 64
0.22495243 1.2417115 0.090731993 100
0.22583318 1.2404333 0.11105084 84
0.23154694 1.2321415 0.12957181 96
0.20251819 1.2742682 0.16409127 69
0.21576098 1.2585095 0.010331824 84
0.23534098 1.2298923 0.029203463 100
0.20235637 1.2781011 0.053862248 100
0.22941121 1.2385589 0.069709264 83
0.22986481 1.237896 0.089793384 97
0.22296053 1.2479869 0.1125773 89
0.23418161 1.2315867 0.1291219 96
0.2096467 1.2674458 0.16150309 70
0.21859166 1.258019 0.010296919 70
0.23133796 1.2392492 0.029726824 67
0.20749003 1.2743667 0.053339314 78
0.22547269 1.2478862 0.070927955 65
0.23260978 1.2373763 0.089480512 97
0.21911627 1.2572464 0.1144854 100
0.2314156 1.2391348 0.13092151 96
0.2124705 1.2670326 0.16098544 72
0.21359137 1.269122 0.010506349 40
0.22293141 1.2552644 0.03066887 32
0.22150177 1.2573855 0.051421888 55
0.22159541 1.2572466 0.072146654 79
0.23534721 1.2368433 0.089167647 100
0.22191638 1.2567704 0.11410378 100
0.23196599 1.24186 0.13137141 100
0.21852639 1.2618001 0.15891489 73
0.21533567 1.2702932 0.010506349 40
0.23351121 1.2431225 0.029831495 33
0.22431284 1.2568733 0.051247578 55
0.23212799 1.2451903 0.07019674 82
0.23148713 1.2461483 0.090731993 100
0.23125857 1.24649 0.11143246 98
0.22928098 1.2494463 0.13317102 93
0.21594864 1.269377 0.16098544 72
0.22142184 1.2647371 0.010366729 27
0.20856246 1.2840995 0.032343622 30
0.22152004 1.2645893 0.051944822 54
0.23590201 1.2429345 0.069709264 83
0.23525357 1.2439109 0.090106249 96
0.2306681 1.2508152 0.11219569 98
0.23949769 1.2375205 0.12957181 96
0.21974406 1.2672634 0.15995017 72
0.21874878 1.2725596 0.010506349 27
0.2213507 1.2686121 0.031296901 31
0.21447662 1.2790413 0.053339314 52
0.23100001 1.2539726 0.071171694 65
0.24125823 1.2384093 0.088854775 98
0.22478527 1.2634014 0.11486702 87
0.24863878 1.227212 0.12642249 99
0.21616602 1.2764782 0.16253836 70
0.2226944 1.270366 0.010436539 27
0.22309318 1.2697563 0.031296901 31
0.22170889 1.2718725 0.052467756 53
0.22834462 1.2617283 0.072146654 79
0.23965108 1.2444435 0.089793384 100
0.23403257 1.2530328 0.11219569 98
0.24383593 1.2380461 0.1291219 96
0.22851127 1.2614734 0.15736198 74
0.23097593 1.2614417 0.01022711 42
0.22266465 1.2742449 0.031506244 31
0.2299718 1.2629886 0.051421888 55
0.24303344 1.2428677 0.069221787 100
0.24453583 1.2405534 0.088854775 98
0.23785856 1.2508394 0.11143246 91
0.24547157 1.2391119 0.1291219 96
0.22707316 1.2674538 0.15891489 73
0.24135697 1.2491038 0.0099478718 58
0.24822283 1.238446 0.029203463 34
0.22953659 1.2674525 0.051770512 54
0.2414608 1.2489427 0.069953002 49
0.24725002 1.2399561 0.08854191 84
0.2480447 1.2387226 0.10837951 79
0.24816629 1.2385337 0.128672 97
0.23508886 1.2588338 0.15580906 75
0.23656875 1.2602873 0.0101573 71
0.25631449 1.2293999 0.028575432 70
0.22805554 1.2736042 0.052293446 80
0.24741137 1.2433267 0.068978049 50
0.25102028 1.2376814 0.087916173 70
0.23699322 1.2596233 0.11295892 96
0.25400218 1.233017 0.12687239 90
0.23263496 1.2664407 0.15787962 73
0.23613968 1.2647556 0.01022711 84
0.25150055 1.2405415 0.029203463 68
0.23301727 1.2696776 0.051770512 54
0.24693868 1.2477325 0.069465525 49
0.25477096 1.235386 0.087290429 85
0.25132433 1.2408192 0.10837951 79
0.2608397 1.2258196 0.12462288 92
0.23023039 1.2740707 0.15995017 64
0.23680332 1.2675405 0.010262015 84
0.25420886 1.2398902 0.029098792 100
0.23794758 1.2657226 0.051247578 82
0.23803297 1.2655871 0.071902916 64
0.25639725 1.2364137 0.087290429 71
0.23832726 1.2651196 0.11372216 100
0.26139444 1.2284753 0.12507279 83
0.23610848 1.2686443 0.15787962 65
0.24172011 1.2635427 0.0101573 85
0.24738616 1.2544715 0.029936166 99
0.23862439 1.2684988 0.051421888 82
0.24817795 1.2532039 0.069953002 49
0.26012012 1.234085 0.086664692 71
0.25461853 1.2428929 0.10837951 79
0.25989941 1.2344384 0.12642249 90
0.24194473 1.263183 0.15580906 67
0.24871203 1.2561171 0.0099827768 87
0.24697477 1.2589202 0.030145511 100
0.24036637 1.2695826 0.051421888 82
0.2571868 1.2424434 0.068246834 34
0.25966057 1.2384521 0.087290429 57
0.25109974 1.2522647 0.1102876 92
0.25946915 1.2387609 0.1273223 89
0.24366814 1.2642553 0.15580906 67
0.25137353 1.2554104 0.0099478718 87
0.25383043 1.2514167 0.029622151 100
0.24306872 1.2689097 0.051247578 82
0.25147399 1.2552471 0.069953002 49
0.25500518 1.2495072 0.089167647 56
0.26195908 1.2382038 0.10685304 73
0.26613078 1.2314229 0.12507279 100
0.24125978 1.2718501 0.15787962 65
0.25098604 1.2598635 0.010017681 72
0.26487803 1.2371048 0.028680105 100
0.24065989 1.2767804 0.051944822 81
0.25316963 1.2562861 0.069953002 49
0.26285592 1.2404175 0.087290429 71
0.25132069 1.2593153 0.11143246 77
0.26977378 1.2290843 0.12417299 92
0.24301344 1.2729247 0.15787962 65
0.2495901 1.2660357 0.010122396 85
0.26030245 1.2483475 0.029308135 100
0.24036655 1.2812655 0.052293446 80
0.26001054 1.2488295 0.068734311 50
0.27166283 1.2295893 0.085100345 58
0.24997947 1.2653928 0.1125773 89
0.26633051 1.238394 0.12642249 90
0.25277686 1.2607737 0.15373851 68
0.25956279 1.2533687 0.0098431576 88
0.27020326 1.23566 0.02847076 100
0.25857159 1.2550184 0.049504463 86
0.25452694 1.2617497 0.070440479 49
0.27632096 1.2254784 0.084161744 59
0.2668778 1.2411945 0.10685304 81
0.26796722 1.2393813 0.12642249 90
0.25051188 1.2684319 0.15580906 75
0.25920397 1.2578149 0.0099129668 87
0.26364899 1.2503583 0.029308135 100
0.25822604 1.2594554 0.049853086 85
0.27047563 1.2389065 0.067028143 51
0.26577482 1.2467922 0.087916173 56
0.26349795 1.2506117 0.10876112 79
0.27359876 1.2336674 0.12462288 83
0.25225356 1.2694743 0.15580906 67
0.26599815 1.2502209 0.0097384425 90
0.26736087 1.2479167 0.029098792 100
0.25080845 1.2759054 0.051421888 82
0.26807213 1.246714 0.068003096 68
0.26945198 1.2443808 0.087290429 85
0.26417798 1.2532986 0.10914274 85
0.2772029 1.2312746 0.12372308 83
0.25596565 1.267185 0.15477379 67
0.2626166 1.2598331 0.0099129668 87
0.2750949 1.2385644 0.02847076 100
0.25358441 1.2752281 0.051247578 82
0.27275145 1.2425587 0.067271881 69
0.27110958 1.2453573 0.087290429 57
0.26288632 1.2593734 0.1102876 92
0.27881473 1.2322241 0.12372308 83
0.24988228 1.2815382 0.15891489 65
0.26734585 1.2556484 0.0098082526 74
0.26869488 1.2533306 0.029308135 100
0.25935864 1.2693719 0.05055033 84
0.26441729 1.2606802 0.069709264 99
0.27873251 1.2360842 0.085413218 58
0.27348429 1.2451016 0.10685304 66
0.28239036 1.2297994 0.12282328 85
0.2653341 1.259105 -0.0098780617 76
0.26138732 1.2658863 0.15373851 68
0.2730422 1.249705 0.0096686333 75
0.2693851 1.2560393 0.029412808 100
0.2690731 1.2565796 0.049155839 87
0.26712435 1.2599549 0.069465525 49
0.27838573 1.2404497 0.086038955 58
0.27318114 1.2494643 0.10761628 79
0.28399697 1.2307308 0.12282328 85
0.26891559 1.2568525 0.15063268 70
0.27670595 1.2471983 0.0095988233 91
0.27406117 1.2518164 0.029098792 100
0.2678028 1.2627441 0.049678773 86
0.2727825 1.2540491 0.068490572 50
0.27708441 1.2465374 0.086977564 57
0.27485648 1.2504277 0.10761628 79
0.28463838 1.2333475 0.12327318 85
0.26293612 1.2712419 0.15477379 67
0.27639788 1.2516268 0.0096686333 90
0.28561002 1.2354106 0.028052073 100
0.26657215 1.2689233 0.050201707 85
0.27447385 1.2550137 0.068490572 50
0.27972522 1.2457696 0.086664692 71
0.27847463 1.2479711 0.10685304 81
0.29299533 1.22241 0.12012386 77
0.26468751 1.2722409 0.15477379 67
0.27611744 1.2560632 0.0097384425 75
0.28331435 1.2432908 0.02847076 100
0.26929352 1.2681737 0.050027397 85
0.27616853 1.2559726 0.068490572 50
0.28817567 1.2346634 0.084474608 59
0.27339834 1.2608889 0.10952436 85
0.29361945 1.2250022 0.12057377 86
0.26739076 1.2715507 0.15425615 67
0.27001122 1.270981 0.010017681 87
0.28107053 1.2511926 0.028889447 100
0.27589419 1.2604545 0.049155839 87
0.27980345 1.2534598 0.068003096 51
0.29172665 1.2321258 0.083848871 59
0.27798691 1.2567101 0.10837951 79
0.29615998 1.2241932 0.12012386 86
0.27684021 1.2587619 -0.0097733475 88
0.27102816 1.2691613 0.15322088 68
0.28145638 1.2544655 0.0096686333 75
0.28081527 1.2556221 0.029098792 100
0.28243753 1.2526954 0.048284281 88
0.2795679 1.2578725 0.068490572 50
0.28855294 1.241663 0.085413218 58
0.28254291 1.2525053 0.10723466 88
0.28924406 1.2404162 0.12417299 83
0.27273116 1.2702062 -0.0099827768 86
0.27277225 1.2701321 0.15322088 68
0.28700256 1.2483906 0.0095290141 76
0.28058767 1.2600591 0.029308135 100
0.2678068 1.2833076 0.051247578 82
0.28318518 1.2553344 0.068003096 51
0.28734601 1.2477659 0.086351827 58
0.28990364 1.2431135 0.10494494 82
0.29558176 1.232785 0.12192347 76
0.27447888 1.2711711 -0.0099827768 86
0.27731177 1.266018 0.15166797 77
0.2885904 1.2492601 0.0095290141 76
0.28986529 1.2469227 0.02847076 100
0.28000504 1.2650002 0.049330149 87
0.2885983 1.2492456 0.067028143 51
0.29555306 1.236495 0.084161744 59
0.28301311 1.2594852 0.10837951 79
0.27433282 1.2753994 0.15425615 67
0.28455648 1.2607229 0.0097384425 75
0.29343215 1.2443144 0.028261416 100
0.27415106 1.2799592 0.05072464 84
0.2940506 1.2431711 0.066053182 52
0.29060411 1.2495426 0.086351827 58
0.29126188 1.2483265 0.10570818 81
0.27789661 1.2730348 -0.0099827768 86
0.27609867 1.2763586 0.15425615 67
0.28807637 1.2580763 0.0096686333 90
0.29878411 1.2381232 0.027842728 100
0.28526485 1.2633154 0.048981529 87
0.28811178 1.2580104 0.068003096 51
0.29006445 1.2543716 0.10685304 73
0.2871308 1.2598383 -0.0097035384 89
0.28508726 1.2636464 0.15011504 78
0.28986701 1.2590331 0.0096686333 75
0.29674971 1.246094 0.028261416 100
0.28894609 1.2607644 0.048632905 88
0.29549569 1.2484515 0.066540658 52
0.29674131 1.2461098 0.085413218 58
0.2936855 1.2518545 0.1060898 73
0.28704971 1.2643294 -0.0097733475 88
0.29052734 1.2577918 0.1480445 71
0.29615638 1.2510502 0.0094941091 92
0.29087299 1.2610626 0.029098792 100
0.29894349 1.2457684 0.047064099 91
0.29337797 1.2563155 0.067515619 51
0.29924342 1.2452 0.085100345 58
0.29620105 1.2509656 0.10570818 73
0.28962365 1.2634301 -0.0097384425 88
0.28493366 1.272318 0.1521856 69
0.29969126 1.2483897 0.0094242999 93
0.29044527 1.2660606 0.048981529 87
0.29231617 1.2624849 0.068246834 34
0.29697129 1.2535881 0.1060898 81
0.2857852 1.274967 -0.0099478718 96
0.28489745 1.2766635 0.15322088 68
0.29851547 1.2545418 0.0095290141 76
0.28750256 1.2757605 0.049853086 57
0.29486519 1.2615747 0.068003096 51
0.28746119 1.2758403 -0.0099478718 96
0.29191867 1.267252 0.15011504 70
0.29754904 1.2607949 0.0096337283 100
0.29482606 1.2660887 0.048807215 58
0.29114631 1.2732427 -0.0098780617 100
0.29727751 1.2613229 0.1480445 79
0.29736042 1.2651919 0.0097035384 90
0.29281655 1.2740983 -0.0098780617 100
0.29890817 1.2621582 0.1480445 71
0.29809883 1.2682474 0.14959741 78
0.29975247 1.2690799 0.14959741 78
0.29995209 1.2734976 0.15063268 78
