# .PCD v0.7 - Point Cloud Data file format
VERSION 0.7
FIELDS x y z intensity
SIZE 4 4 4 4
TYPE F F F F
COUNT 1 1 1 1
WIDTH 726
HEIGHT 1
VIEWPOINT 0 0 0 1 0 0 0
POINTS 726
DATA ascii
0.056763023 0.001999259 0.047835063 68
0.048274755 0.00035500526 0.048149079 38
0.045591235 0.0021110177 0.048149079 25
0.046220958 0.0088728666 0.047835063 100
0.04578352 0.013959289 0.047625721 86
0.037577748 0.0074352026 0.048149079 53
0.032679498 0.0059208274 0.048358422 25
0.036768615 0.017630875 0.047730394 19
0.027357876 0.0095509887 0.048358422 17
0.03292644 0.022693694 0.047625721 9
0.016615152 0.0048416853 0.048881784 7
0.015977979 0.010163486 0.048672438 8
0.01332891 0.012032211 0.048672438 8
-1.0179632 1.125657 0.084260888 5
-1.0374565 1.1300786 0.14241248 4
-1.0284297 1.1335387 0.028272899 8
-0.99731201 1.1263719 0.083214171 7
-1.0207212 1.1317635 0.14101799 13
-1.0056057 1.1345776 0.027888946 12
-1.001766 1.1336777 0.083528183 58
-1.0232003 1.1387011 0.14136662 53
-0.99660653 1.1378832 0.027749326 36
-0.9927792 1.1369728 0.083109498 100
-1.0180924 1.1429939 0.14101799 95
-0.97982711 1.1392564 0.027470088 37
-0.99737829 1.1434927 0.083423518 100
-1.0032895 1.1449194 0.13979781 86
-0.9824788 1.1452787 0.027539898 32
-0.99031144 1.1471968 0.083109498 100
-1.0001023 1.1495943 0.13962349 91
-0.9790197 1.150944 0.027504992 23
-0.97715682 1.1504798 0.082481466 76
-0.99856609 1.1558138 0.13962349 82
-0.97387046 1.1550325 0.027435184 28
-0.97782308 1.1560313 0.082586139 40
-1.0050049 1.1628993 0.14032075 68
-0.97438592 1.1611122 0.027470088 46
-0.96865958 1.1596429 0.082167454 36
-0.98232573 1.1631494 0.13840333 85
-0.96340412 1.1636481 0.027295563 61
-0.9750908 1.166688 0.082586139 84
-0.97715706 1.1672254 0.1380547 91
-0.95808429 1.1681714 0.027225753 71
-0.97555774 1.1727849 0.082690813 90
-0.9737646 1.1723114 0.13788038 98
-0.95289212 1.1721365 0.027155945 81
-0.95877868 1.1737115 0.081853434 96
-0.97627145 1.1783922 0.13822901 100
-0.95927042 1.1792111 0.027295563 92
-0.94586557 1.1755767 0.081225403 98
-0.97490877 1.1834513 0.13822901 100
-0.95790511 1.1842139 0.027295563 92
-0.94643837 1.181064 0.081330076 100
-0.96584445 1.1863948 0.13753176 98
-0.94096631 1.1854439 0.027016325 99
-0.94492167 1.186546 0.081330076 94
-0.95279247 1.1887391 0.13648589 94
-0.93573135 1.1892996 0.026946515 92
-0.93968779 1.1904161 0.081120729 84
-0.95331305 1.1942613 0.1366602 100
-0.9610998 1.2024448 0.027435184 55
-0.93045622 1.1936752 0.080702044 68
-0.95557898 1.2008648 0.13700883 100
-0.96157819 1.20801 0.027470088 38
-0.91753298 1.1952469 0.080074012 26
-0.95414191 1.2058551 0.13700883 92
-0.94453698 1.2092993 0.027190849 57
-0.92930275 1.2048213 0.080806717 24
-0.94672269 1.2099417 0.13648589 84
-0.92007214 1.2074095 0.026771991 74
-0.92593831 1.209155 0.080702044 26
-0.92997831 1.2103571 0.13509139 89
-0.91279238 1.2108074 0.026667276 78
-0.9301334 1.2160331 0.081016064 42
-0.93033987 1.2160953 0.13526571 99
-0.90940982 1.2150725 0.026632372 83
-0.90954214 1.2151129 0.079969339 98
-0.93075818 1.221583 0.13544002 98
-0.91350049 1.2221894 0.026737086 85
-0.9021762 1.2186905 0.079655327 95
-0.92528588 1.2258309 0.13509139 89
-0.91581017 1.2282335 0.026806897 88
-0.90639919 1.2252915 0.079969339 76
-0.91806132 1.2289371 0.13456847 61
-0.90268236 1.2299809 0.026597468 79
-0.91424114 1.2336409 0.080492698 66
-0.90117377 1.2295033 0.13317397 46
-0.8935315 1.2323558 0.026457848 85
-0.90698928 1.2366663 0.080178685 78
-0.90723175 1.2367439 0.13387123 43
-0.89571327 1.238625 0.026527658 88
-0.89395183 1.2380542 0.079550654 100
-0.91507024 1.2448996 0.13474278 49
-0.89406866 1.2436687 0.026527658 100
-0.89230925 1.2430916 0.079550654 100
-0.91908306 1.2518737 0.13526571 64
-0.89232284 1.2489583 0.026527658 100
-0.88867015 1.2477453 0.07944598 100
-0.90596181 1.2534875 0.13421984 85
-0.87926871 1.250169 0.02631823 99
-0.89456683 1.2553085 0.079864666 100
-0.89293331 1.2547598 0.13317397 86
-0.8663078 1.2510474 0.0261088 96
-0.88727599 1.2581692 0.079550654 100
-0.90075058 1.2627459 0.13404553 82
-0.87218481 1.2585871 0.02624842 99
-0.87800771 1.2605876 0.079131968 100
-0.89148456 1.2652175 0.13334829 100
-0.86669284 1.2622359 0.02617861 85
-0.87439984 1.2649138 0.079027295 100
-0.90856737 1.2767854 0.13509139 85
-0.87628561 1.2711556 0.026388038 79
-0.87266368 1.2698828 0.079027295 76
-0.8973909 1.2785712 0.13421984 50
-0.86330944 1.2718675 0.02617861 81
-0.86346966 1.2719245 0.07860861 38
-0.88630873 1.2800345 0.13334829 37
-0.85402077 1.2740949 0.026038991 100
-0.86546856 1.2782052 0.078817949 19
-0.87701887 1.2823522 0.13265105 35
-0.85216373 1.2792375 0.026038991 99
-0.84857804 1.2779353 0.077980578 59
-0.87700421 1.288259 0.13282534 18
-0.85788625 1.2868856 0.02617861 100
-0.8486715 1.2835026 0.078085244 100
-0.86957544 1.2911772 0.13230242 13
-0.84857446 1.289014 0.026038991 100
-0.85623282 1.2918561 0.07860861 100
-0.85840791 1.2926633 0.13143086 3
-0.84300953 1.2924882 0.025969181 100
-0.83757228 1.2904489 0.077666558 53
-0.87149876 1.303174 0.13282534 1
-0.82256943 1.29002 0.025620133 96
-0.847045 1.299293 0.07829459 51
-0.85668081 1.3029437 0.13160518 5
-0.83755332 1.3012431 0.025934275 72
-0.8414585 1.3027382 0.078085244 55
-0.85853332 1.3092754 0.13195379 22
-0.84315044 1.3089693 0.026073895 72
-0.83027679 1.3039888 0.077561885 72
-0.84920961 1.3113134 0.13125655 61
-0.84126061 1.3138289 0.026073895 83
-0.82840437 1.3088036 0.077561885 63
-0.85287851 1.3183703 0.13177948 100
-0.82261461 1.3120714 0.025759751 99
-0.8283729 1.3143455 0.077666558 70
-0.82871836 1.314482 0.12968774 97
-0.80585545 1.3109314 0.025480513 100
-0.83017451 1.3206338 0.077875905 91
-0.82865995 1.3200295 0.12986206 95
-0.81898934 1.3211629 0.025759751 100
-0.82102686 1.3219833 0.077457212 95
-0.83246988 1.3265903 0.130385 100
-0.81335229 1.3244317 0.025689943 100
-0.81539148 1.3252609 0.077247873 100
-0.83974665 1.3351654 0.13125655 100
-0.78684658 1.3136526 0.17719802 16
-0.81510812 1.3307068 0.025759751 100
-0.80605501 1.3269883 0.07682918 100
-0.81749254 1.3316863 0.12933913 100
-0.78126818 1.3168073 0.17671055 16
-0.80575424 1.3324037 0.025620133 100
-0.80410248 1.3317184 0.07682918 100
-0.81184298 1.3349295 0.1289905 100
-0.80318803 1.3313391 0.17987914 19
-0.80009407 1.3355874 0.025550323 100
-0.79844922 1.3348982 0.076619841 100
-0.81353801 1.3412193 0.12933913 100
-0.78840393 1.3306901 0.17817298 19
-0.79074484 1.3371803 0.025410704 100
-0.79279023 1.3380456 0.076410495 94
-0.82071048 1.3498567 0.13021068 100
-0.76998442 1.328398 0.17597933 20
-0.80162948 1.3473555 0.025655037 71
-0.7907992 1.3427293 0.076410495 42
-0.81501359 1.3530726 0.12986206 78
-0.75889963 1.3291032 0.17476064 15
-0.82164031 1.3615732 0.026073895 66
-0.81446737 1.3584795 0.077875905 59
-0.81662899 1.359412 0.13021068 18
-0.78792745 1.3470333 0.17890419 7
-0.79573256 1.3559792 0.025620133 100
-0.80324894 1.359252 0.077352546 100
-0.80542964 1.3602016 0.12933913 78
-0.78772515 1.3524925 0.17914793 15
-0.78635639 1.3574541 0.025480513 100
-0.81763929 1.3712059 0.07829459 100
-0.81248087 1.3689383 0.13021068 100
-0.78750092 1.3579574 0.17939167 35
-0.7917127 1.3651257 0.025620133 100
-0.80468386 1.3708791 0.077666558 100
-0.81777221 1.3766844 0.13090792 100
-0.78191465 1.3607796 0.17890419 38
-0.80057782 1.3747084 0.025829561 100
-0.8007552 1.3747879 0.077561885 100
-0.81200927 1.3798268 0.1305593 100
-0.7635383 1.3581245 0.17671055 22
-0.80028099 1.3802428 0.025864467 100
-0.80227596 1.3811443 0.077771232 100
-0.80260998 1.3812953 0.12986206 100
-0.78861147 1.3749688 0.18036664 19
-0.79450387 1.3832927 0.025794657 100
-0.81103724 1.3908342 0.078399263 100
-0.79684252 1.3843594 0.12951343 100
-0.77384907 1.3738708 0.17866045 15
-0.78872198 1.3863096 0.025724847 100
-0.81249028 1.3972518 0.07860861 100
-0.79830939 1.3907233 0.12986206 100
-0.75911075 1.3726773 0.17695428 13
-0.79744369 1.3960342 0.025934275 100
-0.80666989 1.4003209 0.078399263 100
-0.81058961 1.402142 0.13125655 100
-0.77140123 1.3839347 0.17890419 10
-0.79887134 1.4024317 0.026004085 100
-0.79541951 1.4008133 0.077875905 100
-0.81198269 1.4085791 0.13160518 100
-0.75307411 1.3809593 0.17671055 5
-0.80388588 1.4105573 0.026143705 100
-0.80765253 1.4123392 0.078713275 100
-0.80254132 1.4099211 0.13090792 100
-0.77964371 1.3990877 0.18061037 3
-0.79803246 1.4135562 0.026073895 100
-0.80359966 1.416214 0.07860861 100
-0.80209738 1.4154968 0.13108224 100
-0.78857154 1.4147866 0.025934275 100
-0.8103326 1.4252688 0.079131968 100
-0.80881089 1.4245358 0.13195379 100
-0.78811115 1.4203291 0.025969181 100
-0.79905528 1.4256481 0.07860861 100
-0.81368572 1.4327586 0.13265105 100
-0.79660577 1.4302783 0.02617861 100
-0.78241211 1.4233189 0.077771232 100
-0.811364 1.4375147 0.13265105 100
-0.80134565 1.4387572 0.02631823 100
-0.7979092 1.4370565 0.078817949 100
-0.80533689 1.4407325 0.13230242 100
-0.79900306 1.4434702 0.02631823 100
-0.80093342 1.4444339 0.079131968 100
-0.79942209 1.4436795 0.13195379 100
-0.78973538 1.4441097 0.02617861 100
-0.81129688 1.4549587 0.079864666 100
-0.80441815 1.4514976 0.13265105 100
-0.79094046 1.4505923 0.02624842 100
-0.79643065 1.4533787 0.079131968 100
-0.80913764 1.4598281 0.13334829 100
-0.79567653 1.4589138 0.026388038 100
-0.7975927 1.4598949 0.079341307 100
-0.82090944 1.4718318 0.13474278 100
-0.80037075 1.4672768 0.026527658 100
-0.79872555 1.4664273 0.079550654 100
-0.80605906 1.470214 0.1335226 100
-0.79438144 1.4701389 0.026457848 100
-0.80337209 1.4748211 0.079969339 100
-0.80007237 1.4731027 0.13317397 100
-0.78484792 1.471108 0.02631823 100
-0.8009035 1.4795411 0.079969339 100
-0.80642921 1.4824433 0.13404553 100
-0.78239244 1.4757632 0.02631823 61
-0.77723926 1.4730337 0.078713275 70
-0.80217344 1.4862411 0.13387123 91
0.1200287 1.3043944 0.011972351 11
0.12786418 1.2946559 0.13089497 11
0.19206592 1.2148621 0.13182132 7
0.15060335 1.2699575 0.01116954 25
0.15108994 1.2693484 0.033495013 28
0.162011 1.2556776 0.054385185 25
0.14608601 1.2756122 0.07945881 14
0.14806286 1.2731376 0.10199527 11
0.14562798 1.2761856 0.12593393 48
0.16294792 1.2545048 0.16616182 7
0.16469273 1.2556143 0.010820492 100
0.16640356 1.253458 0.032343622 90
0.154955 1.267887 0.055605363 98
0.15640184 1.2660635 0.077752642 28
0.16937852 1.2497087 0.096989371 25
0.16927373 1.2498406 0.11906482 100
0.18541223 1.2295008 0.13542053 30
0.14654535 1.2784859 0.1739264 28
0.16144037 1.2632396 0.010960111 100
0.17180133 1.2500873 0.032029606 100
0.14313313 1.2864789 0.057522789 100
0.16796315 1.2549596 0.075802729 30
0.16616574 1.2572411 0.098240845 24
0.16244671 1.2619622 0.12173614 100
0.18943024 1.2277091 0.13452072 46
0.14593181 1.2829262 0.17496167 42
0.16677487 1.2598006 0.010855397 100
0.17708763 1.2466198 0.031715591 100
0.15466994 1.2752719 0.056128297 100
0.16101077 1.2671677 0.077508904 29
0.1823906 1.2398422 0.094486415 39
0.17133892 1.2539673 0.11944643 100
0.19095004 1.2289022 0.13452072 38
0.15001583 1.2812203 0.1739264 35
0.15876099 1.2738373 0.011134636 100
0.18128696 1.2448285 0.031506244 62
0.15652451 1.2767174 0.056128297 97
0.16648808 1.2638865 0.076777689 29
0.18169203 1.2443068 0.095112152 25
0.18154404 1.2444973 0.1167751 79
0.19143921 1.2317543 0.13497064 30
0.14122862 1.2964156 0.17858514 40
0.17264605 1.2592971 0.010785587 65
0.15724939 1.2792611 0.033704355 56
0.17159122 1.2606648 0.054210871 51
0.17297715 1.2588677 0.075802729 45
0.17602876 1.2549108 0.096989371 37
0.17112997 1.2612629 0.12059128 12
0.18821207 1.2391133 0.13677025 15
0.15123498 1.2870598 0.17496167 49
0.17444193 1.2606769 0.010785587 52
0.17125776 1.2648371 0.032657638 29
0.16491544 1.2731235 0.055431053 49
0.18442366 1.2476355 0.073852822 62
0.1862129 1.2452978 0.094799288 51
0.19679809 1.231468 0.11295892 20
0.20296258 1.2234139 0.13182132 31
0.16135192 1.2777793 0.1713382 58
0.17607114 1.2619195 0.010785587 52
0.16806617 1.2724504 0.033076324 29
0.16538027 1.2759838 0.055605363 49
0.19441858 1.2377827 0.072146654 63
0.18181399 1.2543646 0.096363634 50
0.19120187 1.2420144 0.11524864 13
0.20210949 1.2276649 0.13272113 39
0.16888326 1.2713755 0.16875002 66
0.18269378 1.2569013 0.010645968 40
0.16750467 1.2770358 0.03328567 28
0.18283585 1.2567128 0.053339314 52
0.19374451 1.2422523 0.072634131 63
0.19786739 1.2367871 0.092609204 53
0.18820497 1.2495955 0.1167751 13
0.20378923 1.228937 0.13272113 39
0.17305031 1.2696846 0.16771474 67
0.17951447 1.264518 0.010785587 39
0.17517579 1.2703093 0.032762308 29
0.18803567 1.2531441 0.05281638 53
0.18817115 1.2529633 0.07409656 92
0.19467965 1.2442758 0.093860678 52
0.19686013 1.2413654 0.1144854 13
0.2146605 1.2176058 0.1291219 32
0.18629244 1.255471 0.16253836 70
0.18490881 1.2610583 0.010680873 80
0.20084512 1.2396235 0.03066887 32
0.18029892 1.2672588 0.054210871 51
0.18757492 1.2574723 0.074584037 61
0.19759893 1.2439897 0.093547814 65
0.21030381 1.2269013 0.11066922 14
0.20932704 1.2282151 0.13182132 31
0.18922684 1.2552505 0.16202073 70
0.1865392 1.2622664 0.010680873 93
0.19884536 1.245599 0.030982886 63
0.18313336 1.2668792 0.054036561 77
0.20098451 1.2427018 0.072146654 63
0.20855936 1.2324425 0.091044858 81
0.21065468 1.2296047 0.11105084 14
0.216636 1.2215037 0.12957181 32
0.1828056 1.267323 0.16564418 68
0.18834591 1.2635952 0.010680873 93
0.20531264 1.2404386 0.030564198 64
0.18260187 1.2714348 0.054385185 76
0.20154613 1.2455791 0.072390392 95
0.19974908 1.2480319 0.093860678 91
0.21118116 1.232429 0.11143246 14
0.22290012 1.2164347 0.1277722 16
0.19033974 1.2608739 0.163056 70
0.19704384 1.25509 0.010471444 96
0.21510017 1.230274 0.029831495 66
0.18075004 1.2774835 0.054908119 75
0.20429307 1.2451268 0.072146654 79
0.20830947 1.2396069 0.091983467 93
0.20925125 1.2383125 0.1125773 13
0.23584777 1.2017593 0.12327318 17
0.19310611 1.2605019 0.16253836 70
0.18703058 1.2725296 0.010820492 91
0.21086165 1.2395357 0.030354854 97
0.19185647 1.2658483 0.053513627 100
0.20246673 1.2511584 0.072877869 94
0.21110743 1.2391953 0.091670595 100
0.20284131 1.2506398 0.11524864 13
0.23735678 1.2028532 0.12327318 17
0.19708276 1.2586125 0.16150309 70
0.1980229 1.2607311 0.010541254 100
0.21591276 1.2357888 0.03004084 66
0.19582519 1.2637951 0.053165004 100
0.20522118 1.2506951 0.072634131 63
0.21611914 1.2355011 0.090731993 95
0.21130258 1.2422163 0.11295892 13
0.24447286 1.1959699 0.12102367 17
0.20320877 1.2535009 0.15943253 89
0.20678103 1.2522427 0.010331824 98
0.20951542 1.2484007 0.030773543 96
0.19532683 1.2683364 0.053513627 100
0.21158955 1.2454864 0.071659178 80
0.21210042 1.2447686 0.092296332 100
0.20506686 1.2546512 0.11563025 20
0.22230664 1.2304282 0.13047162 16
0.19378138 1.2705079 0.16460891 85
0.20607388 1.2566442 0.010401634 97
0.21801996 1.2397408 0.030145511 98
0.19468156 1.272764 0.053862248 100
0.21775094 1.2401216 0.070684217 81
0.21481675 1.2442733 0.091983467 100
0.20440975 1.2589989 0.11639348 46
0.22945881 1.2235553 0.12822211 24
0.19432813 1.2732641 0.16512655 76
0.2009711 1.267725 0.010611063 94
0.21745044 1.244225 0.030354854 97
0.19423881 1.2773254 0.054210871 100
0.2057994 1.2608397 0.073609084 93
0.22109392 1.2390293 0.090731993 100
0.20282274 1.2650845 0.11753834 99
0.23336107 1.221536 0.1273223 56
0.1983934 1.2714009 0.16409127 69
0.20719427 1.2623155 0.010471444 82
0.21674228 1.2486033 0.030564198 97
0.20275417 1.268692 0.053165004 100
0.21196634 1.2554622 0.072634131 63
0.22039351 1.2433596 0.09135773 100
0.21231946 1.2549551 0.11486702 94
0.23151943 1.2273812 0.128672 81
0.21109724 1.2567103 0.15891489 73
0.21354765 1.2569877 0.010331824 84
0.21622813 1.253108 0.030773543 96
0.20911434 1.2634046 0.052467756 100
0.2114912 1.2599642 0.073121607 62
0.22662205 1.2380636 0.090106249 96
0.2219108 1.2448827 0.11219569 84
0.23098257 1.2317522 0.12957181 80
0.21507958 1.2547704 0.15787962 73
0.22421402 1.2449088 0.010052586 86
0.22235128 1.2476242 0.030354854 97
0.21413362 1.2596034 0.051944822 100
0.22771606 1.2398038 0.069953002 49
0.22482362 1.2440202 0.091044858 100
0.22237679 1.247587 0.1125773 96
0.22810602 1.2392354 0.13137141 94
0.21668899 1.2558783 0.15787962 73
0.22595683 1.2460997 0.010052586 86
0.2218565 1.2521241 0.030564198 64
0.21368828 1.2641253 0.052293446 80
0.22608936 1.245905 0.070684217 81
0.22322878 1.2501079 0.091983467 100
0.22965267 1.2406696 0.11066922 92
0.23750338 1.229135 0.12822211 97
0.20977625 1.269873 0.16202073 70
0.21298182 1.2687106 0.010506349 40
0.23799497 1.2316968 0.029203463 34
0.20751971 1.2767934 0.053513627 78
0.22989225 1.243687 0.07019674 82
0.22814083 1.2462788 0.091044858 100
0.22791746 1.2466093 0.11181407 98
0.24120992 1.2269394 0.1273223 97
0.21359909 1.2677972 0.16098544 72
0.21249697 1.2732055 0.010576159 40
0.2396085 1.2327831 0.029203463 34
0.20929083 1.2779858 0.053513627 52
0.23154768 1.2448015 0.07019674 82
0.23970824 1.2326344 0.088229038 100
0.22520882 1.2542526 0.11334054 96
0.23520839 1.2393435 0.13047162 100
0.22179526 1.2593421 0.15787962 73
0.2186878 1.2677221 0.010436539 41
0.19695711 1.3003676 0.033390339 28
0.22541836 1.2576109 0.051247578 55
0.22770712 1.2541726 0.071415432 96
0.24132502 1.2337148 0.088229038 98
0.23016477 1.2504805 0.11219569 100
0.2357688 1.2420617 0.13092151 100
0.22029397 1.2653092 0.15943253 73
0.22712603 1.258921 0.01022711 28
0.18789721 1.3183243 0.03443706 27
0.21952218 1.2704353 0.052467756 53
0.2349534 1.2470682 0.07019674 82
0.23649535 1.2447333 0.090106249 96
0.23841923 1.24182 0.10990598 85
0.23642722 1.2448364 0.13137141 94
0.22743446 1.258454 0.15684435 74
0.23212302 1.2550275 0.010122396 28
0.21170926 1.2861756 0.032343622 30
0.22673166 1.2632539 0.051596198 54
0.24097311 1.2415237 0.069221787 100
0.24031997 1.2425203 0.089480512 97
0.24006808 1.2429047 0.10990598 85
0.24556398 1.2345189 0.12822211 97
0.21749312 1.2773504 0.16253836 70
0.23272774 1.2578106 0.0101573 28
0.22875845 1.2639134 0.030878214 31
0.22628281 1.2677197 0.051944822 54
0.24045628 1.2459278 0.069709264 66
0.24627936 1.2369747 0.088229038 98
0.2406503 1.2456294 0.1102876 85
0.25037482 1.2306778 0.12687239 99
0.22558588 1.2687912 0.15943253 73
0.22575706 1.272356 0.010436539 41
0.24781415 1.2381825 0.029203463 34
0.22910261 1.2671727 0.051770512 54
0.24319595 1.2453376 0.069465525 66
0.25433868 1.228074 0.086351827 100
0.23698914 1.2549539 0.11219569 84
0.25092793 1.2333583 0.1273223 97
0.23675767 1.2553126 0.15477379 75
0.23821318 1.2565914 0.010087491 57
0.24398071 1.2475903 0.029726824 67
0.23612759 1.2598462 0.050898954 55
0.24049005 1.2530379 0.070440479 49
0.25053069 1.237368 0.087916173 70
0.24601334 1.244418 0.10952436 85
0.24931204 1.23927 0.128672 97
0.24149546 1.2514689 0.15322088 76
0.24849731 1.2441771 0.0098082526 89
0.25315127 1.2368578 0.028994121 68
0.24104652 1.255895 0.05037602 56
0.24856883 1.2440646 0.068978049 50
0.25216395 1.2384105 0.087916173 84
0.24977803 1.2421628 0.10876112 79
0.2499063 1.2419611 0.1291219 96
0.23384893 1.2672148 0.15787962 65
0.24375194 1.2553738 0.010017681 72
0.24945387 1.2463368 0.029517479 100
0.23955497 1.2620256 0.050898954 55
0.25234401 1.2417562 0.068490572 50
0.24536809 1.2528124 0.090419121 82
0.24618992 1.2515099 0.11066922 92
0.2557151 1.2364134 0.1273223 97
0.23043215 1.2764844 0.1604678 72
0.24544805 1.2564399 0.010017681 72
0.25747761 1.2372259 0.028889447 100
0.23598796 1.2715498 0.051770512 81
0.25399256 1.2427924 0.068490572 50
0.25963432 1.2337811 0.086664692 71
0.25308165 1.2442473 0.10876112 72
0.26148143 1.2308309 0.12552269 90
0.2352775 1.2726846 0.15891489 65
0.24398223 1.2625958 0.010122396 85
0.25489452 1.2450303 0.029308135 100
0.24404889 1.2624885 0.05072464 84
0.24726447 1.2573123 0.070440479 49
0.25708535 1.2415037 0.087916173 56
0.24541485 1.2602897 0.11219569 91
0.26206344 1.2334905 0.12597258 90
0.24315074 1.2639343 0.15580906 67
0.25199935 1.2534473 0.0099129668 87
0.25865054 1.2426571 0.029098792 100
0.23636067 1.278818 0.052293446 80
0.24792573 1.260056 0.070684217 81
0.26391569 1.2341154 0.086351827 58
0.26052043 1.2396235 0.10723466 81
0.26572821 1.2311749 0.12507279 100
0.24284935 1.2682914 0.15684435 66
0.25673509 1.2493156 0.0098082526 89
0.25396526 1.2538427 0.029726824 100
0.25052771 1.259461 0.050201707 85
0.25680465 1.2492019 0.068978049 50
0.26236346 1.2401166 0.087290429 71
0.25593159 1.2506289 0.10952436 100
0.26725909 1.232115 0.12507279 100
0.24651992 1.2660115 0.15580906 67
0.25529695 1.2554646 0.0099129668 87
0.25876525 1.2497512 0.029412808 100
0.24500081 1.2724254 0.051421888 82
0.25538886 1.2553132 0.069709264 66
0.26503131 1.2394291 0.086977564 57
0.26168618 1.2449396 0.10799789 72
0.2688739 1.2330992 0.12507279 100
0.24624822 1.2703705 0.15684435 66
0.24968433 1.2684288 0.0101573 71
0.26138854 1.2490036 0.029308135 100
0.24975333 1.2683144 0.050898954 83
0.26212221 1.2477859 0.068490572 50
0.27372578 1.2285277 0.084787481 59
0.26022309 1.2509378 0.10914274 78
0.27543971 1.2256831 0.12282328 85
0.24392116 1.2779939 0.15891489 65
0.24834794 1.2746234 0.010262015 84
0.26921099 1.2397223 0.028680105 100
0.26171738 1.2522581 0.049155839 87
0.25564346 1.2624189 0.070440479 49
0.27431446 1.2311847 0.085100345 58
0.26291099 1.2502613 0.10876112 79
0.27703202 1.2266387 0.12282328 85
0.25655615 1.260892 -0.0099827768 86
0.25957331 1.2558448 0.15166797 77
0.26337162 1.2533135 0.0098082526 74
0.27085233 1.2406995 0.028680105 100
0.2542558 1.2686846 0.05072464 84
0.26141444 1.2566137 0.069465525 49
0.27491838 1.2338433 0.085413218 58
0.26358771 1.2529491 0.10914274 78
0.27663958 1.2309411 0.12372308 83
0.25535846 1.2668253 0.15477379 67
0.26201838 1.2594817 0.0099129668 87
0.26439482 1.2554424 0.029517479 100
0.24993643 1.2800174 0.051770512 81
0.27318093 1.2405087 0.067028143 51
0.27353409 1.2399085 0.086351827 58
0.27124852 1.2437932 0.10685304 81
0.27429751 1.2386109 0.12552269 90
0.26101294 1.2611905 0.15270324 68
0.26675275 1.2553028 0.0098082526 89
0.27213168 1.2460867 0.028889447 100
0.26377034 1.2604127 0.049678773 86
0.27482501 1.2414721 0.067028143 69
0.27816328 1.2357525 0.085413218 58
0.27389368 1.2430677 0.10647142 81
0.28379342 1.226106 0.12192347 85
0.25980788 1.2672017 0.15425615 75
0.26844847 1.2562885 0.0098082526 89
0.27579671 1.2435968 0.028680105 100
0.25550091 1.2786512 0.051421888 82
0.27050456 1.2527373 0.068490572 50
0.2797907 1.2366985 0.085413218 58
0.26767707 1.2576209 0.10952436 85
0.28538716 1.2270324 0.12192347 85
0.2586413 1.2732272 0.15580906 67
0.26417217 1.2676727 0.010017681 87
0.27745155 1.2445512 0.028680105 100
0.26819327 1.2606713 0.049504463 86
0.27219132 1.25371 0.068490572 50
0.28338906 1.2342129 0.084787481 59
0.2693809 1.2586035 0.10952436 85
0.2889252 1.2245736 0.12102367 77
0.26715991 1.2624705 -0.0099129668 87
0.26232395 1.2708907 0.15477379 67
0.27877924 1.2460797 0.0095639192 91
0.2751551 1.2524412 0.029098792 100
0.27286649 1.2564584 0.048981529 87
0.27584675 1.2512271 0.068003096 51
0.28305545 1.2385736 0.085413218 58
0.27983451 1.2442273 0.1060898 66
0.2895489 1.2271755 0.12147357 86
0.26690096 1.2669299 -0.0099827768 86
0.27172431 1.2584634 0.15063268 70
0.27945894 1.2487644 0.0095988233 76
0.27880597 1.24992 0.028889447 100
0.27162567 1.2626266 0.049504463 86
0.28143463 1.2452681 0.067028143 51
0.28177723 1.2446618 0.086351827 58
0.27955979 1.2485859 0.10685304 88
0.28539401 1.2382613 0.12417299 92
0.2677286 1.2695231 0.15373851 68
0.27819869 1.2549391 0.0097035384 90
0.28634194 1.2404101 0.028261416 100
0.27042454 1.2688093 0.050027397 85
0.28115413 1.249666 0.067515619 51
0.28536737 1.2421489 0.08572609 58
0.2821919 1.2478144 0.10647142 88
0.29560527 1.2238828 0.12012386 77
0.26758492 1.2738757 0.15477379 67
0.2798931 1.2558849 0.0097035384 90
0.28410387 1.2483102 0.028680105 100
0.26635909 1.2802306 0.051073264 83
0.28090107 1.2540716 0.068003096 51
0.28797689 1.2413433 0.085413218 58
0.28195363 1.2521782 0.10723466 81
0.29624432 1.2264712 0.12057377 77
0.27503505 1.2646238 -0.0098780617 97
0.26559094 1.2816124 0.15684435 74
0.2786943 1.2620783 0.0098082526 89
0.28963241 1.2422394 0.028261416 100
0.27776158 1.2637699 0.049330149 87
0.28259245 1.255008 0.068003096 51
0.29534632 1.2318758 0.083536007 60
0.27700302 1.2651458 0.10990598 78
0.29783925 1.2273543 0.12057377 77
0.27965981 1.2603271 -0.0097733475 88
0.272975 1.2724516 0.15373851 68
0.28521052 1.2542496 0.0096337283 90
0.28361672 1.2571645 0.029098792 100
0.28331032 1.2577248 0.048632905 88
0.28809658 1.2489716 0.067028143 51
0.29411697 1.2379614 0.084474608 59
0.28815207 1.2488701 0.1060898 81
0.29756737 1.2316513 0.12147357 77
0.27561671 1.2717949 -0.0099827768 86
0.28214523 1.2598555 0.14959741 70
0.288809 1.2516552 0.0095639192 91
0.2891272 1.2510684 0.028680105 100
0.28121534 1.2656585 0.049330149 87
0.29355526 1.2429028 0.066053182 52
0.29763535 1.2353787 0.083848871 59
0.28982523 1.2497813 0.1060898 81
0.29918039 1.2325296 0.12147357 77
0.28118297 1.2657182 -0.0098431576 87
0.28201494 1.264184 0.15063268 70
0.28765056 1.2578475 0.0096686333 90
0.2983757 1.2379038 0.027842728 100
0.27917257 1.2736127 0.050027397 85
0.2895664 1.254285 0.067515619 51
0.29551899 1.2432159 0.085100345 58
0.28778216 1.2576028 0.10761628 79
0.28008169 1.2719221 0.15270324 68
0.28653219 1.2640538 0.0097733475 89
0.27905712 1.278071 0.05037602 84
0.29406071 1.2499363 0.066784397 52
0.29717237 1.2441013 0.085100345 58
0.29225725 1.2533182 0.10647142 73
0.28276837 1.2711117 -0.0099129668 87
0.28183538 1.2728612 0.15270324 68
0.28638878 1.2685061 0.0098431576 88
0.29604647 1.2502427 0.02847076 100
0.28642052 1.268446 0.049330149 87
0.29109773 1.259601 0.068003096 51
0.29394591 1.254215 0.10647142 66
0.28264961 1.2755771 -0.0099827768 86
0.28178617 1.2772098 0.15373851 68
0.29586941 1.2546639 0.028680105 100
0.29186291 1.2623048 0.048632905 88
0.29280832 1.2605017 0.068003096 51
0.28534463 1.2747362 -0.0099478718 96
0.2925294 1.2610338 0.14856213 71
0.29940537 1.2520039 0.02847076 100
0.28806859 1.2738094 0.049678773 86
0.29513612 1.2602155 0.1480445 79
0.29712084 1.2605745 0.0096337283 90
0.29621899 1.262324 0.048458595 59
0.29065284 1.2731221 0.15166797 77
0.29519475 1.2685767 0.0097733475 100
0.2943123 1.2703034 0.049155839 58
0.28973463 1.2792605 -0.0099827768 100
0.29065236 1.2774647 0.15270324 68
0.29784045 1.2676793 0.0097384425 100
0.29422525 1.2748145 -0.0098780617 100
0.29320705 1.2810203 -0.0099827768 100
0.29886529 1.2741389 0.029517479 100
0.29499242 1.2819135 -0.0099827768 100
