# .PCD v0.7 - Point Cloud Data file format
VERSION 0.7
FIELDS x y z intensity
SIZE 4 4 4 4
TYPE F F F F
COUNT 1 1 1 1
WIDTH 731
HEIGHT 1
VIEWPOINT 0 0 0 1 0 0 0
POINTS 731
DATA ascii
0.058005154 0.008326292 0.047521047 60
0.049901724 0.0016788244 0.04804441 43
0.041728437 0.00091934204 0.016091119 8
0.039803207 0.003543973 0.048253752 87
0.047143519 0.020258069 0.047311705 70
0.037819684 0.012088954 0.047939736 27
0.025762081 0.0058012009 0.048567768 16
0.0266366 0.012473524 0.048253752 8
0.017039418 0.0094186068 0.048672438 8
0.0093797445 0.0050399899 0.049091127 7
-1.0280759 1.1262136 0.084784247 3
-1.0475502 1.1306095 0.14328404 3
-1.0404408 1.1348438 0.028482327 6
-1.0112493 1.1281474 0.083946876 5
-1.0229783 1.130838 0.1411923 6
-1.0118926 1.1340386 0.02799366 10
-1.0060995 1.1326883 0.08373753 30
-1.0197687 1.1358743 0.14101799 40
-0.98732501 1.1336915 0.027574802 30
-0.98739558 1.1337082 0.082795486 91
-1.0224245 1.1419952 0.14136662 86
-0.98993486 1.1399899 0.027644612 40
-0.99388462 1.1409389 0.083214171 100
-1.017242 1.1465508 0.14101799 87
-0.98863393 1.145363 0.027644612 40
-0.97511727 1.1420655 0.08227212 100
-1.0023687 1.1487137 0.13979781 84
-0.9853732 1.1502509 0.027609708 22
-0.97574788 1.147867 0.082376793 100
-0.9855656 1.1502985 0.13840333 91
-0.96464294 1.150733 0.027260659 27
-0.98797852 1.1565988 0.083109498 43
-0.99582237 1.1585705 0.13944919 78
-0.96717995 1.1570063 0.027330469 41
-0.97307271 1.1585095 0.082376793 36
-0.98673433 1.1619943 0.13875194 85
-0.96581978 1.1622999 0.027330469 59
-0.97944146 1.1658252 0.082795486 69
-0.98535663 1.1673561 0.13875194 91
-0.96637541 1.1680965 0.027365373 67
-0.96645969 1.1681186 0.082167454 98
-0.9762519 1.1706893 0.1380547 92
-0.95338231 1.1703 0.027155945 78
-0.95927078 1.171868 0.081853434 92
-0.95944148 1.1719134 0.1366602 100
-0.94425362 1.1734604 0.027016325 93
-0.95978695 1.1776545 0.081958108 96
-0.9714939 1.1808155 0.13788038 100
-0.95055109 1.1807858 0.027155945 93
-0.9487229 1.1802853 0.081434749 100
-0.96620721 1.1850718 0.13753176 98
-0.94525427 1.1849518 0.027086135 96
-0.93380994 1.1817758 0.080702044 100
-0.9666689 1.1908946 0.13770607 91
-0.94764668 1.1912515 0.027155945 89
-0.94005412 1.189116 0.081120729 86
-0.95560068 1.1934888 0.13683452 98
-0.94809026 1.1970249 0.027190849 70
-0.938582 1.1943146 0.081120729 78
-0.94261688 1.1954647 0.13578865 100
-0.95235401 1.2039163 0.027295563 50
-0.93901068 1.2000624 0.081225403 38
-0.94686514 1.2023309 0.13631158 99
-0.93363303 1.2038447 0.026981421 50
-0.92224044 1.2005132 0.080388032 22
-0.95880932 1.2112067 0.13753176 85
-0.92827481 1.2078849 0.026911611 71
-0.91306871 1.2033807 0.079969339 28
-0.94579798 1.2130755 0.13648589 87
-0.92489916 1.2122104 0.026876707 78
-0.9154498 1.2093772 0.080178685 32
-0.93286973 1.2146001 0.13544002 98
-0.91944176 1.2164506 0.026806897 83
-0.91956252 1.2164872 0.080492698 88
-0.91788584 1.2159778 0.13421984 99
-0.9064849 1.217795 0.026597468 88
-0.91807383 1.2213581 0.080492698 98
-0.92401654 1.2231851 0.1349171 99
-0.90483385 1.2231302 0.026597468 85
-0.90306133 1.2225782 0.07976 87
-0.9242478 1.229177 0.13509139 70
-0.91476673 1.2315581 0.026806897 85
-0.9015525 1.2273942 0.07976 72
-0.92081672 1.2334645 0.1349171 47
-0.90925509 1.2357078 0.026737086 81
-0.9055745 1.2345331 0.080074012 76
-0.90771979 1.2352177 0.13387123 43
-0.90009075 1.2380871 0.026597468 85
-0.89832395 1.2375168 0.07976 95
-0.90048093 1.2382131 0.13334829 48
-0.87935787 1.2371862 0.02624842 96
-0.90229601 1.2446835 0.080074012 100
-0.91201168 1.247859 0.13456847 64
-0.88159817 1.2431786 0.02631823 100
-0.88933581 1.2457361 0.07944598 100
-0.91609412 1.2545804 0.13509139 78
-0.89123243 1.2522296 0.026527658 100
-0.88190025 1.2491071 0.079131968 100
-0.91052932 1.2586863 0.13474278 85
-0.88204843 1.254443 0.026388038 99
-0.8840875 1.2551329 0.079341307 100
-0.89568955 1.2590576 0.1335226 84
-0.86899668 1.2555544 0.02617861 93
-0.88427502 1.2607825 0.07944598 100
-0.89208847 1.2634561 0.13334829 100
-0.8560397 1.2563353 0.025969181 89
-0.88263971 1.265536 0.07944598 100
-0.88479549 1.2662816 0.13282534 97
-0.86557227 1.265449 0.02617861 79
-0.86761791 1.266165 0.078713275 89
-0.90553325 1.2794353 0.1349171 56
-0.86769205 1.2714741 0.02624842 78
-0.85843307 1.2681991 0.07829459 51
-0.90759259 1.285588 0.13526571 36
-0.87158161 1.2784401 0.026353134 88
-0.84728247 1.2697493 0.077771232 17
-0.89077586 1.285305 0.13387123 38
-0.85672313 1.2783937 0.0261088 96
-0.86252266 1.2804897 0.078713275 51
-0.87219518 1.2839854 0.13230242 22
-0.84349257 1.2796701 0.025899371 99
-0.86242789 1.2865957 0.078817949 89
-0.86085528 1.2860205 0.13143086 15
-0.84554631 1.2856746 0.025969181 100
-0.84946638 1.287123 0.078189917 100
-0.8666119 1.2934586 0.1321281 5
-0.84364682 1.290786 0.025969181 100
-0.83072346 1.2859566 0.077247873 78
-0.87214917 1.3014369 0.13282534 1
-0.84191221 1.2954047 0.025969181 100
-0.81966203 1.2870059 0.076724514 49
-0.84801084 1.2977066 0.13073361 3
-0.82699114 1.2952712 0.025724847 74
-0.84024221 1.3003259 0.077980578 53
-0.82940632 1.2961924 0.12916481 15
-0.82888097 1.301513 0.025794657 71
-0.84210974 1.3066123 0.078189917 68
-0.84986991 1.3096035 0.13125655 56
-0.82506031 1.3058372 0.025759751 81
-0.82710689 1.3066347 0.077457212 68
-0.8571648 1.3183477 0.1321281 100
-0.82690293 1.3120989 0.025829561 99
-0.81965011 1.3092434 0.0771432 63
-0.84411889 1.318877 0.13108224 99
-0.82500225 1.3169019 0.025829561 100
-0.81775945 1.3140211 0.0771432 89
-0.82738394 1.3178492 0.12968774 99
-0.80824059 1.3157339 0.025550323 100
-0.81770545 1.3195367 0.077247873 91
-0.82731193 1.3233967 0.12986206 100
-0.81383556 1.3232417 0.025689943 100
-0.82142788 1.3263216 0.077561885 97
-0.8291617 1.3294587 0.13021068 100
-0.80819529 1.3264828 0.025620133 100
-0.81023687 1.3273191 0.077038527 100
-0.82535678 1.3335142 0.13003637 100
-0.80994004 1.3327496 0.025689943 100
-0.7935192 1.3259544 0.076201156 100
-0.82706338 1.3398352 0.130385 100
-0.77799791 1.3195317 0.17646681 18
-0.81165749 1.3390353 0.025759751 100
-0.79157037 1.3306408 0.076201156 100
-0.80852097 1.3377244 0.12881619 100
-0.79072422 1.3302872 0.17841671 15
-0.79870802 1.3388846 0.025550323 100
-0.79338437 1.336639 0.076410495 100
-0.80479509 1.3414521 0.12864187 100
-0.80166227 1.3401306 0.18012288 26
-0.78567547 1.3388875 0.025340894 88
-0.79323584 1.3421075 0.076515168 63
-0.79545993 1.3430548 0.12794463 95
-0.77226883 1.3331773 0.17646681 16
-0.8168506 1.357528 0.025969181 59
-0.80784553 1.3536572 0.077457212 53
-0.81368715 1.3561683 0.12986206 28
-0.78133649 1.3422625 0.17792924 9
-0.81479138 1.3622956 0.025969181 94
-0.80213565 1.3568032 0.077247873 100
-0.83904821 1.3728225 0.13247673 67
-0.80300373 1.3571799 0.18109785 17
-0.80345398 1.3632797 0.025794657 100
-0.80912203 1.3657643 0.077771232 100
-0.82223111 1.3715106 0.13108224 100
-0.78447968 1.3549625 0.17890419 35
-0.79223162 1.3639545 0.025620133 100
-0.81251341 1.3729296 0.078085244 100
-0.80008143 1.3674283 0.12916481 100
-0.77516848 1.3564039 0.17792924 33
-0.79025453 1.3684022 0.025620133 100
-0.81233019 1.3782587 0.078189917 100
-0.80173141 1.3735266 0.12951343 100
-0.76959139 1.3591765 0.17744176 30
-0.79362684 1.3755419 0.025724847 100
-0.80291516 1.3797278 0.077771232 100
-0.81051522 1.383153 0.1305593 100
-0.75666803 1.3588853 0.17597933 18
-0.80049878 1.384604 0.025899371 100
-0.79885346 1.3838551 0.077666558 100
-0.81551248 1.3914366 0.13125655 100
-0.75992125 1.3661373 0.17671055 18
-0.80379683 1.3918183 0.026004085 100
-0.80396229 1.3918943 0.078085244 100
-0.8060928 1.3928729 0.1305593 100
-0.77226359 1.3773346 0.17866045 14
-0.79617518 1.3940172 0.025899371 100
-0.80540735 1.3982967 0.07829459 100
-0.80029505 1.395927 0.13021068 100
-0.78274256 1.3877904 0.18036664 12
-0.78674358 1.3953232 0.025759751 100
-0.80682415 1.4047167 0.078503937 100
-0.80171126 1.4023249 0.1305593 100
-0.77698177 1.3907566 0.17987914 10
-0.79901928 1.4068146 0.026038991 100
-0.7955696 1.4051861 0.077980578 100
-0.81030613 1.4121425 0.13160518 100
-0.75685555 1.3869108 0.17744176 3
-0.79498285 1.4106597 0.026004085 100
-0.79875368 1.4124558 0.07829459 100
-0.81165391 1.4186006 0.13195379 100
-0.77082366 1.3991518 0.17963541 3
-0.80006093 1.4185801 0.026143705 100
-0.80021638 1.4186547 0.078503937 100
-0.80231196 1.4196614 0.13125655 100
-0.79418987 1.4215442 0.026073895 100
-0.80153841 1.4251062 0.078713275 100
-0.80362171 1.426116 0.13160518 100
-0.78651816 1.4235969 0.025969181 100
-0.80642027 1.4333296 0.079131968 100
-0.80848259 1.4343381 0.13230242 100
-0.7914018 1.4317973 0.0261088 100
-0.80051428 1.436293 0.078922622 100
-0.8097288 1.4408391 0.13265105 100
-0.79624432 1.4400396 0.02624842 100
-0.79460412 1.4392233 0.078713275 100
-0.81808096 1.4509079 0.13369691 100
-0.79747146 1.4465293 0.02631823 100
-0.79939967 1.4474974 0.079131968 100
-0.8050124 1.4503154 0.13265105 100
-0.79878885 1.4528003 0.026388038 100
-0.80783719 1.4573808 0.07976 100
-0.80274898 1.454805 0.13265105 100
-0.78927344 1.4538667 0.02624842 100
-0.80720824 1.4630246 0.079864666 100
-0.80922252 1.4640532 0.1335226 100
-0.79398912 1.4621999 0.026388038 100
-0.79945415 1.4650145 0.079550654 100
-0.81033403 1.470618 0.13387123 100
-0.79511386 1.4687307 0.026457848 100
-0.7952475 1.4688001 0.07944598 100
-0.81848866 1.4808729 0.1349171 100
-0.79620928 1.4752778 0.026527658 100
-0.79810745 1.4762722 0.07976 100
-0.80540973 1.4800978 0.13387123 100
-0.78666693 1.4762359 0.026388038 88
-0.79210204 1.4791076 0.079550654 100
-0.79939955 1.4829633 0.1335226 100
-0.80041927 1.489543 0.13387123 36
0.13092127 1.2895555 0.12975012 5
0.16124302 1.2554216 0.010855397 13
0.15422568 1.2641839 0.033180997 28
0.12405425 1.3018575 0.059614528 21
0.1375699 1.284981 0.10449822 11
0.14378259 1.2772236 0.12631555 23
0.14303446 1.2781577 0.17444403 7
0.15680334 1.2646703 0.011029921 89
0.17095295 1.2468691 0.031924933 61
0.14832193 1.2753406 0.056476921 48
0.14238182 1.2828135 0.080433764 13
0.16527256 1.2540154 0.097927973 24
0.15663895 1.2648771 0.122881 85
0.18743655 1.2261314 0.13452072 23
0.1448997 1.2796459 0.17444403 21
0.15729362 1.2676096 0.011064826 100
0.17014521 1.2513249 0.032134276 100
0.1574941 1.2673554 0.055431053 100
0.15032324 1.2764419 0.079215072 28
0.18042573 1.2382982 0.094486415 39
0.15958506 1.264706 0.12249938 100
0.18178743 1.2365727 0.13722014 45
0.15146831 1.2749909 0.17237349 42
0.17119768 1.2531044 0.010715778 100
0.16426492 1.2619462 0.032762308 100
0.15414104 1.2748576 0.056128297 100
0.16049033 1.2667601 0.077508904 29
0.17458549 1.2487838 0.096363634 25
0.17446652 1.2489356 0.11830158 100
0.18686235 1.2331266 0.13587044 45
0.15544081 1.2732 0.1713382 43
0.16674444 1.2623135 0.010890301 100
0.16721135 1.2617136 0.032657638 88
0.15468183 1.2778085 0.056302611 96
0.17929852 1.246187 0.07409656 30
0.16897839 1.2594438 0.098240845 24
0.1821706 1.2424977 0.11639348 100
0.18967825 1.2328537 0.13542053 38
0.15245289 1.2806718 0.17340876 42
0.17213386 1.2589016 0.010785587 65
0.17870113 1.2504046 0.03182026 61
0.15889362 1.2760324 0.055953987 48
0.1785351 1.2506194 0.074584037 30
0.17310518 1.2576449 0.097615108 24
0.17061573 1.2608659 0.12059128 19
0.19606295 1.227941 0.13362093 23
0.14596823 1.2927561 0.17703223 34
0.16897339 1.2665635 0.010925206 65
0.18645957 1.2437751 0.031296901 31
0.16915262 1.26633 0.054733805 50
0.18142349 1.2503383 0.074340299 46
0.19886035 1.2276142 0.09135773 54
0.18547818 1.245054 0.11639348 13
0.19529098 1.2322658 0.13452072 23
0.15367562 1.2865 0.17444403 56
0.17555621 1.2615278 0.010785587 39
0.16390926 1.2768166 0.033390339 28
0.17933899 1.2565621 0.053513627 52
0.16626123 1.2737291 0.077752642 43
0.19567162 1.2351224 0.092609204 53
0.1942769 1.2369533 0.11410378 13
0.19690675 1.2335012 0.13452072 38
0.17655319 1.260219 0.16512655 61
0.18451163 1.2532623 0.010576159 40
0.17290932 1.2686033 0.032762308 29
0.16902143 1.273744 0.055256739 49
0.18957552 1.2465665 0.073365346 62
0.19372267 1.241083 0.093547814 52
0.19946179 1.2334945 0.11295892 13
0.2032288 1.2285137 0.13272113 39
0.17826664 1.2615196 0.16512655 68
0.18148383 1.2609959 0.010715778 53
0.1723415 1.2731768 0.032971654 29
0.16847831 1.2783239 0.055605363 49
0.1972827 1.2399461 0.072146654 79
0.19308013 1.2455455 0.094173551 52
0.19880593 1.2379167 0.11372216 13
0.20959082 1.2235472 0.13092151 40
0.17659169 1.267514 0.16667947 67
0.18319997 1.2622793 0.010715778 66
0.19080687 1.2520702 0.031506244 31
0.17620713 1.2716644 0.054733805 50
0.19892529 1.2411745 0.072146654 79
0.19710276 1.2436204 0.093547814 65
0.20044142 1.2391397 0.11372216 13
0.21816215 1.2153568 0.12822211 32
0.18063912 1.2657162 0.16564418 68
0.18364498 1.2651004 0.010750682 79
0.19597149 1.2484421 0.03119223 63
0.18142813 1.2680963 0.054210871 76
0.1993089 1.2439318 0.072390392 47
0.21512529 1.2225572 0.089167647 84
0.19732791 1.246609 0.11524864 13
0.21616337 1.2211543 0.12957181 32
0.18688145 1.2607266 0.16357364 85
0.18774313 1.263153 0.010680873 80
0.20946774 1.2335784 0.030145511 65
0.19496426 1.2533226 0.052467756 80
0.19743976 1.2499526 0.073121607 93
0.206182 1.2380515 0.091983467 93
0.20596737 1.2383437 0.11295892 13
0.2246623 1.2128936 0.12687239 16
0.19317135 1.2557633 0.16150309 70
0.19417962 1.2579515 0.010541254 95
0.20285058 1.2460607 0.030878214 63
0.18139273 1.2754867 0.054733805 75
0.2037957 1.2447646 0.072146654 79
0.20199847 1.2472292 0.093547814 91
0.21801496 1.2252651 0.10952436 14
0.22276568 1.2187502 0.12822211 16
0.19373089 1.2585669 0.16202073 70
0.19823018 1.2559509 0.010471444 96
0.21388355 1.2343266 0.03004084 66
0.19133741 1.2654729 0.053513627 100
0.20079905 1.2524022 0.073121607 93
0.20366645 1.248441 0.093547814 100
0.21039659 1.2391437 0.1125773 13
0.254044 1.1788472 0.11652464 17
0.19430572 1.2613723 0.16253836 70
0.19508868 1.2635477 0.010611063 81
0.21534392 1.2353803 0.03004084 99
0.18591651 1.2763028 0.054559495 100
0.20463416 1.2502736 0.072634131 78
0.20747775 1.2463192 0.092922069 100
0.20728731 1.2465841 0.11410378 13
0.23485088 1.2082535 0.12462288 8
0.19021183 1.2703296 0.16512655 68
0.19913724 1.2615285 0.010541254 95
0.21697044 1.2365457 0.03004084 66
0.1969465 1.2645974 0.053165004 100
0.20631275 1.2514762 0.072634131 78
0.21832386 1.2346497 0.090419121 100
0.2043905 1.2541691 0.11563025 20
0.23525038 1.210937 0.12507279 16
0.19532764 1.2668654 0.16357364 69
0.20316735 1.2594869 0.010471444 96
0.21744633 1.2393349 0.030145511 98
0.2055864 1.2560729 0.052119136 100
0.21488148 1.2429547 0.071171694 97
0.21309552 1.2454753 0.092296332 100
0.2038126 1.2585763 0.11639348 26
0.22777829 1.2247534 0.128672 24
0.20711616 1.2539139 0.15891489 81
0.20717892 1.2574233 0.010401634 83
0.22023565 1.2388592 0.03004084 99
0.20040801 1.2670501 0.053165004 100
0.21425045 1.2473691 0.071659178 64
0.21589369 1.2450327 0.091983467 100
0.20326126 1.2629935 0.11715672 72
0.2327309 1.2210934 0.1273223 32
0.20436192 1.2614285 0.16098544 72
0.20430368 1.2651756 0.010541254 95
0.2173011 1.2465581 0.030459527 97
0.19986415 1.2715348 0.053513627 100
0.22500947 1.2355167 0.069709264 66
0.22207698 1.2397171 0.090731993 100
0.20723191 1.2609812 0.11639348 100
0.22538328 1.2349812 0.13092151 80
0.20497358 1.2642161 0.16150309 70
0.20603427 1.2663794 0.010541254 95
0.23147991 1.2296585 0.029308135 100
0.19707778 1.2793045 0.054210871 100
0.21306869 1.2562279 0.072634131 78
0.22259349 1.2424825 0.091044858 100
0.21677527 1.2508789 0.11372216 100
0.22811827 1.2345097 0.13047162 88
0.20450017 1.2685932 0.16253836 70
0.21456835 1.2576914 0.010331824 98
0.22516352 1.2422867 0.03004084 66
0.20789033 1.2674006 0.05281638 100
0.21701789 1.2541299 0.072146654 79
0.22984192 1.2354847 0.089480512 97
0.22290614 1.2455688 0.11219569 100
0.23526338 1.2276024 0.12822211 97
0.21171653 1.2618376 0.15995017 72
0.21514529 1.2605108 0.010366729 69
0.22005758 1.253315 0.03066887 64
0.21749201 1.2570732 0.051596198 100
0.20192149 1.2798816 0.075802729 100
0.23035496 1.2382309 0.089793384 100
0.22124743 1.251572 0.11334054 100
0.22917151 1.2399645 0.13137141 94
0.21997067 1.2534423 0.15684435 74
0.225833 1.2484329 0.010087491 43
0.21950603 1.2577707 0.030878214 63
0.20019528 1.2862711 0.054559495 76
0.22708678 1.2465824 0.070684217 81
0.22534308 1.2491559 0.091670595 100
0.23284164 1.2380888 0.10990598 100
0.23190707 1.2394682 0.13092151 96
0.21299118 1.2673858 0.16098544 72
0.22304142 1.256199 0.01022711 42
0.22789794 1.2489772 0.030250182 32
0.20867047 1.2775691 0.053513627 52
0.22875234 1.2477067 0.070684217 65
0.23032463 1.2453686 0.090731993 95
0.22461742 1.2538555 0.11334054 96
0.23681015 1.2357244 0.12957181 96
0.21580747 1.2669561 0.1604678 80
0.22038639 1.264048 0.010366729 41
0.21857107 1.2667689 0.031296901 31
0.21274459 1.275502 0.053165004 52
0.22059003 1.2637427 0.072877869 100
0.23426172 1.2432506 0.090106249 96
0.23075137 1.2485121 0.11181407 84
0.2417638 1.232006 0.12822211 97
0.21655899 1.2697847 0.16098544 72
0.21769696 1.2718648 0.010506349 27
0.22692302 1.257931 0.03066887 32
0.21561116 1.2750149 0.05299069 52
0.23108301 1.2516484 0.070927955 97
0.242459 1.2344676 0.088229038 100
0.22808811 1.2561715 0.11334054 96
0.24122664 1.2363288 0.1291219 96
0.22257176 1.2645025 0.15891489 73
0.22823617 1.2596524 0.01022711 28
0.20449787 1.2957766 0.032971654 29
0.2359767 1.2478731 0.050027397 57
0.23276621 1.2527586 0.070927955 97
0.24191254 1.23884 0.088854775 98
0.23302162 1.25237 0.11219569 100
0.2460669 1.232518 0.1277722 81
0.22642171 1.2624135 0.15787962 73
0.22667035 1.2657975 0.010331824 28
0.2041533 1.3003254 0.033180997 28
0.22458664 1.2689927 0.052119136 54
0.22794718 1.2638396 0.072390392 100
0.24570906 1.2366033 0.088229038 98
0.24543157 1.2370288 0.10837951 87
0.23916727 1.2466346 0.13137141 94
0.22814253 1.26354 0.15787962 73
0.2402707 1.2484024 0.0099478718 43
0.24064806 1.2478194 0.029831495 33
0.22732595 1.2683966 0.051944822 54
0.24792674 1.236577 0.068246834 85
0.2461845 1.2392681 0.08854191 98
0.24164715 1.2462764 0.1102876 92
0.25134033 1.2313044 0.12687239 99
0.22453144 1.2727129 0.1604678 72
0.23761892 1.2562101 0.010087491 57
0.24339744 1.247216 0.029726824 67
0.22691372 1.2728724 0.052293446 53
0.23990014 1.2526596 0.070440479 49
0.2478244 1.2403257 0.08854191 84
0.24118912 1.2506533 0.11105084 84
0.25505912 1.2290651 0.12597258 90
0.22837669 1.2705953 0.15943253 73
0.24138361 1.2538714 0.010017681 58
0.24820367 1.2431784 0.029412808 67
0.23072588 1.2705815 0.051944822 54
0.2415024 1.2536852 0.070440479 65
0.26000813 1.2246705 0.085413218 73
0.24489617 1.2483642 0.1102876 78
0.25867888 1.2267547 0.12507279 83
0.23419383 1.2651441 0.15736198 74
0.24307451 1.2549458 0.010017681 58
0.24451658 1.2526672 0.029936166 99
0.2452614 1.2514905 0.049853086 85
0.24743912 1.2480496 0.069465525 49
0.25525847 1.2356949 0.087290429 71
0.24656785 1.2494262 0.1102876 85
0.2571485 1.2327087 0.12642249 90
0.234891 1.2678758 0.15787962 65
0.24698046 1.2526802 0.0099478718 73
0.2462877 1.2537837 0.029936166 99
0.23537543 1.2711658 0.051770512 81
0.25130421 1.2457929 0.068978049 50
0.25276613 1.2434642 0.08854191 70
0.25667787 1.2372332 0.10723466 73
0.25470185 1.2403808 0.12822211 97
0.24082655 1.2624828 0.15580906 67
0.24338064 1.2622216 0.010122396 85
0.25853848 1.2378883 0.028889447 100
0.23607332 1.2739521 0.051944822 81
0.25716522 1.2400929 0.068003096 51
0.25233173 1.2478522 0.089167647 70
0.25208235 1.2482525 0.10952436 78
0.26046705 1.2347925 0.12642249 99
0.23641887 1.2733974 0.15891489 65
0.24825481 1.2581859 0.010017681 58
0.26017347 1.2389029 0.028889447 100
0.23154911 1.2852135 0.05299069 79
0.25045833 1.2546208 0.069953002 49
0.26646465 1.2287246 0.085413218 58
0.25272137 1.2509595 0.10990598 78
0.27131251 1.2208813 0.12237337 76
0.23513085 1.2794187 0.1604678 72
0.24891528 1.2609408 0.010052586 86
0.25867954 1.2450194 0.029203463 100
0.24480724 1.2676393 0.051073264 83
0.25630301 1.2488947 0.068978049 50
0.26910034 1.2280276 0.085100345 58
0.2451646 1.2670566 0.11334054 82
0.27085051 1.2251738 0.12327318 76
0.24802059 1.2623997 0.15477379 67
0.25357932 1.2567605 0.0099478718 73
0.25705689 1.2510499 0.029517479 100
0.25569859 1.2532804 0.049504463 86
0.25574398 1.2532059 0.069465525 49
0.26437613 1.2390308 0.086977564 57
0.26510781 1.2378293 0.10647142 73
0.26620042 1.2360351 0.12597258 90
0.24755943 1.2666459 0.15580906 75
0.26148486 1.247523 0.0097384425 75
0.25873783 1.2520696 0.029517479 100
0.24811441 1.2696525 0.051073264 100
0.26153868 1.2474339 0.068490572 50
0.26499355 1.2417157 0.087290429 57
0.26369679 1.2438619 0.10761628 87
0.27286768 1.2286832 0.12372308 83
0.24929488 1.2676986 0.15580906 67
0.26837614 1.2400005 0.0095639192 91
0.26666611 1.2428544 0.028889447 100
0.25097182 1.2690465 0.050898954 83
0.26124987 1.2518935 0.068978049 50
0.26875505 1.2393682 0.086664692 57
0.26039001 1.2533286 0.10952436 78
0.27955887 1.2213378 0.12147357 77
0.24714926 1.2754259 0.15787962 65
0.25971496 1.2581191 0.0099129668 87
0.27436101 1.2334915 0.028261416 100
0.24957317 1.2751727 0.051421888 82
0.25879082 1.2596731 0.069953002 49
0.27637127 1.2301112 0.084787481 59
0.26099089 1.2559736 0.10990598 85
0.2770727 1.2289318 0.12327318 85
0.24882695 1.2764275 0.15787962 65
0.25735608 1.2660186 0.010052586 86
0.27395082 1.2378912 0.02847076 100
0.25943768 1.2624904 0.050027397 100
0.26251927 1.2572672 0.069465525 49
0.27396396 1.237869 0.086038955 58
0.26069379 1.2603613 0.11066922 78
0.28164706 1.2248465 0.12192347 76
0.25844976 1.2641649 0.15373851 68
0.26910663 1.2497299 0.0097035384 90
0.26743048 1.2525924 0.029308135 100
0.25805229 1.2686093 0.05055033 84
0.26814881 1.2513657 0.068490572 50
0.27352074 1.2421911 0.086664692 71
0.26926544 1.2494586 0.10799789 79
0.28118753 1.2290972 0.12282328 85
0.26102337 1.263535 -0.0099827768 86
0.26204234 1.2617948 0.15270324 68
0.27095073 1.2508049 0.0097035384 90
0.26928559 1.2536739 0.029308135 100
0.25596854 1.2766193 0.051247578 82
0.27199209 1.2490106 0.068003096 51
0.2802937 1.2347069 0.085100345 58
0.27110851 1.250533 0.10799789 87
0.27708313 1.2402387 0.12552269 82
0.26393282 1.2628968 0.15270324 68
0.2735447 1.2499948 0.0096686333 90
0.28085923 1.2372949 0.028261416 100
0.25665578 1.2793181 0.051421888 82
0.27754503 1.2430491 0.067028143 51
0.28085032 1.2373104 0.085413218 58
0.26976401 1.2565589 0.10914274 78
0.28447962 1.231009 0.12282328 85
0.25978383 1.2738869 0.15580906 67
0.26629406 1.2665836 0.0099827768 87
0.27456588 1.252105 0.029098792 100
0.2584354 1.280339 0.051421888 82
0.27722847 1.2474446 0.067515619 51
0.28738275 1.2296711 0.083848871 59
0.27341193 1.2541249 0.10837951 87
0.28995726 1.2251649 0.12102367 86
0.2615445 1.274897 0.15580906 67
0.27287343 1.2588238 0.0098082526 89
0.28404623 1.2391161 0.028261416 100
0.27388594 1.2570378 0.048981529 87
0.27196017 1.2604346 0.069221787 83
0.2879343 1.2322578 0.084161744 59
0.27501887 1.2550395 0.10837951 87
0.29339024 1.2226341 0.12012386 86
0.27188721 1.2605634 -0.0098431576 87
0.27465346 1.2556839 0.14959741 70
0.27867055 1.2529107 0.0096686333 75
0.28193611 1.2470987 0.028680105 100
0.27575806 1.2580944 0.048981529 87
0.27287295 1.2632293 0.069465525 49
0.28390548 1.2435937 0.086038955 72
0.28073001 1.2492453 0.10685304 81
0.29417554 1.2253151 0.12057377 77
0.26985478 1.2686011 -0.0099827768 86
0.2765204 1.2567376 0.14959741 70
0.28514212 1.2450749 0.0094941091 92
0.27768436 1.2584518 0.029308135 100
0.27155703 1.2694424 0.050027397 85
0.28224313 1.2502748 0.067515619 51
0.28836313 1.2392974 0.085100345 58
0.28423274 1.246706 0.1060898 81
0.28904432 1.2380755 0.12372308 83
0.28001738 1.2542671 0.14856213 71
0.27721182 1.263544 0.0098431576 88
0.2852734 1.2489585 0.028680105 100
0.27724466 1.2634846 0.049330149 87
0.28880659 1.2425661 0.06629692 35
0.28626266 1.2471687 0.086351827 58
0.2821829 1.25455 0.10761628 79
0.29736045 1.2270899 0.12057377 77
0.27431801 1.2687796 0.15270324 68
0.28365758 1.2556791 0.0096686333 75
0.28878385 1.2463313 0.02847076 100
0.27984062 1.2626394 0.049155839 87
0.2894206 1.2451701 0.066540658 52
0.28879628 1.2463086 0.086038955 58
0.2828472 1.2571568 0.10799789 79
0.29981464 1.2262166 0.12012386 86
0.2769269 1.2679526 -0.0099129668 87
0.27411571 1.2730789 0.15373851 76
0.28439915 1.2583625 0.0097035384 90
0.2866312 1.2542584 0.028889447 100
0.2825138 1.2618291 0.048981529 87
0.28349346 1.2600279 0.068490572 50
0.29706696 1.2350701 0.083848871 59
0.28361133 1.2598112 0.10837951 79
0.29861549 1.2322228 0.12147357 77
0.28439915 1.2583625 -0.0097035384 89
0.27771944 1.2706447 0.15270324 68
0.28127223 1.2680399 0.0098780617 73
0.28823853 1.2551291 0.028889447 100
0.28130794 1.2679738 0.049504463 86
0.28229201 1.26615 0.069221787 33
0.29767257 1.2376448 0.084161744 59
0.29176292 1.2485973 0.10570818 81
0.28032267 1.2697998 -0.0099129668 87
0.28763732 1.2562433 0.1480445 79
0.287815 1.2602049 0.0097035384 90
0.2862505 1.2631299 0.029308135 100
0.28877291 1.2584139 0.048458595 59
0.29347456 1.2496233 0.066784397 52
0.29845661 1.2403083 0.084474608 59
0.29537064 1.2460781 0.10494494 82
0.2802701 1.2743115 -0.0099827768 86
0.28304344 1.2691262 0.15166797 69
0.29600284 1.2487066 0.009459204 93
0.29537618 1.2498876 0.02847076 100
0.28572482 1.2680774 0.049330149 87
0.29785767 1.2452106 0.066053182 52
0.29603061 1.2486541 0.10532656 75
0.28288916 1.2734218 0.15270324 68
0.29589754 1.2531741 0.0095290141 76
0.29033425 1.2637525 0.048807215 58
0.29867715 1.2478886 0.06629692 35
0.29990718 1.2455497 0.085100345 58
0.29870048 1.2478442 0.10494494 67
0.28938207 1.265563 -0.0097733475 88
0.28473607 1.2743974 0.15270324 68
0.29102686 1.2664247 0.0097733475 89
0.29780883 1.2534243 0.028575432 100
0.29105151 1.2663773 0.048981529 87
0.29291806 1.2627994 0.068246834 68
0.2993784 1.2504156 0.10532656 75
0.29472649 1.2593328 -0.0096337283 89
0.29445189 1.2598591 0.1480445 79
0.29836282 1.2567041 0.047935657 59
0.29928446 1.2549216 0.067028143 69
0.29560328 1.2620414 -0.0096686333 100
0.29536179 1.2625085 0.14856213 79
0.29997388 1.2575443 0.0095639192 91
0.29815984 1.2610816 0.048284281 59
0.29908219 1.2592831 0.067515619 68
0.29523334 1.2667882 0.14959741 70
0.29904455 1.2638055 0.0096686333 100
0.29530537 1.271163 0.15063268 70
0.29798329 1.269992 0.0097733475 100
0.29890403 1.2681653 0.048807215 58
0.29258293 1.2807062 -0.0099827768 100
0.2969687 1.2720048 0.15063268 70
0.29973012 1.2708687 0.0097733475 100
0.29973012 1.2708687 -0.0097733475 100
0.29784089 1.278863 -0.0099129668 100
0.29794502 1.2833738 -0.0099827768 100
