# .PCD v0.7 - Point Cloud Data file format
VERSION 0.7
FIELDS x y z intensity
SIZE 4 4 4 4
TYPE F F F F
COUNT 1 1 1 1
WIDTH 729
HEIGHT 1
VIEWPOINT 0 0 0 1 0 0 0
POINTS 729
DATA ascii
0.074240923 0.0014816523 0.015776975 27
0.057295382 0.009849906 0.015811881 66
0.051377714 0.00072008371 0.04804441 54
0.053064138 0.0091540813 0.047625721 36
0.046019316 0.00421983 0.04804441 21
0.044453144 0.0076482892 0.047939736 100
0.036515474 0.00093501806 0.048463095 68
0.039408207 0.011017919 0.047939736 45
0.041244388 0.019417882 0.047521047 29
0.027363718 0.0047049522 0.048567768 16
0.028091908 0.011470139 0.048253752 17
0.027723074 0.016579449 0.04804441 9
0.031957805 0.028231859 0.047416378 9
0.0086844563 0.00064247847 0.049300469 7
-1.0177767 1.1264778 0.084260888 3
-1.0333822 1.1300262 0.14206386 4
-1.0436337 1.1387984 0.028552137 8
-0.99499208 1.1275417 0.083109498 11
-1.0203414 1.1334081 0.14101799 17
-0.99373442 1.1326482 0.027679516 15
-1.0171299 1.1381441 0.084365562 75
-1.0113695 1.136791 0.14032075 65
-0.98266989 1.1359816 0.027504992 36
-1.0060568 1.1415662 0.083842203 100
-1.0177662 1.1443622 0.14101799 100
-0.98727816 1.1424748 0.027609708 45
-0.9815231 1.1410804 0.082586139 100
-1.0087707 1.1476823 0.14032075 87
-0.99179405 1.1492716 0.027714422 31
-0.97827893 1.145947 0.082481466 100
-1.007443 1.1531211 0.14032075 87
-0.98276705 1.1524459 0.027574802 23
-0.97508603 1.1505294 0.082376793 64
-0.99456507 1.1553897 0.13927488 85
-0.96578056 1.1543961 0.027295563 35
-0.98329359 1.1588373 0.082900152 41
-0.99307388 1.1613175 0.13927488 75
-0.95868737 1.1579264 0.027190849 57
-0.99553603 1.1674013 0.083632857 43
-0.98404926 1.1644478 0.13857763 91
-0.96305996 1.1649687 0.027295563 67
-0.96314913 1.164992 0.081958108 90
-0.98452109 1.1705709 0.13875194 91
-0.96367508 1.1704955 0.027330469 72
-0.96183091 1.1700076 0.081958108 96
-0.98125809 1.1751478 0.13857763 98
-0.96219701 1.1760406 0.027330469 83
-0.95071 1.1729563 0.081434749 96
-0.97014183 1.178174 0.13770607 100
-0.95505363 1.1794782 0.027225753 92
-0.95321995 1.1789793 0.081644088 100
-0.96493489 1.1821666 0.13735744 100
-0.94212061 1.1812787 0.027016325 96
-0.95185548 1.1839619 0.081644088 100
-0.96163899 1.1866586 0.13718314 98
-0.94074851 1.1862245 0.027016325 92
-0.94085604 1.1862545 0.081120729 92
-0.96216792 1.1922048 0.13735744 92
-0.94298726 1.1930357 0.027086135 88
-0.92771703 1.1887089 0.080492698 86
-0.96053571 1.1980081 0.13735744 100
-0.96848613 1.2057056 0.027574802 50
-0.93207985 1.1952595 0.080806717 52
-0.94378716 1.1986187 0.13596296 100
-0.95159441 1.2065377 0.027295563 44
-0.93442208 1.2015455 0.081016064 24
-0.94419509 1.2043866 0.13613728 89
-0.9290368 1.2053041 0.026911611 64
-0.93298286 1.2064656 0.081016064 24
-0.94465774 1.2099017 0.13631158 84
-0.92359895 1.209579 0.026841801 75
-0.91797572 1.2079016 0.080283359 30
-0.94685382 1.216516 0.1366602 92
-0.92014128 1.2141418 0.026806897 78
-0.91643828 1.2130231 0.080283359 56
-0.94147164 1.2205858 0.13631158 100
-0.92623085 1.2216108 0.026946515 88
-0.91106313 1.2169707 0.080074012 100
-0.92464787 1.2211266 0.1349171 99
-0.91318446 1.2232111 0.026737086 92
-0.91712528 1.2244318 0.080492698 90
-0.91735452 1.2245028 0.13439415 87
-0.90014499 1.2247258 0.026527658 88
-0.91553015 1.2295502 0.080492698 74
-0.913858 1.2290258 0.13421984 52
-0.90236086 1.2309949 0.026597468 83
-0.9101097 1.2334546 0.080283359 68
-0.91604477 1.2353384 0.13456847 43
-0.90455061 1.2372851 0.026667276 85
-0.8951723 1.2342722 0.079550654 89
-0.90682393 1.2380154 0.13387123 43
-0.90291065 1.2423596 0.026667276 93
-0.89734167 1.2405491 0.07976 100
-0.90328664 1.2424818 0.13369691 54
-0.88605648 1.2424291 0.026388038 100
-0.90517646 1.2487191 0.080283359 100
-0.90541369 1.2487972 0.13404553 77
-0.8768093 1.2449129 0.02624842 100
-0.89023131 1.2493804 0.079550654 100
-0.90184313 1.2532454 0.13387123 85
-0.87143606 1.2483661 0.02617861 96
-0.88863367 1.2541537 0.079550654 100
-0.89456767 1.2561507 0.13334829 80
-0.88111562 1.2571915 0.026388038 96
-0.8718093 1.2540233 0.078713275 100
-0.90040618 1.2637585 0.13404553 82
-0.87940639 1.262184 0.026388038 100
-0.87955326 1.2622347 0.079236634 100
-0.88548702 1.2642778 0.13282534 100
-0.87390262 1.2658553 0.02631823 81
-0.87594014 1.2665648 0.079131968 100
-0.89692384 1.2738721 0.13404553 73
-0.86461848 1.2681658 0.02617861 77
-0.87419814 1.2715393 0.079131968 70
-0.8951562 1.2789198 0.13404553 38
-0.86098713 1.2724299 0.026143705 88
-0.84797889 1.2677978 0.077771232 27
-0.88961703 1.2826245 0.13369691 33
-0.86110622 1.2780294 0.02617861 100
-0.8612662 1.2780871 0.07860861 25
-0.89344269 1.2896713 0.13421984 28
-0.85932428 1.2829521 0.02617861 96
-0.85573035 1.281644 0.078399263 68
-0.88038641 1.2906181 0.13317397 16
-0.8462649 1.2837255 0.025969181 99
-0.85581023 1.2872374 0.078503937 100
-0.85425252 1.2866642 0.13090792 13
-0.83321756 1.2844139 0.025759751 100
-0.84838027 1.2900529 0.078189917 100
-0.8617776 1.2950354 0.13177948 1
-0.8351571 1.2906463 0.025829561 100
-0.83346945 1.290012 0.077457212 46
-0.87112623 1.3041662 0.13282534 1
-0.84080869 1.2983186 0.025969181 92
-0.83351296 1.2955472 0.077561885 53
-0.85249013 1.3027561 0.13125655 7
-0.8409161 1.3036442 0.026004085 71
-0.82803315 1.2987014 0.077352546 57
-0.8618769 1.311686 0.13230242 37
-0.8315869 1.3056048 0.025864467 72
-0.83735257 1.3078401 0.077980578 68
-0.83954293 1.3086891 0.130385 90
-0.82598501 1.3089656 0.025794657 88
-0.83174735 1.3112227 0.077771232 65
-0.84878498 1.3178962 0.13143086 100
-0.82223588 1.3130295 0.025759751 99
-0.81870693 1.3116331 0.0771432 82
-0.83945364 1.3198431 0.13073361 99
-0.82033199 1.3178163 0.025759751 100
-0.81124419 1.3141832 0.07682918 100
-0.83752578 1.3246899 0.13073361 99
-0.82211977 1.3240938 0.025829561 100
-0.81859618 1.3226709 0.077352546 97
-0.83188623 1.3280377 0.130385 100
-0.80536455 1.3228381 0.025550323 100
-0.80741197 1.3236732 0.07682918 100
-0.81701618 1.3275907 0.12916481 100
-0.79730493 1.3195506 0.17866045 22
-0.80342656 1.3275659 0.025550323 100
-0.82209128 1.335255 0.077771232 100
-0.82427233 1.3361536 0.13003637 100
-0.77151769 1.3144205 0.17549185 16
-0.79797512 1.3302801 0.025480513 100
-0.7963329 1.3295974 0.076410495 100
-0.82616657 1.3419976 0.130385 100
-0.78079909 1.3231409 0.17695428 20
-0.80338663 1.3380777 0.025620133 100
-0.7906881 1.3327475 0.076201156 100
-0.8131389 1.3421712 0.12933913 100
-0.77702981 1.3270144 0.17671055 20
-0.80119532 1.3432701 0.025620133 100
-0.79219466 1.3394513 0.076410495 87
-0.80359524 1.3442883 0.12864187 100
-0.76574415 1.3282292 0.17549185 16
-0.80286235 1.3495581 0.025689943 60
-0.80855757 1.3519979 0.077457212 40
-0.79791957 1.3474406 0.12829325 56
-0.79298288 1.3453257 0.17939167 12
-0.80827504 1.3572152 0.025829561 75
-0.81578654 1.3604627 0.077980578 68
-0.82342929 1.3637668 0.13090792 31
-0.798356 1.352927 0.18036664 10
-0.80071884 1.3595531 0.025724847 100
-0.7972427 1.3580358 0.077038527 100
-0.81587023 1.3661664 0.130385 93
-0.77811962 1.3496892 0.17792924 24
-0.79682273 1.3634582 0.025689943 100
-0.79883724 1.3643458 0.077247873 100
-0.82472032 1.3757508 0.13143086 100
-0.78698736 1.3591242 0.17939167 35
-0.80205137 1.3714066 0.025829561 100
-0.8058787 1.3731091 0.077771232 100
-0.80257279 1.3716385 0.12951343 100
-0.77404028 1.358947 0.17792924 33
-0.79629534 1.3744843 0.025759751 100
-0.80558723 1.3786564 0.077875905 100
-0.80046445 1.3763562 0.12951343 100
-0.79008561 1.3716962 0.18036664 31
-0.78871292 1.3767037 0.025655037 100
-0.81255013 1.3875067 0.078399263 100
-0.80196911 1.3827114 0.12986206 100
-0.76989645 1.3681761 0.17792924 22
-0.7921496 1.3836342 0.025759751 100
-0.80322927 1.3886998 0.077980578 100
-0.8108018 1.3921621 0.13090792 100
-0.7787376 1.3775022 0.17939167 15
-0.79907805 1.3925046 0.025934275 100
-0.7992478 1.3925829 0.077875905 100
-0.81223994 1.3985779 0.13125655 100
-0.76759666 1.3779781 0.17817298 10
-0.80777353 1.4022748 0.026143705 100
-0.79887694 1.3981321 0.077980578 100
-0.80281287 1.3999648 0.1305593 100
-0.76366681 1.3817357 0.17792924 7
-0.79288942 1.4010572 0.025899371 100
-0.80571431 1.4070839 0.078503937 100
-0.8006056 1.4046831 0.1305593 100
-0.77050656 1.3905389 0.17914793 5
-0.78898233 1.4046504 0.025864467 100
-0.80720371 1.4132869 0.078713275 100
-0.80209428 1.4108652 0.13090792 100
-0.79714221 1.4085181 0.18304776 3
-0.78675884 1.4093205 0.025864467 100
-0.80314821 1.4171588 0.07860861 100
-0.81602556 1.4233177 0.13247673 100
-0.79712588 1.4200662 0.0261088 100
-0.7954846 1.4192742 0.07829459 100
-0.8119424 1.4272161 0.13230242 100
-0.80563611 1.4300168 0.02631823 100
-0.79680151 1.4257154 0.078503937 100
-0.80605727 1.4302218 0.13195379 100
-0.79614455 1.4312183 0.02617861 100
-0.80167514 1.4339349 0.078922622 100
-0.80374438 1.4349513 0.13195379 100
-0.78307754 1.4305859 0.025969181 100
-0.80292851 1.4404227 0.079131968 100
-0.80498546 1.441442 0.13230242 100
-0.79507285 1.4423883 0.02624842 100
-0.79343408 1.4415691 0.078713275 100
-0.80976194 1.4497311 0.13299966 100
-0.79271764 1.4470793 0.02624842 100
-0.79999846 1.4507508 0.079236634 100
-0.81449705 1.4580617 0.13369691 100
-0.80104023 1.4572017 0.026457848 100
-0.80295461 1.4581754 0.079550654 100
-0.81031102 1.4619173 0.1335226 100
-0.78795809 1.4564366 0.02624842 100
-0.80232126 1.4638057 0.079655327 100
-0.80611485 1.4657519 0.13334829 100
-0.78555375 1.4611028 0.02624842 100
-0.80521268 1.4712756 0.079969339 100
-0.80721694 1.4723127 0.13369691 100
-0.78667885 1.4676111 0.02631823 100
-0.79921526 1.4741538 0.07976 100
-0.81358868 1.4816552 0.13456847 100
-0.79143685 1.475764 0.026457848 99
-0.78980261 1.4749043 0.079341307 100
-0.81651098 1.4889562 0.13509139 100
-0.78189939 1.4766932 0.02631823 46
-0.77674812 1.4739599 0.078713275 44
-0.80343312 1.4881189 0.13404553 84
0.16816184 1.2455904 0.010645968 13
0.09235245 1.3400133 0.038309921 22
0.14336246 1.2764788 0.056825545 23
0.14070499 1.2797887 0.12707879 17
0.17057148 1.2425891 0.13991955 7
0.14483285 1.2746474 0.17340876 7
0.16733134 1.2500477 0.010715778 39
0.15908283 1.2603953 0.032866981 29
0.1563102 1.2638735 0.055256739 49
0.14661568 1.276035 0.07945881 14
0.14120206 1.2828262 0.10387249 11
0.14982954 1.2720032 0.12478908 60
0.19651777 1.2134341 0.13092151 16
0.15141362 1.2700161 0.1713382 14
0.16023633 1.2622887 0.010960111 100
0.16938961 1.2507277 0.032134276 90
0.1530031 1.2714245 0.055953987 97
0.16554707 1.2555809 0.076046467 29
0.17478585 1.243912 0.095737889 38
0.15637112 1.2671707 0.12326261 100
0.18226466 1.234466 0.13677025 45
0.15307391 1.2713351 0.1713382 43
0.15824971 1.2683625 0.011064826 100
0.16489848 1.2599044 0.032657638 100
0.15106195 1.2775064 0.056476921 100
0.1672444 1.25692 0.076046467 29
0.17644238 1.2452189 0.095737889 38
0.16417539 1.2608242 0.12135452 100
0.19713566 1.218894 0.13182132 31
0.1512447 1.2772739 0.17289113 42
0.16737354 1.2602684 0.010855397 100
0.17767021 1.2470751 0.031715591 92
0.15528753 1.2757545 0.056128297 100
0.16650376 1.2613829 0.076533951 29
0.17810348 1.2465199 0.095737889 25
0.17313838 1.2528818 0.11906482 100
0.18671513 1.2354856 0.13632034 30
0.15301785 1.2786627 0.17289113 35
0.17276165 1.2568589 0.010750682 92
0.1658814 1.2657385 0.032866981 58
0.16193664 1.2708294 0.055431053 74
0.16822135 1.2627186 0.076533951 29
0.1725097 1.257184 0.097615108 24
0.18685105 1.2386754 0.11524864 54
0.18356782 1.2429125 0.13811995 30
0.1465131 1.290735 0.1765146 41
0.17324412 1.2597578 0.010785587 65
0.17004976 1.2639102 0.032657638 59
0.16125759 1.2753394 0.055779677 49
0.18809915 1.2404472 0.072877869 47
0.18384814 1.2459732 0.095112152 38
0.17532164 1.2570572 0.11944643 12
0.19116187 1.2364658 0.13587044 15
0.14833325 1.2921402 0.1765146 55
0.16767359 1.2706052 0.010995016 64
0.18632323 1.246186 0.031401575 31
0.16665182 1.2719431 0.055256739 49
0.1813094 1.2527509 0.074584037 61
0.18431288 1.2488183 0.095425025 63
0.18417376 1.2490004 0.11715672 13
0.20107198 1.2268745 0.13272113 31
0.16422898 1.2751155 0.17030293 65
0.16942334 1.2719367 0.010995016 38
0.17592055 1.2633677 0.032448292 29
0.17562887 1.2637523 0.054210871 51
0.18779421 1.2477077 0.073609084 62
0.20269531 1.2280549 0.091044858 54
0.18940648 1.2455813 0.11601187 13
0.20737845 1.2218783 0.13092151 40
0.17416486 1.2656832 0.16667947 67
0.17839342 1.2636762 0.010785587 39
0.17043814 1.2742448 0.033076324 29
0.1797511 1.2618725 0.053862248 51
0.17394415 1.269587 0.076777689 87
0.18766454 1.2513596 0.095425025 51
0.19933364 1.2358572 0.11334054 13
0.20192611 1.2324132 0.13362093 38
0.18286824 1.2577314 0.16357364 69
0.18713167 1.2552326 0.010576159 54
0.16484737 1.2850316 0.033704355 28
0.18368459 1.2598422 0.053513627 52
0.19334811 1.2469199 0.073121607 62
0.19154459 1.2493316 0.094799288 64
0.20197466 1.2353843 0.11295892 13
0.21505123 1.2178982 0.1291219 32
0.18324536 1.2604295 0.16409127 77
0.18763569 1.2581019 0.010611063 81
0.18807718 1.2575072 0.03182026 61
0.17470801 1.2755153 0.055082429 75
0.19501504 1.248162 0.073121607 93
0.19321996 1.25058 0.094799288 90
0.20828235 1.230291 0.11143246 14
0.21197027 1.2253234 0.13092151 32
0.17689869 1.2725646 0.16771474 67
0.18459618 1.2658029 0.010750682 79
0.20755506 1.2346509 0.030250182 65
0.17883897 1.2736146 0.054733805 75
0.19904172 1.2462022 0.072634131 78
0.20193136 1.2422814 0.092922069 79
0.19940832 1.2457048 0.11486702 13
0.22165471 1.2155194 0.1277722 32
0.17865524 1.2738638 0.16771474 82
0.18632907 1.2670753 0.010750682 92
0.20799977 1.2374552 0.030354854 65
0.18412846 1.2700832 0.054210871 76
0.19601762 1.2538328 0.073609084 77
0.21291319 1.2307395 0.090419121 82
0.19875252 1.2500947 0.11563025 13
0.22321185 1.2166629 0.1277722 16
0.18611977 1.2673614 0.16512655 76
0.19520235 1.2586957 0.010541254 81
0.20971537 1.2387056 0.030354854 65
0.18947542 1.2665839 0.053687938 78
0.19546083 1.2583396 0.07409656 76
0.20648035 1.2431614 0.092609204 93
0.20974186 1.2386692 0.1125773 13
0.23744497 1.200511 0.12282328 17
0.19135004 1.2640018 0.16357364 69
0.2039254 1.2501974 0.010331824 98
0.19967607 1.2560937 0.031401575 93
0.19237593 1.266223 0.053513627 100
0.20181015 1.2531326 0.073121607 78
0.20697916 1.2459602 0.092922069 100
0.21482348 1.2350757 0.11143246 14
0.23439211 1.2079233 0.12462288 16
0.19759461 1.2589817 0.16150309 70
0.19629571 1.2644135 0.010611063 94
0.21531999 1.237821 0.030145511 65
0.19411024 1.2674683 0.053513627 100
0.21273875 1.2414291 0.071171694 65
0.20749331 1.2487613 0.093234941 92
0.21073747 1.2442266 0.11334054 13
0.22118258 1.2296262 0.13047162 16
0.1981796 1.2617801 0.16202073 70
0.19802371 1.265645 0.010611063 94
0.22042423 1.2341012 0.029831495 99
0.19123456 1.2752054 0.054210871 100
0.20978895 1.2490776 0.072146654 79
0.21946019 1.2354587 0.090419121 100
0.20784801 1.2518107 0.11486702 20
0.23858538 1.2085271 0.12417299 16
0.19766131 1.2661554 0.163056 70
0.19966924 1.2668096 0.010611063 94
0.21160606 1.2498817 0.030773543 96
0.199801 1.2666228 0.053165004 100
0.21481147 1.2453362 0.071415432 48
0.21645197 1.2430097 0.091670595 100
0.20492202 1.2593606 0.11639348 53
0.23667216 1.2143351 0.12552269 33
0.20598841 1.2578483 0.15995017 72
0.20828572 1.2581999 0.010401634 97
0.21671912 1.2461512 0.030459527 97
0.19925168 1.2711067 0.053513627 100
0.2085045 1.2578874 0.073121607 62
0.22376886 1.2360795 0.090106249 100
0.20325494 1.2653873 0.11753834 99
0.22816786 1.2297947 0.12957181 56
0.2076934 1.2590461 0.15995017 72
0.21227387 1.2561052 0.010331824 98
0.21496451 1.2522326 0.030773543 96
0.20782378 1.2625104 0.052467756 100
0.21247491 1.2558159 0.072634131 63
0.2197623 1.2453268 0.091670595 100
0.22514939 1.2375729 0.11066922 92
0.22087964 1.2437185 0.13317102 85
0.20389131 1.2681707 0.16253836 70
0.21397275 1.2572812 0.010331824 98
0.22005138 1.2484664 0.030459527 97
0.20275858 1.2735431 0.053513627 100
0.22544214 1.2406491 0.07019674 66
0.2203021 1.2481028 0.091983467 93
0.22678351 1.238704 0.11066922 85
0.22806674 1.2368431 0.13092151 96
0.20892248 1.2646047 0.16098544 72
0.21333095 1.2616928 0.010401634 97
0.22615337 1.2429661 0.03004084 66
0.20330465 1.2763357 0.053687938 100
0.22588316 1.2433608 0.070440479 49
0.23081753 1.2361542 0.089480512 97
0.21502948 1.2592121 0.11524864 100
0.23622245 1.2282605 0.12822211 89
0.21056452 1.265733 0.16098544 72
0.21167734 1.2678267 0.010506349 68
0.23790994 1.2292266 0.029098792 68
0.20731398 1.2742472 0.053339314 78
0.21972695 1.255982 0.072146654 79
0.23355699 1.2356317 0.089167647 98
0.22225675 1.2522595 0.11334054 96
0.23453793 1.2341883 0.12957181 96
0.2188122 1.257328 0.15787962 73
0.21789002 1.2623733 0.010366729 41
0.22722948 1.2485271 0.030250182 32
0.21130449 1.2721367 0.05299069 52
0.21587509 1.2653606 0.073365346 100
0.23187041 1.2416465 0.090106249 100
0.22723567 1.2485178 0.11219569 91
0.23833963 1.2320555 0.128672 97
0.22267586 1.255278 0.15684435 74
0.22851011 1.2502358 0.010087491 43
0.22223541 1.2596089 0.030878214 31
0.21416768 1.2716603 0.05281638 53
0.23417073 1.24178 0.069709264 83
0.23571649 1.2394711 0.089480512 97
0.23764518 1.2365901 0.10914274 100
0.23128179 1.2460955 0.13227122 100
0.22007307 1.262839 0.15891489 73
0.21912226 1.2680111 0.010436539 41
0.21731487 1.2707314 0.031506244 31
0.22033113 1.2661915 0.052119136 54
0.23362243 1.2461865 0.07019674 82
0.23298454 1.2471466 0.090731993 95
0.23601642 1.2425833 0.1102876 92
0.2448082 1.2293506 0.1273223 89
0.21751913 1.2704239 0.16098544 72
0.2142579 1.2791796 0.010645968 40
0.22566149 1.2618852 0.030878214 31
0.22316197 1.2656759 0.051944822 54
0.2265445 1.260546 0.072146654 79
0.24008906 1.2400045 0.089167647 100
0.24091017 1.2387593 0.10914274 85
0.244268 1.2336669 0.12822211 97
0.2203314 1.2699686 0.1604678 72
0.22041714 1.2736554 0.010506349 27
0.20550793 1.2964391 0.032971654 29
0.2248942 1.2668138 0.051944822 54
0.2315197 1.256689 0.071415432 96
0.24713981 1.2328188 0.087603301 99
0.23502329 1.2513349 0.11181407 84
0.25015658 1.2282088 0.12642249 99
0.22419426 1.2678833 0.15943253 73
0.23089015 1.2613862 0.01022711 42
0.22257665 1.2741878 0.031506244 31
0.23639655 1.2529069 0.05037602 56
0.2386263 1.2494735 0.07019674 66
0.24875718 1.2338732 0.087603301 99
0.24205169 1.2441988 0.10990598 85
0.24432835 1.2406931 0.12957181 96
0.23119497 1.2609167 0.15684435 74
0.23694035 1.2557735 0.010087491 43
0.24381337 1.2451086 0.029622151 67
0.23052907 1.2657218 0.051596198 54
0.24030185 1.2505574 0.07019674 82
0.247168 1.2399032 0.08854191 84
0.24902639 1.2370197 0.10799789 87
0.2449176 1.2433952 0.13002171 96
0.23186404 1.2636504 0.15736198 74
0.24079269 1.253494 0.010017681 58
0.24439761 1.2478571 0.029726824 67
0.22796765 1.2735479 0.052293446 53
0.24518973 1.2466185 0.069465525 49
0.24668157 1.2442858 0.089167647 70
0.24854293 1.2413752 0.10876112 79
0.25392136 1.2329652 0.12687239 90
0.23150748 1.2680129 0.15839726 73
0.23167986 1.2713988 0.010366729 69
0.25133631 1.2404372 0.029203463 68
0.22750351 1.2779772 0.05264207 79
0.24464402 1.2509785 0.069953002 49
0.25672603 1.2319477 0.086664692 71
0.23853296 1.2606043 0.11295892 89
0.26068062 1.2257185 0.12462288 83
0.22798359 1.277221 0.16098544 64
0.23982731 1.2623553 0.0101573 71
0.24339896 1.2566857 0.030145511 98
0.24202254 1.2588706 0.05055033 84
0.24844101 1.2486823 0.069465525 49
0.25623447 1.2363112 0.087290429 71
0.25175846 1.2434163 0.10876112 79
0.25500205 1.2382675 0.1277722 97
0.23593444 1.2685347 0.15787962 65
0.24040148 1.2650766 0.010192205 85
0.25136843 1.2475394 0.029517479 100
0.242589 1.2615786 0.05072464 84
0.25003004 1.2496796 0.069465525 49
0.25778243 1.2372829 0.087290429 57
0.24500242 1.2577193 0.11181407 98
0.25862303 1.2359387 0.12687239 99
0.23963794 1.2662976 0.15684435 66
0.25267494 1.2491627 0.0098431576 88
0.24882492 1.2553673 0.029936166 99
0.2432563 1.2643416 0.050898954 83
0.25170627 1.2507238 0.069465525 49
0.26149836 1.234943 0.086664692 71
0.26119855 1.2354262 0.10647142 73
0.25819626 1.2402647 0.1277722 97
0.24442798 1.2624533 0.15529142 67
0.2491073 1.2587118 0.010017681 72
0.25680381 1.2462111 0.029308135 100
0.24185002 1.2704991 0.051421888 82
0.25546762 1.2483814 0.068978049 50
0.25690913 1.24604 0.08854191 56
0.25047335 1.2564931 0.11105084 98
0.26596972 1.2313237 0.12507279 100
0.23905894 1.2750323 0.15891489 65
0.25289997 1.2563462 0.0099478718 73
0.26471499 1.2370052 0.028680105 100
0.24152166 1.2749722 0.051770512 81
0.25713927 1.2494066 0.068978049 50
0.26063219 1.2436887 0.087916173 56
0.25626719 1.2508341 0.10952436 78
0.27266124 1.2239974 0.12282328 85
0.24283791 1.2728175 0.15787962 65
0.24535877 1.2728244 0.010262015 84
0.25814912 1.2517133 0.029517479 100
0.24853659 1.2675792 0.050898954 83
0.25684109 1.2538723 0.069465525 49
0.26748824 1.2362987 0.086351827 58
0.25396225 1.258624 0.11105084 77
0.27028793 1.2316777 0.12462288 92
0.24868706 1.2673309 0.15580906 67
0.26153886 1.2498902 0.0097733475 89
0.25777444 1.2561527 0.029726824 100
0.25438112 1.2617979 0.050201707 85
0.26057729 1.2514899 0.068978049 50
0.26809996 1.238975 0.086664692 71
0.25971547 1.2529237 0.10952436 71
0.26989326 1.2359917 0.12552269 90
0.25241542 1.2650682 0.15477379 67
0.2630479 1.2507941 0.0097733475 100
0.25725603 1.2604985 0.029936166 99
0.25388545 1.2661459 0.05055033 84
0.25496995 1.2643288 0.070684217 81
0.26957467 1.2398584 0.086664692 57
0.26425248 1.2487757 0.10837951 87
0.27135858 1.2368693 0.12552269 90
0.25595233 1.2626829 0.15373851 68
0.26676559 1.2483515 0.0097035384 90
0.26609308 1.2494872 0.029203463 100
0.25054359 1.2757485 0.051421888 82
0.26984534 1.24315 0.067515619 51
0.26719075 1.2476333 0.087916173 56
0.26192442 1.2565277 0.10990598 85
0.27795431 1.229455 0.12327318 76
0.24979979 1.2770047 0.15787962 65
0.25645784 1.2701305 0.010122396 85
0.26894724 1.2488513 0.029098792 100
0.2575303 1.2683033 0.05055033 84
0.2736738 1.2407982 0.067028143 51
0.27702606 1.2350869 0.085413218 58
0.26578221 1.2542439 0.10914274 78
0.28267974 1.2254542 0.12192347 85
0.25957173 1.2648251 0.15373851 76
0.27019581 1.250366 0.0097035384 90
0.27254725 1.2463291 0.028889447 100
0.25918436 1.2692704 0.05055033 84
0.26724344 1.2554345 0.068978049 50
0.27459282 1.2428172 0.086664692 57
0.26640144 1.25688 0.10952436 78
0.28321072 1.2280221 0.12237337 76
0.26616988 1.2572777 -0.0098431576 87
0.25732487 1.2724627 0.15580906 67
0.26378429 1.2651412 0.0099827768 87
0.2761274 1.2437882 0.028680105 100
0.26682419 1.2598823 0.049504463 86
0.26786131 1.2580881 0.069221787 100
0.28407094 1.2300463 0.084161744 59
0.27293015 1.2493193 0.10761628 87
0.28473103 1.2289042 0.12237337 76
0.26866072 1.2567053 0.15063268 70
0.27438286 1.2504765 0.0096686333 75
0.27372488 1.2516236 0.029098792 100
0.26646751 1.2642752 0.049853086 85
0.27442011 1.2504115 0.068003096 51
0.28068343 1.2394929 0.08572609 58
0.27842864 1.2434236 0.1060898 88
0.28431496 1.2331622 0.12327318 76
0.26450872 1.2676898 0.15373851 68
0.27038562 1.2620103 0.0098780617 73
0.27763411 1.2492559 0.028889447 100
0.27140722 1.2602128 0.049330149 87
0.27340838 1.2566915 0.068734311 84
0.27769014 1.2491573 0.087290429 57
0.27451107 1.2547512 0.10837951 79
0.28906494 1.2291422 0.12192347 85
0.26269081 1.2755501 0.15580906 67
0.27987686 1.2490003 0.0095988233 76
0.28118703 1.246677 0.028680105 100
0.26324758 1.2784884 0.051073264 83
0.27989927 1.2489605 0.067515619 51
0.28510252 1.2397338 0.085413218 58
0.27419135 1.2590822 0.10914274 78
0.29250342 1.2266101 0.12102367 86
0.26907194 1.2681603 -0.0099827768 86
0.26626676 1.2731347 0.15477379 67
0.27577904 1.2604597 0.0098082526 59
0.28293595 1.2476591 0.028680105 100
0.27289167 1.2656238 0.049678773 86
0.27681282 1.2586106 0.068734311 50
0.29068199 1.2338048 0.084161744 59
0.27598578 1.2600899 0.10914274 78
0.29608071 1.2241489 0.12012386 86
0.27382728 1.2639505 -0.0098780617 97
0.27188382 1.2674265 0.15270324 68
0.28031722 1.2561203 0.0097035384 90
0.28258359 1.2520351 0.028889447 100
0.27260366 1.2700245 0.050027397 85
0.27747163 1.2612498 0.068978049 50
0.29126316 1.2363896 0.084474608 59
0.28332692 1.2506952 0.10685304 88
0.29286131 1.2335088 0.12237337 85
0.2764369 1.2631149 -0.0098431576 97
0.27915788 1.2582102 0.14959741 70
0.2867521 1.2482527 0.0095290141 76
0.27455249 1.2704163 0.029936166 99
0.28194937 1.2569782 0.048632905 88
0.28676006 1.2482383 0.067028143 51
0.29090607 1.2407061 0.085100345 58
0.29060265 1.2412574 0.10456333 82
0.29533949 1.2326517 0.12192347 76
0.27425739 1.2709525 0.15322088 76
0.28258872 1.2596533 0.0097384425 75
0.29153019 1.2432806 0.028261416 100
0.27306116 1.2770991 0.05055033 84
0.28549302 1.2543353 0.067759357 68
0.29436204 1.2380953 0.084474608 59
0.28369784 1.2576224 0.10799789 79
0.27587947 1.2719386 -0.0099827768 86
0.27684608 1.2701685 0.15270324 68
0.28827769 1.2536417 0.0095988233 91
0.29334936 1.2442696 0.028261416 100
0.27785504 1.272902 0.050027397 85
0.2920785 1.246618 0.066540658 52
0.2989817 1.2338616 0.083536007 60
0.28650653 1.2569146 0.10761628 79
0.27780882 1.2729874 -0.0099827768 86
0.28428516 1.2610196 0.14959741 70
0.28609943 1.2615542 0.0097384425 90
0.29681295 1.2415987 0.028052073 100
0.28140905 1.2702909 0.049678773 86
0.28708765 1.2597136 0.068246834 34
0.29958692 1.2364318 0.083848871 59
0.28812262 1.2577858 0.10761628 79
0.28137004 1.2703636 -0.0099129668 87
0.28408733 1.2653022 0.15063268 70
0.28892791 1.2607985 0.0097035384 90
0.28737006 1.2637272 0.029308135 100
0.28894609 1.2607644 0.048632905 88
0.28990218 1.2589669 0.068003096 51
0.29859668 1.2426219 0.084787481 59
0.29460749 1.2501212 0.10570818 73
0.28329328 1.2713913 -0.0099129668 87
0.29234183 1.2543806 0.14700922 81
0.2980229 1.2475131 0.0094242999 93
0.29460144 1.2539968 0.028680105 100
0.28964511 1.2633895 0.048807215 58
0.29337797 1.2563155 0.067515619 51
0.29555583 1.2521882 0.086351827 58
0.29620105 1.2509656 0.10570818 81
0.28309092 1.2758101 -0.0099827768 86
0.29034317 1.2620666 0.14907977 78
0.29822835 1.2513901 0.02847076 100
0.29053184 1.2661059 0.048981529 87
0.29700211 1.2537347 0.067028143 51
0.28587335 1.275013 -0.0099478718 96
0.28588119 1.2749979 0.15270324 68
0.29952091 1.2528106 0.0094941091 92
0.28942588 1.2722692 0.049504463 57
0.29866087 1.2544683 0.1060898 66
0.28939125 1.272336 -0.0098780617 97
0.29467437 1.2621526 0.14856213 79
0.29391471 1.2678605 0.048981529 58
0.29939261 1.2572109 0.067271881 69
0.29389033 1.2679079 -0.0097733475 100
0.29462656 1.2664766 0.14959741 70
0.29830322 1.263344 0.068003096 68
0.29620051 1.2759433 0.15166797 77
0.29899952 1.2749732 -0.0098431576 100
0.29979134 1.2775962 -0.0098780617 100
