# .PCD v0.7 - Point Cloud Data file format
VERSION 0.7
FIELDS x y z intensity
SIZE 4 4 4 4
TYPE F F F F
COUNT 1 1 1 1
WIDTH 724
HEIGHT 1
VIEWPOINT 0 0 0 1 0 0 0
POINTS 724
DATA ascii
0.059722602 0.0048465133 0.047625721 65
0.055021763 0.0031203628 0.047835063 63
0.052347869 0.0048528314 0.047835063 40
0.041996896 0.00074195862 0.016091119 8
0.04481703 0.0050124526 0.04804441 100
0.048919857 0.01666981 0.047416378 98
0.037397802 0.0051506162 0.048253752 61
0.037952006 0.011999607 0.047939736 27
0.031937838 0.0088382363 0.048253752 17
0.02928406 0.01065129 0.048253752 17
0.022095501 0.0059006214 0.048672438 8
0.024127424 0.014213204 0.048253752 8
-1.0426445 1.1341792 0.028517231 3
-1.0192869 1.1288382 0.084365562 5
-1.0290565 1.1310722 0.14171524 6
-1.0199375 1.1347582 0.028133279 10
-0.99273413 1.1284378 0.083004825 18
-1.0180831 1.1343274 0.14084367 34
-1.0010748 1.1363727 0.027819136 27
-0.99335378 1.1345489 0.083109498 88
-1.0264323 1.1423624 0.14171524 84
-0.99200839 1.1399188 0.027679516 38
-1.0017827 1.1422637 0.083632857 100
-1.0154359 1.1455389 0.14084367 87
-0.98494428 1.1436114 0.027574802 41
-0.97919303 1.1422116 0.082481466 100
-1.0045025 1.1483721 0.13997212 87
-0.97392434 1.1465687 0.027400278 26
-0.99145705 1.1509011 0.083214171 100
-0.99350137 1.1514062 0.13910057 91
-0.97447342 1.1526384 0.027435184 23
-0.98230189 1.1546034 0.082795486 50
-0.99789041 1.1585159 0.13962349 78
-0.97119063 1.1574639 0.027400278 41
-0.97707909 1.1589637 0.082586139 38
-1.0042477 1.1658839 0.14032075 73
-0.97757322 1.1647729 0.027539898 53
-0.98151332 1.165791 0.082900152 58
-0.97777921 1.164826 0.1380547 89
-0.9607113 1.1660459 0.027260659 67
-0.98012239 1.1711347 0.082900152 100
-0.97639161 1.1701566 0.1380547 91
-0.9496569 1.1687475 0.027086135 78
-0.97099203 1.1744205 0.082481466 94
-0.97498554 1.1754823 0.1380547 99
-0.94825584 1.1739799 0.027086135 81
-0.94835883 1.1740077 0.081330076 100
-0.97163719 1.1802843 0.13788038 100
-0.95069438 1.180262 0.027155945 89
-0.94115978 1.1776555 0.081016064 100
-0.97596139 1.1871696 0.13840333 99
-0.95696133 1.1876341 0.027295563 92
-0.94165236 1.1833915 0.081120729 100
-0.95529562 1.1871725 0.1366602 92
-0.94394332 1.1896472 0.027086135 92
-0.94020027 1.1885958 0.081120729 88
-0.95191211 1.1918856 0.13648589 94
-0.9405461 1.194312 0.027051231 75
-0.94257194 1.1948886 0.081330076 78
-0.95043033 1.1971257 0.13648589 100
-0.95265657 1.2028673 0.027295563 55
-0.92587608 1.1951528 0.080492698 42
-0.95099562 1.2023889 0.1366602 100
-0.94729716 1.2069894 0.027225753 45
-0.91479665 1.197504 0.079969339 22
-0.96286529 1.2115331 0.13788038 84
-0.93233925 1.2082448 0.026981421 71
-0.92287201 1.2054458 0.080492698 26
-0.94220847 1.2111626 0.13613728 89
-0.9135595 1.2082537 0.026667276 78
-0.91751641 1.2094386 0.080283359 30
-0.93302482 1.2140825 0.13544002 94
-0.91592568 1.2142646 0.026737086 78
-0.9294309 1.2183576 0.081016064 80
-0.92582387 1.2172644 0.1349171 100
-0.90671915 1.2170323 0.026597468 81
-0.91830999 1.2205893 0.080492698 100
-0.92806298 1.2235823 0.13526571 99
-0.91660768 1.2256744 0.026806897 89
-0.903377 1.2215637 0.07976 97
-0.93598408 1.2316947 0.13613728 77
-0.9188233 1.2319911 0.026876707 85
-0.911318 1.2296305 0.080283359 68
-0.91725808 1.2314987 0.13456847 54
-0.89798611 1.2315545 0.026527658 81
-0.90954238 1.2352381 0.080283359 76
-0.89269584 1.2298682 0.13247673 45
-0.88883466 1.2338991 0.026388038 79
-0.90418977 1.2388498 0.080074012 84
-0.90822929 1.2401521 0.13404553 45
-0.89100879 1.2401593 0.026457848 96
-0.89115185 1.240206 0.07944598 100
-0.91226166 1.2470934 0.13456847 59
-0.88564366 1.2436821 0.026388038 99
-0.88958472 1.2449824 0.07944598 100
-0.91634768 1.2538127 0.13509139 77
-0.88777512 1.249957 0.026457848 99
-0.88791794 1.2500045 0.07944598 100
-0.90520054 1.2557739 0.13421984 80
-0.87859684 1.2521642 0.02631823 96
-0.88631827 1.2547703 0.07944598 100
-0.89036733 1.2561369 0.13299966 80
-0.86925071 1.2548114 0.02617861 93
-0.89398199 1.2632595 0.079969339 100
-0.89800292 1.2646331 0.13387123 89
-0.87519592 1.2621258 0.02631823 93
-0.87345952 1.2615263 0.078922622 100
-0.898238 1.2700825 0.13404553 98
-0.86960703 1.266027 0.02624842 81
-0.8641066 1.2641051 0.078503937 95
-0.90956157 1.2799876 0.13526571 57
-0.8717255 1.2720635 0.02631823 77
-0.86434358 1.2694567 0.07860861 57
-0.88907546 1.2781904 0.1335226 43
-0.86046022 1.2739072 0.026143705 88
-0.85498017 1.2719493 0.078189917 23
-0.87969822 1.2807803 0.13282534 41
-0.84937698 1.2751865 0.025969181 96
-0.87209374 1.2833875 0.079236634 42
-0.87424845 1.2841654 0.13247673 26
-0.85502952 1.2830558 0.0261088 99
-0.85331768 1.2824306 0.07829459 82
-0.87235445 1.2893821 0.13247673 16
-0.84956831 1.286328 0.026038991 100
-0.84973687 1.2863902 0.078189917 100
-0.88183969 1.2982335 0.1335226 9
-0.84766644 1.2914542 0.026038991 100
-0.83847851 1.2880263 0.077666558 87
-0.90229446 1.3118353 0.13561434 1
-0.83095974 1.2904445 0.025759751 100
-0.83488411 1.2919235 0.077561885 48
-0.87065953 1.3054062 0.13282534 1
-0.82904297 1.2955024 0.025759751 85
-0.83856088 1.2991294 0.077875905 53
-0.83889896 1.2992582 0.13003637 11
-0.83289152 1.3022274 0.025864467 72
-0.84052652 1.3051659 0.078085244 63
-0.85387105 1.3103018 0.13160518 50
-0.83475274 1.3085009 0.025934275 74
-0.82934266 1.306397 0.077561885 76
-0.85569042 1.316643 0.13195379 99
-0.83482069 1.3138208 0.025969181 93
-0.82383829 1.3095081 0.077352546 65
-0.84274286 1.316932 0.13090792 100
-0.82166642 1.3144662 0.025759751 99
-0.83113343 1.3182241 0.077875905 85
-0.827766 1.3168874 0.12968774 99
-0.80500406 1.3130605 0.025480513 100
-0.82560009 1.3213151 0.077666558 91
-0.83149308 1.3236768 0.13021068 100
-0.81422156 1.3222895 0.025689943 100
-0.81996459 1.3246145 0.077457212 95
-0.83509237 1.3307388 0.13073361 100
-0.81238252 1.3268104 0.025689943 100
-0.81442028 1.3276432 0.077247873 100
-0.83322519 1.3353288 0.13073361 100
-0.81162125 1.3264992 0.18061037 22
-0.8215211 1.3361405 0.025899371 100
-0.79954237 1.3270681 0.076515168 100
-0.82019347 1.3355925 0.12968774 100
-0.79499108 1.3251894 0.17866045 15
-0.80107921 1.3332301 0.025550323 100
-0.79574615 1.331007 0.076410495 100
-0.8182109 1.3403718 0.12968774 100
-0.79304498 1.329881 0.17866045 19
-0.78794831 1.3335211 0.025340894 100
-0.79920286 1.3382614 0.076724514 99
-0.80509406 1.3407426 0.12864187 100
-0.78366607 1.3317175 0.1776855 24
-0.78965348 1.3397533 0.025410704 92
-0.78802139 1.3390591 0.076201156 72
-0.80859393 1.3478086 0.12916481 100
-0.78900415 1.3394771 0.17866045 24
-0.80970579 1.3538946 0.025829561 59
-0.80804926 1.3531833 0.077457212 48
-0.8175531 1.3572645 0.13021068 31
-0.79065627 1.3457142 0.17914793 5
-0.82233673 1.365001 0.0261088 86
-0.80967015 1.3595091 0.077666558 93
-0.82646269 1.3667898 0.13125655 45
-0.78499585 1.3488111 0.17866045 12
-0.79643697 1.3593636 0.025655037 100
-0.81675237 1.3682561 0.078189917 100
-0.81707031 1.3683953 0.1305593 100
-0.79387838 1.3582437 0.18012288 33
-0.79071325 1.3624434 0.025585229 100
-0.80734831 1.3697942 0.077771232 100
-0.80768365 1.3699424 0.12986206 100
-0.7573182 1.3476865 0.17549185 33
-0.79228956 1.368749 0.025655037 100
-0.79795033 1.371274 0.077352546 100
-0.80558115 1.3746779 0.12986206 100
-0.78611308 1.365994 0.17963541 35
-0.79930836 1.3775358 0.025829561 100
-0.80312794 1.3792555 0.077771232 100
-0.81799608 1.3859501 0.13125655 100
-0.77678424 1.3673942 0.17866045 29
-0.79728621 1.3820069 0.025829561 100
-0.80473703 1.3853915 0.077980578 100
-0.80506188 1.3855391 0.13021068 100
-0.77841073 1.3734326 0.17914793 17
-0.79332405 1.3858727 0.025794657 100
-0.81347388 1.3951108 0.07860861 100
-0.79928285 1.3886046 0.12986206 100
-0.77810067 1.3788934 0.17939167 15
-0.78935117 1.3897183 0.025759751 100
-0.81672138 1.4023826 0.078922622 100
-0.79711527 1.3933108 0.12986206 100
-0.75614971 1.374356 0.17671055 13
-0.79080361 1.3960819 0.025829561 100
-0.80545717 1.4029243 0.078399263 100
-0.81659454 1.4081249 0.13195379 100
-0.76842147 1.3856306 0.17866045 7
-0.80138367 1.4064891 0.026073895 100
-0.7979303 1.4048626 0.078085244 100
-0.81086606 1.4109552 0.13160518 100
-0.76457685 1.3891535 0.17841671 3
-0.79915363 1.4112024 0.026073895 100
-0.80652934 1.4147079 0.078713275 100
-0.80142242 1.4122808 0.13090792 100
-0.78392249 1.4039637 0.18134159 1
-0.79318851 1.4144131 0.026004085 100
-0.80415732 1.4196755 0.078713275 100
-0.79905921 1.4172297 0.13090792 100
-0.7891311 1.4182265 0.025969181 100
-0.80907208 1.4278792 0.079131968 100
-0.8075518 1.4271433 0.13195379 100
-0.79045385 1.4246521 0.026038991 100
-0.79599935 1.4273604 0.078503937 100
-0.8088302 1.4336267 0.13230242 100
-0.79892319 1.43463 0.02624842 100
-0.79727978 1.4338202 0.078713275 100
-0.81007987 1.4401271 0.13265105 100
-0.79671186 1.4390996 0.02624842 100
-0.80043703 1.4409504 0.079027295 100
-0.80428165 1.4428606 0.13230242 100
-0.79079252 1.4420044 0.02617861 100
-0.80701452 1.4501348 0.079550654 100
-0.80014342 1.446691 0.1321281 100
-0.78486949 1.4448761 0.0261088 100
-0.80819696 1.4566698 0.07976 100
-0.81021959 1.4576924 0.13334829 100
-0.79675704 1.4567993 0.026388038 100
-0.80223316 1.4595919 0.079550654 100
-0.81313556 1.4651518 0.13387123 100
-0.79790789 1.4633255 0.026457848 100
-0.79626566 1.4624808 0.079341307 100
-0.81424421 1.4717283 0.13421984 100
-0.79902965 1.4698681 0.026527658 100
-0.79738599 1.4690154 0.079550654 100
-0.80117506 1.4709811 0.13317397 100
-0.79303473 1.4727187 0.026457848 100
-0.8037861 1.4783441 0.080074012 100
-0.79518932 1.473846 0.13282534 100
-0.77996224 1.4718029 0.02624842 89
-0.80307168 1.4839975 0.080178685 100
-0.80153471 1.4831865 0.13369691 99
-0.78998595 1.4827831 0.026492752 23
-0.78659004 1.4809768 0.079341307 23
-0.79388529 1.4848573 0.13317397 56
0.12809137 1.2923173 0.13051336 5
0.16340646 1.2520301 0.010785587 13
0.13888571 1.2826042 0.03443706 27
0.09875223 1.3326453 0.063100755 19
0.16192842 1.2538731 0.098240845 12
0.14342859 1.2769399 0.12631555 17
0.19276515 1.2154238 0.13182132 7
0.12334114 1.3019862 0.18272625 6
0.15512615 1.2658913 0.011064826 38
0.16431624 1.2543502 0.032448292 59
0.16401547 1.2547278 0.054210871 51
0.14688072 1.2762461 0.07945881 14
0.17100286 1.245953 0.096363634 25
0.1549843 1.2660694 0.12326261 79
0.18218297 1.2319127 0.13632034 22
0.15528566 1.2656909 0.16978529 14
0.16182029 1.2609921 0.010925206 100
0.16724795 1.2541268 0.032343622 100
0.14964628 1.2763903 0.056476921 96
0.16219276 1.2605208 0.076777689 29
0.17756701 1.2410747 0.095112152 38
0.16037107 1.262825 0.12211776 100
0.18742335 1.2286078 0.13497064 45
0.15222591 1.2731276 0.17185585 43
0.16468561 1.2607038 0.010890301 100
0.17378938 1.24911 0.031924933 100
0.1611715 1.265179 0.055082429 100
0.180985 1.2399462 0.073365346 31
0.1718114 1.2516289 0.096989371 25
0.17291978 1.2502174 0.1186832 100
0.19014966 1.2282748 0.13452072 38
0.15866885 1.2683662 0.16978529 36
0.16517133 1.2636229 0.010925206 100
0.18405998 1.2393942 0.03119223 94
0.15800238 1.2728186 0.055779677 98
0.17530465 1.2506248 0.074827775 30
0.18806931 1.2342515 0.093234941 26
0.17459834 1.2515308 0.1186832 100
0.19654414 1.2233807 0.13272113 31
0.15209645 1.2803941 0.17340876 42
0.16575944 1.2666116 0.010960111 77
0.1735608 1.2565286 0.032238949 60
0.16716328 1.2647972 0.054733805 50
0.16856542 1.262985 0.076533951 29
0.17768517 1.2511982 0.096363634 25
0.17756715 1.2513506 0.11830158 26
0.19105315 1.2339207 0.13542053 22
0.13978365 1.300184 0.17962041 39
0.17358613 1.2600206 0.010785587 39
0.16917798 1.2657592 0.032762308 29
0.1701065 1.2645504 0.054559495 50
0.1739164 1.2595906 0.075802729 45
0.19019732 1.2383959 0.093547814 52
0.18283755 1.247977 0.11715672 13
0.19504899 1.23208 0.13452072 23
0.15811259 1.2801642 0.17237349 57
0.18014941 1.2549713 0.010645968 53
0.15637705 1.2861431 0.034018371 27
0.1742515 1.262705 0.054210871 51
0.18164653 1.2530081 0.074584037 61
0.18824086 1.2443613 0.094486415 52
0.19879457 1.2305226 0.1125773 13
0.19430065 1.2364153 0.13542053 38
0.17161062 1.2661679 0.16719711 60
0.1794304 1.2594479 0.010715778 39
0.16059232 1.2843292 0.033809029 28
0.17597365 1.2640136 0.054210871 51
0.18692955 1.2495431 0.073852822 46
0.18632174 1.2503459 0.095425025 51
0.19447887 1.2395719 0.1144854 13
0.21004662 1.2190101 0.13002171 40
0.17567712 1.2644053 0.16616182 68
0.18345904 1.2574775 0.010645968 40
0.17190254 1.2728471 0.032971654 29
0.17641655 1.2668437 0.054385185 51
0.18732876 1.252331 0.07409656 61
0.19860107 1.2373396 0.092609204 53
0.19839773 1.23761 0.11372216 13
0.21387976 1.2170198 0.1291219 32
0.17383566 1.2702761 0.16771474 67
0.18277052 1.261959 0.010715778 39
0.18321794 1.2613597 0.032134276 30
0.17576948 1.271338 0.054733805 50
0.19020209 1.2520033 0.073852822 93
0.20141616 1.2369804 0.092296332 53
0.19768336 1.241981 0.1144854 13
0.21544221 1.2181903 0.1291219 32
0.17789546 1.2684898 0.16667947 67
0.18806177 1.258418 0.010611063 81
0.19444841 1.2497995 0.031296901 62
0.17989424 1.2694397 0.054385185 51
0.19543245 1.2484716 0.073121607 62
0.20657668 1.233433 0.09135773 54
0.20517749 1.2353212 0.1125773 13
0.21468824 1.2224869 0.13002171 32
0.18998954 1.2558166 0.16202073 70
0.18739894 1.2628999 0.010680873 80
0.19494188 1.2526464 0.031401575 62
0.1828205 1.2691236 0.054210871 76
0.19710478 1.2497063 0.073121607 93
0.19532028 1.2521321 0.094799288 100
0.20796722 1.2349405 0.11219569 14
0.2139602 1.226794 0.13092151 24
0.18710846 1.2632948 0.16409127 69
0.19383904 1.2577031 0.010541254 95
0.20251831 1.2458183 0.030878214 63
0.18221495 1.2736204 0.054559495 100
0.20112288 1.2477291 0.072634131 78
0.19584039 1.2549624 0.095112152 90
0.2176972 1.2250333 0.10952436 14
0.23854253 1.1964891 0.12192347 17
0.18997192 1.2629983 0.16357364 69
0.19084883 1.2654194 0.010680873 93
0.21707627 1.2292408 0.029726824 67
0.18397516 1.274901 0.054559495 100
0.20861822 1.2409079 0.071415432 64
0.20912963 1.2402025 0.091983467 93
0.21467838 1.2325485 0.11105084 14
0.25375864 1.1786405 0.11652464 17
0.18489173 1.2736366 0.16667947 67
0.19024429 1.2699162 0.010750682 92
0.21751472 1.2320212 0.029831495 66
0.18923113 1.2713242 0.054036561 77
0.20330703 1.2517643 0.072877869 94
0.21884984 1.230166 0.089793384 100
0.21514824 1.2353096 0.11143246 14
0.24380413 1.1954895 0.12102367 17
0.19116563 1.2686359 0.16460891 69
0.20361516 1.2548972 0.010401634 97
0.2191295 1.233179 0.029831495 66
0.19909009 1.2612318 0.05281638 100
0.20152918 1.2578174 0.073609084 62
0.21242052 1.2425708 0.091983467 93
0.2110686 1.2444633 0.11334054 20
0.24189296 1.2013129 0.12237337 17
0.20076889 1.2588817 0.16098544 72
0.20291111 1.2593052 0.010471444 96
0.21373397 1.2440479 0.030459527 97
0.19149911 1.2753932 0.054210871 100
0.21233687 1.2460173 0.071659178 80
0.21170372 1.24691 0.092609204 100
0.21264386 1.2455846 0.11334054 20
0.22528523 1.2277635 0.12957181 16
0.20239198 1.2600371 0.16098544 72
0.20692375 1.2572438 0.010401634 97
0.21539074 1.2452188 0.030459527 65
0.19097134 1.2798996 0.054559495 100
0.20485771 1.260178 0.073609084 100
0.21109596 1.2513182 0.093234941 92
0.2007426 1.2660223 0.11791996 58
0.23361668 1.2193339 0.12687239 33
0.19965583 1.2675657 0.163056 70
0.20633554 1.2617165 0.010471444 96
0.22162822 1.2398356 0.03004084 99
0.1927534 1.2811499 0.054559495 100
0.22476575 1.2353464 0.069709264 83
0.22069946 1.2411644 0.091044858 95
0.20585018 1.2624109 0.1167751 99
0.23295435 1.2236302 0.1277722 73
0.20360819 1.2656188 0.16202073 70
0.20121512 1.2727714 0.010680873 93
0.22554711 1.2376969 0.029831495 99
0.20589641 1.2660233 0.05281638 100
0.21734014 1.2495272 0.071659178 80
0.22234616 1.2423111 0.091044858 100
0.21876162 1.2474781 0.11295892 89
0.22898588 1.2327399 0.13002171 96
0.2097449 1.2604756 0.15995017 72
0.21658117 1.2542216 0.010262015 98
0.22491628 1.2421166 0.03004084 99
0.20762995 1.2672215 0.05281638 100
0.22014183 1.2490505 0.071415432 64
0.23071852 1.23369 0.089167647 100
0.22377059 1.2437805 0.11181407 91
0.23391864 1.2290425 0.128672 81
0.21036348 1.2632515 0.1604678 72
0.22278675 1.2487786 0.010122396 85
0.22882015 1.2399507 0.029831495 66
0.21161604 1.2651236 0.052467756 100
0.21173528 1.2649491 0.073609084 100
0.22342226 1.2478487 0.091670595 100
0.22099534 1.2513999 0.11334054 100
0.2256268 1.2446231 0.13272113 94
0.21753749 1.2564594 0.15787962 73
0.21660212 1.2615021 0.010366729 69
0.22822016 1.2443746 0.03004084 33
0.20663571 1.2761948 0.053513627 78
0.23798084 1.2299852 0.068246834 68
0.22952786 1.2424468 0.090419121 100
0.22708613 1.2460464 0.11181407 98
0.22947341 1.242527 0.13182132 94
0.21164632 1.2688081 0.16150309 70
0.22046795 1.2592878 0.010296919 42
0.22756362 1.2487522 0.030250182 32
0.20831621 1.2773306 0.053513627 52
0.22731 1.2491288 0.070927955 48
0.23661366 1.2353147 0.088854775 98
0.22098961 1.2585132 0.1144854 100
0.24083945 1.2290403 0.1277722 97
0.21330228 1.2699274 0.16150309 70
0.21542299 1.2703516 0.010506349 40
0.22693259 1.2531394 0.030459527 32
0.22218284 1.2602425 0.051596198 54
0.23000407 1.2485461 0.070684217 98
0.24035451 1.2330673 0.088229038 98
0.22697657 1.2530736 0.11295892 89
0.24236339 1.230063 0.1277722 97
0.22355267 1.258194 0.15736198 74
0.2215082 1.2647946 0.010366729 27
0.21748966 1.2708476 0.031506244 31
0.22711632 1.2563472 0.051073264 55
0.23159274 1.2496046 0.070684217 65
0.23861405 1.2390287 0.089167647 98
0.23400965 1.2459641 0.11105084 84
0.23526791 1.2440689 0.13137141 94
0.22196785 1.2641022 0.15891489 73
0.22560975 1.2627118 0.010296919 28
0.21062893 1.285466 0.032343622 30
0.23117736 1.2542552 0.05072464 56
0.23561984 1.2475076 0.07019674 82
0.24150354 1.2385709 0.088854775 98
0.2401579 1.2406148 0.10952436 92
0.24137694 1.2387632 0.12957181 96
0.22492981 1.2637446 0.15839726 73
0.22505724 1.2671325 0.010366729 41
0.19048512 1.3200247 0.03443706 27
0.2218841 1.2719872 0.052467756 53
0.2437216 1.2385777 0.068734311 84
0.23873594 1.2462053 0.090106249 96
0.23957193 1.2449263 0.1102876 85
0.24826413 1.2316281 0.1273223 97
0.22234106 1.271288 0.1604678 72
0.23123327 1.2616087 0.01022711 42
0.24031457 1.2476034 0.029831495 33
0.23131394 1.2614844 0.051247578 55
0.2432811 1.2430284 0.069221787 67
0.24693167 1.2373984 0.088229038 98
0.24345094 1.2427664 0.10952436 92
0.25101835 1.2310958 0.12687239 99
0.2220785 1.2757274 0.16150309 70
0.23070052 1.266026 0.010296919 56
0.24838638 1.2385514 0.029203463 68
0.2329455 1.2625384 0.051247578 55
0.24377692 1.245712 0.069465525 66
0.25596777 1.2267737 0.086038955 87
0.2407698 1.2503836 0.11105084 98
0.25149423 1.2337233 0.1273223 89
0.23421386 1.2605681 0.1563267 74
0.24328271 1.250339 0.0099478718 58
0.24150661 1.2531204 0.03004084 66
0.23904195 1.2569802 0.05055033 84
0.2391125 1.2568698 0.070927955 48
0.25551766 1.2311783 0.086664692 57
0.25309846 1.2349669 0.10723466 88
0.25004953 1.2397417 0.128672 81
0.23497432 1.2633505 0.15684435 74
0.24701846 1.2479755 0.0098780617 73
0.24311039 1.2541407 0.03004084 66
0.23639178 1.2647399 0.051247578 55
0.24923104 1.244485 0.068978049 50
0.24858791 1.2454996 0.089167647 84
0.244131 1.2525307 0.11105084 98
0.25369558 1.2374419 0.1277722 97
0.23868063 1.261129 0.15580906 67
0.24434516 1.2557476 0.010017681 87
0.25216347 1.2433227 0.029308135 100
0.23803413 1.2657771 0.051247578 82
0.24340558 1.2572408 0.070684217 65
0.25437456 1.2398088 0.087916173 70
0.25827992 1.2336024 0.10647142 81
0.26147446 1.2285256 0.12507279 83
0.2361955 1.268699 0.15787962 65
0.24489826 1.2584546 0.010052586 86
0.26008323 1.2341441 0.028680105 100
0.23440233 1.2752581 0.052119136 81
0.24817795 1.2532039 0.069953002 49
0.25802714 1.2374358 0.087290429 57
0.24733797 1.2545487 0.11105084 84
0.26402897 1.2278271 0.12462288 100
0.22761658 1.2861217 0.163056 63
0.23844096 1.2732775 0.010331824 84
0.25774363 1.2420969 0.029098792 100
0.24167672 1.2680507 0.051247578 82
0.25638935 1.2442845 0.068490572 50
0.2599059 1.2386041 0.087290429 57
0.25135228 1.2524211 0.1102876 78
0.26279187 1.2339423 0.12597258 90
0.23782584 1.274271 0.15891489 65
0.25581542 1.2487516 0.0098082526 74
0.25931078 1.2430634 0.029098792 100
0.25063166 1.2571876 0.050027397 85
0.25172809 1.2554034 0.069953002 49
0.26352981 1.2361975 0.086664692 71
0.250898 1.2567542 0.11105084 100
0.26433194 1.2348921 0.12597258 82
0.24556822 1.2654278 0.15580906 67
0.25436547 1.2548978 0.0099129668 87
0.25888443 1.2474859 0.029308135 100
0.25025976 1.261632 0.05037602 84
0.25549102 1.2530518 0.069465525 49
0.26310226 1.2405678 0.087290429 57
0.26690689 1.2343276 0.10570818 73
0.26697087 1.2342225 0.12552269 82
0.24931073 1.2631886 0.15477379 67
0.25908098 1.250743 0.0098082526 74
0.26667368 1.2381961 0.028680105 100
0.24673414 1.2711462 0.051247578 82
0.2601777 1.2489307 0.068734311 84
0.2626189 1.2448967 0.087916173 56
0.25930029 1.2503806 0.10914274 85
0.26952079 1.2334913 0.12507279 92
0.24094611 1.2807109 0.15995017 64
0.25561425 1.2603278 0.0099827768 87
0.26625356 1.242607 0.028889447 100
0.24233195 1.2824507 0.052293446 100
0.26696026 1.2414298 0.067515619 51
0.26936236 1.237429 0.086351827 58
0.2589578 1.2547588 0.10990598 92
0.27816203 1.2227724 0.12192347 85
0.25664356 1.2586133 -0.0099478718 86
0.2467083 1.2751615 0.15787962 65
0.26031274 1.2561479 0.0098780617 88
0.26986712 1.2401139 0.028680105 100
0.2552518 1.264641 0.05037602 84
0.26242822 1.2525976 0.068978049 50
0.27698103 1.2281754 0.084474608 59
0.26358184 1.2506616 0.10876112 72
0.27766988 1.2270194 0.12282328 85
0.25431854 1.2662071 0.15477379 67
0.26116452 1.2589782 0.0099129668 87
0.26761115 1.2480646 0.029098792 100
0.25917986 1.2623382 0.050027397 85
0.2511586 1.2759176 0.072146654 79
0.27974698 1.2275195 0.084161744 74
0.26443106 1.2534482 0.10914274 78
0.27744448 1.2314174 0.12372308 75
0.25913045 1.2624218 -0.0099827768 86
0.2601561 1.2606854 0.15270324 68
0.26885548 1.2495828 0.0097035384 90
0.269198 1.2489984 0.029098792 100
0.25678363 1.2701751 0.05072464 84
0.2678968 1.2512181 0.068490572 50
0.2772696 1.2352297 0.085413218 58
0.27298597 1.2425368 0.10647142 81
0.27897608 1.2323188 0.12372308 83
0.25787687 1.2683103 0.15477379 67
0.26039153 1.267797 0.010052586 86
0.26978362 1.2516533 0.029203463 100
0.25944582 1.2694225 0.05055033 84
0.2714906 1.2487192 0.068003096 51
0.27682716 1.2395464 0.086038955 58
0.26961818 1.2519376 0.10837951 79
0.28051069 1.233215 0.12372308 92
0.25953093 1.2692763 0.15477379 67
0.26904282 1.2566321 0.0098082526 89
0.27637553 1.2439315 0.028680105 100
0.25911117 1.2738342 0.050898954 83
0.27109453 1.2530785 0.068490572 50
0.28233647 1.2336068 0.084787481 59
0.26630977 1.2613659 0.1102876 85
0.28399697 1.2307308 0.12282328 85
0.26604328 1.2618275 -0.0099129668 87
0.25732449 1.2769289 0.15684435 66
0.26702699 1.2646992 0.0099478718 73
0.27629685 1.2484934 0.028889447 100
0.26212528 1.2732685 0.05072464 84
0.27303597 1.2541941 0.068490572 50
0.28321886 1.2363923 0.085100345 58
0.27608287 1.2488675 0.10723466 81
0.2877838 1.2284117 0.12192347 93
0.2660341 1.2664349 -0.0099827768 86
0.27279061 1.2546231 0.14959741 70
0.27557892 1.2534614 0.0097035384 90
0.28182879 1.2424506 0.02847076 100
0.27363095 1.2568932 0.048981529 87
0.27072349 1.2620153 0.069465525 49
0.28086644 1.2441461 0.086351827 58
0.27767235 1.2497733 0.10723466 81
0.2883434 1.2309735 0.12237337 76
0.26965615 1.2638958 -0.0099129668 87
0.26867738 1.2656201 0.15270324 68
0.28225645 1.2457505 0.0095290141 76
0.2776849 1.2538737 0.029098792 100
0.2666229 1.2735295 0.05055033 84
0.2842117 1.2422763 0.066540658 52
0.28551254 1.2399648 0.085413218 58
0.28424701 1.2422135 0.10532656 82
0.28334445 1.2438173 0.12552269 82
0.26860088 1.270015 0.15373851 68
0.27506092 1.262349 0.0098431576 88
0.28708118 1.2408237 0.028261416 100
0.27120844 1.2692479 0.050027397 85
0.27997223 1.2535541 0.068003096 51
0.28129381 1.2511874 0.087290429 57
0.2800712 1.2533768 0.10761628 87
0.29631856 1.2242818 0.12012386 94
0.27402806 1.2641987 0.15166797 69
0.28929427 1.2405193 0.0093893949 93
0.28477198 1.2486811 0.028680105 100
0.26900303 1.2771406 0.05072464 84
0.28350142 1.2509742 0.067515619 51
0.29150739 1.2365251 0.084474608 59
0.28072414 1.2559866 0.10799789 79
0.27281845 1.2702546 -0.0099827768 86
0.27192327 1.2718703 0.15373851 68
0.27929568 1.2624093 0.0098082526 89
0.2863608 1.249558 0.028680105 100
0.28604376 1.2501346 0.047935657 89
0.28509784 1.2518553 0.067515619 51
0.29020095 1.2425728 0.085413218 58
0.28139138 1.2585973 0.10837951 87
0.29933703 1.2259543 0.12012386 86
0.27833232 1.2641617 -0.0098431576 87
0.27638108 1.2677109 0.1521856 77
0.28788477 1.2511529 0.0095639192 91
0.28056043 1.2645979 0.029517479 100
0.2821705 1.2616423 0.048981529 87
0.2822018 1.2615849 0.068734311 100
0.29674235 1.2348934 0.083848871 59
0.29172218 1.2441087 0.10494494 82
0.28023177 1.2652011 -0.0098431576 87
0.28661171 1.2534899 0.14752686 71
0.28472778 1.2608154 0.0097384425 75
0.28410134 1.2619746 0.029308135 100
0.28569698 1.2590222 0.048632905 88
0.28666496 1.2572312 0.068003096 51
0.29640692 1.2392063 0.084474608 59
0.2932958 1.2449626 0.10494494 75
0.2979733 1.2363081 0.12237337 76
0.2799738 1.2696114 -0.0099129668 87
0.28362375 1.2628582 0.15011504 78
0.29022127 1.2546884 0.0095988233 76
0.29336825 1.2488168 0.02847076 100
0.28740558 1.2599418 0.048632905 88
0.29962036 1.2371519 0.065078229 53
0.29897946 1.2383475 0.084161744 59
0.29402786 1.2475861 0.10532656 75
0.27983013 1.274076 -0.0099827768 86
0.28078276 1.2722986 0.15270324 68
0.28901356 1.2608441 0.0097035384 90
0.29308218 1.2531922 0.028680105 100
0.2843549 1.2696059 0.049504463 86
0.29185143 1.2555069 0.067515619 51
0.28916115 1.2605665 0.10799789 79
0.28063604 1.2765999 0.15373851 68
0.29276422 1.2583041 0.0096337283 90
0.2949394 1.2541751 0.028680105 100
0.28906101 1.2653339 0.048981529 87
0.29556793 1.2529819 0.067028143 51
0.29104671 1.2615645 0.10799789 72
0.29462826 1.2547657 -0.0095639192 90
0.29518872 1.2537018 0.14649157 72
0.2934733 1.2608989 0.048458595 88
0.29533222 1.2573417 0.067515619 51
0.29904306 1.2502404 0.10532656 75
0.28963637 1.2682414 0.15063268 70
0.29832575 1.2559439 0.028680105 100
0.29146427 1.2691925 0.15063268 70
0.29599625 1.2644501 0.048632905 59
0.29783359 1.2608734 0.067759357 68
0.29488656 1.2666103 0.14959741 70
0.2996071 1.2618481 0.0096337283 100
0.29407912 1.2727067 0.15115032 77
0.29583165 1.273386 -0.0098431576 100
