# .PCD v0.7 - Point Cloud Data file format
VERSION 0.7
FIELDS x y z intensity
SIZE 4 4 4 4
TYPE F F F F
COUNT 1 1 1 1
WIDTH 708
HEIGHT 1
VIEWPOINT 0 0 0 1 0 0 0
POINTS 708
DATA ascii
0.10360652 0.5073688 -0.0090403464 11
-1.0339205 1.127533 0.085098267 3
-1.0397761 1.1288548 0.1425868 3
-1.0345936 1.1335025 0.028377613 6
-1.0093026 1.1277008 0.083842203 5
-1.0268621 1.131729 0.14154093 8
-1.0079975 1.1331307 0.02792385 10
-1.0119348 1.1340483 0.084051549 39
-1.0197687 1.1358743 0.14101799 40
-0.99309915 1.135342 0.027679516 31
-0.98927563 1.1344367 0.082900152 91
-1.0223596 1.1422696 0.14136662 86
-0.98403734 1.1388562 0.027539898 38
-0.99964553 1.1426091 0.083528183 100
-1.0210505 1.1477559 0.14136662 87
-0.98662573 1.1451573 0.027609708 38
-0.97699255 1.1428053 0.082376793 100
-1.0023026 1.1489847 0.13979781 86
-0.98918873 1.1514809 0.027679516 25
-0.97762054 1.1486138 0.082481466 98
-0.9854992 1.1505665 0.13840333 92
-0.96457642 1.1509974 0.027260659 27
-0.98210031 1.1554055 0.082795486 43
-0.99575454 1.1588404 0.13944919 82
-0.96323735 1.1562819 0.027260659 42
-0.97687525 1.1597633 0.082586139 36
-0.99052685 1.1632481 0.13910057 82
-0.96768719 1.1630658 0.027365373 61
-0.97357196 1.1645899 0.082481466 74
-0.98721606 1.1681236 0.13892625 89
-0.97210807 1.1698855 0.027470088 61
-0.96832186 1.1688908 0.08227212 98
-0.97810894 1.1714621 0.13822901 94
-0.94944781 1.1695328 0.027086135 81
-0.96113044 1.1726456 0.081958108 90
-0.96514696 1.1737158 0.13718314 100
-0.94804412 1.1747644 0.027086135 92
-0.95778769 1.177397 0.081853434 100
-0.96372849 1.1790022 0.13718314 100
-0.94283611 1.1786737 0.027016325 93
-0.9487229 1.1802853 0.081434749 100
-0.97197229 1.18665 0.1380547 99
-0.94525427 1.1849518 0.027086135 92
-0.93573445 1.1823099 0.080806717 98
-0.96858877 1.1914274 0.13788038 89
-0.95142299 1.1925964 0.027225753 92
-0.93805832 1.1888349 0.081016064 86
-0.95744461 1.1942914 0.13700883 99
-0.95570773 1.1994804 0.027330469 68
-0.93850797 1.1945745 0.081120729 72
-0.94254261 1.1957252 0.13578865 100
-0.95619637 1.205026 0.027365373 50
-0.94092947 1.2006166 0.081330076 36
-0.95260757 1.2039895 0.13683452 98
-0.93355721 1.2041036 0.026981421 52
-0.92024845 1.2002093 0.080283359 22
-0.95299572 1.2097914 0.13700883 84
-0.93203288 1.2092795 0.026981421 71
-0.91490799 1.2042036 0.080074012 28
-0.94572061 1.2133366 0.13648589 89
-0.92666 1.2133001 0.026911611 72
-0.92486089 1.2127601 0.080702044 34
-0.93653101 1.2162635 0.13578865 94
-0.91171092 1.2143804 0.026667276 81
-0.91757363 1.2161628 0.080388032 88
-0.92543298 1.2185521 0.1349171 100
-0.91397327 1.2206566 0.026737086 88
-0.92364281 1.2236333 0.080806717 98
-0.9181456 1.221941 0.13439415 98
-0.90865225 1.2243196 0.026667276 88
-0.9049682 1.2231722 0.079864666 87
-0.92805237 1.2303621 0.13544002 66
-0.90705758 1.2294085 0.026667276 88
-0.90337747 1.2282481 0.079864666 72
-0.9169355 1.232523 0.13456847 45
-0.90544504 1.2344917 0.026667276 83
-0.9036718 1.2339258 0.079969339 78
-0.91531211 1.2376407 0.13456847 43
-0.89620322 1.2371109 0.026527658 85
-0.90014297 1.2383834 0.079864666 95
-0.90039915 1.2384661 0.13334829 50
-0.88315946 1.2384287 0.02631823 96
-0.90799123 1.246545 0.080388032 100
-0.91390544 1.2484781 0.13474278 63
-0.88531262 1.2446842 0.026388038 100
-0.88735646 1.2453601 0.079341307 100
-0.91222626 1.2535851 0.13474278 78
-0.88743967 1.2509606 0.026457848 100
-0.88000625 1.2484734 0.079027295 100
-0.91241878 1.2593185 0.1349171 80
-0.88196379 1.254693 0.026388038 96
-0.88400286 1.2553831 0.079341307 100
-0.8974914 1.2599487 0.13369691 77
-0.86891192 1.2558022 0.02617861 96
-0.88418931 1.2610328 0.07944598 100
-0.89011735 1.2630624 0.13317397 100
-0.86342829 1.2594434 0.0261088 85
-0.88246661 1.266036 0.07944598 100
-0.89403564 1.2700422 0.13369691 89
-0.86548585 1.265696 0.02617861 79
-0.87130135 1.2677326 0.078922622 85
-0.89792258 1.2770553 0.13421984 52
-0.86751682 1.2719691 0.02624842 78
-0.85072821 1.2660239 0.077875905 53
-0.9036563 1.2847667 0.1349171 36
-0.86763865 1.2775881 0.026283324 88
-0.85086864 1.2715836 0.077980578 19
-0.88309282 1.2831215 0.13317397 41
-0.85269624 1.2777689 0.026038991 99
-0.8660112 1.282589 0.078922622 53
-0.87192589 1.28473 0.13230242 22
-0.84715945 1.2812877 0.025969181 99
-0.86233777 1.2868421 0.078817949 93
-0.86824936 1.2890055 0.1321281 15
-0.84536618 1.2861617 0.025969181 100
-0.84928578 1.2876115 0.078189917 100
-0.87016636 1.2953355 0.13247673 3
-0.83615416 1.287986 0.025829561 100
-0.84007806 1.2894523 0.077771232 76
-0.87214917 1.3014369 0.13282534 1
-0.84182042 1.2956475 0.025969181 100
-0.82330877 1.2886562 0.076933853 49
-0.84046322 1.2951349 0.13003637 3
-0.83428019 1.2986052 0.025864467 74
-0.84378868 1.3022361 0.078189917 53
-0.8348065 1.2988062 0.12968774 15
-0.82496411 1.3005545 0.025724847 71
-0.8437857 1.3078172 0.07829459 72
-0.84968144 1.3100921 0.13125655 56
-0.82692355 1.3065631 0.025794657 75
-0.82710689 1.3066347 0.077457212 70
-0.85530847 1.3176243 0.13195379 99
-0.83434564 1.3150291 0.025969181 96
-0.81035811 1.305585 0.076619841 63
-0.84597272 1.3196068 0.13125655 100
-0.82871848 1.31838 0.025899371 100
-0.82703871 1.3177118 0.077666558 89
-0.83108658 1.3193219 0.13003637 97
-0.81566268 1.318716 0.025689943 100
-0.82882494 1.3240045 0.077875905 95
-0.8199169 1.3204253 0.12916481 100
-0.8063274 1.3204718 0.025550323 100
-0.82318145 1.327312 0.077666558 95
-0.83275634 1.331198 0.1305593 100
-0.81179875 1.3282367 0.025689943 100
-0.80829161 1.326799 0.076933853 100
-0.82157141 1.3322427 0.12968774 100
-0.81003827 1.3325121 0.025689943 100
-0.80653566 1.3310635 0.076933853 100
-0.82348055 1.3380718 0.13003637 100
-0.78726572 1.3230934 0.1776855 20
-0.81544727 1.3403391 0.025829561 100
-0.79719704 1.3327161 0.076515168 100
-0.81597382 1.340559 0.12951343 100
-0.77616829 1.3239324 0.17646681 16
-0.79482502 1.3377998 0.025480513 100
-0.79870647 1.3394384 0.076724514 99
-0.8009246 1.3403749 0.12829325 100
-0.79597682 1.338286 0.17939167 22
-0.79651374 1.344059 0.025550323 81
-0.80957133 1.3496258 0.077457212 59
-0.79892534 1.3450872 0.12829325 90
-0.75746363 1.3274107 0.1745169 16
-0.80552226 1.3534997 0.025759751 60
-0.80570525 1.3535784 0.077352546 48
-0.81154996 1.3560944 0.12968774 24
-0.78285998 1.3437444 0.17817298 5
-0.80714518 1.3598218 0.025829561 94
-0.80549163 1.3591032 0.077457212 100
-0.83507782 1.3719616 0.1321281 67
-0.76992553 1.343646 0.17671055 13
-0.80141562 1.3629487 0.025759751 100
-0.81622976 1.3694485 0.078189917 100
-0.82202107 1.3719895 0.13108224 100
-0.78791112 1.3570235 0.17939167 33
-0.801166 1.3684722 0.025794657 100
-0.80682439 1.3709785 0.077771232 100
-0.79987282 1.3678994 0.12916481 100
-0.76407367 1.3520429 0.17646681 30
-0.79369694 1.3705019 0.025689943 100
-0.81941158 1.3819938 0.07860861 100
-0.8087967 1.37725 0.13021068 100
-0.76576096 1.3580172 0.17695428 22
-0.78612417 1.3727218 0.025585229 100
-0.80452281 1.3810214 0.077875905 100
-0.81393343 1.3852664 0.13090792 100
-0.76731938 1.364239 0.17744176 20
-0.79675168 1.3831824 0.025829561 100
-0.79329318 1.3816078 0.077352546 100
-0.81177741 1.3900237 0.13090792 100
-0.76343042 1.3680111 0.17719802 16
-0.80187124 1.3912196 0.025969181 100
-0.80385381 1.3921306 0.078085244 100
-0.80598396 1.3931096 0.1305593 100
-0.76854998 1.3759077 0.17817298 12
-0.78880984 1.3908869 0.025759751 100
-0.80529767 1.3985333 0.07829459 100
-0.79657084 1.3944862 0.12986206 100
-0.77182955 1.3830121 0.17890419 10
-0.78663439 1.3955564 0.025759751 100
-0.81033128 1.4066467 0.078713275 100
-0.79799181 1.4008718 0.13021068 100
-0.77867132 1.3918297 0.18012288 10
-0.7935943 1.4042536 0.025934275 100
-0.8046003 1.4094491 0.078503937 100
-0.81751305 1.4155447 0.13230242 100
-0.76762635 1.3919952 0.17890419 3
-0.79678816 1.4115196 0.026038991 100
-0.79875368 1.4124558 0.07829459 100
-0.80805641 1.416887 0.13160518 100
-0.78336877 1.4051275 0.18134159 1
-0.79983443 1.4190512 0.026143705 100
-0.80178982 1.4199915 0.07860861 100
-0.8020851 1.4201334 0.13125655 100
-0.79216319 1.4211406 0.026038991 100
-0.80849749 1.429065 0.079131968 100
-0.79980749 1.4248492 0.13125655 100
-0.78640407 1.42383 0.025969181 100
-0.8080985 1.4344441 0.079236634 100
-0.8083666 1.4345752 0.13230242 100
-0.79487258 1.4338014 0.02617861 99
-0.79860693 1.4356446 0.078817949 100
-0.80961174 1.4410764 0.13265105 100
-0.80340523 1.4436036 0.026388038 100
-0.7928161 1.4383333 0.07860861 100
-0.81094629 1.4473569 0.13299966 100
-0.80104572 1.4483237 0.026388038 100
-0.79225999 1.4439127 0.078713275 100
-0.80857354 1.4521034 0.13299966 100
-0.79153389 1.4494218 0.02624842 100
-0.80415362 1.4558131 0.079550654 100
-0.80618423 1.4568415 0.13299966 100
-0.78203088 1.4504616 0.0261088 100
-0.81064457 1.4650788 0.080074012 100
-0.80377847 1.4615712 0.13299966 100
-0.79031318 1.4606026 0.02631823 100
-0.79578191 1.4634204 0.079341307 100
-0.81375402 1.4726806 0.13421984 100
-0.79499191 1.4689655 0.026457848 100
-0.79335326 1.4681139 0.079341307 100
-0.81659657 1.4801929 0.13474278 100
-0.80317086 1.4792259 0.026667276 99
-0.79975325 1.4774346 0.079864666 100
-0.80881518 1.4821842 0.13421984 100
-0.79361528 1.4802072 0.026527658 88
-0.79374403 1.4802752 0.079655327 100
-0.79399067 1.4804056 0.13299966 100
-0.7969026 1.4876692 0.1335226 37
0.12608269 1.2957419 0.13127659 5
0.15132976 1.267978 0.011134636 12
0.15306371 1.265812 0.03328567 28
0.13908929 1.2832675 0.057522789 23
0.14555675 1.2751889 0.07945881 14
0.12778339 1.2973896 0.10700117 10
0.150006 1.2696314 0.12440746 30
0.19071817 1.2187779 0.13272113 7
0.13950112 1.282753 0.17599694 6
0.15431476 1.267801 0.011099731 88
0.16473904 1.2546866 0.032448292 59
0.15204117 1.2706615 0.055953987 73
0.14979306 1.2734897 0.078971334 14
0.17510584 1.2416444 0.095425025 25
0.15663895 1.2648771 0.122881 85
0.18501139 1.2291825 0.13542053 22
0.15211216 1.2705722 0.1713382 21
0.15729362 1.2676096 0.011064826 100
0.17138252 1.2497571 0.032029606 100
0.1562598 1.2689195 0.055605363 98
0.14663389 1.2811167 0.079946287 27
0.16818818 1.2538047 0.097615108 37
0.16080129 1.2631649 0.12211776 100
0.18782371 1.228924 0.13497064 45
0.15625548 1.268925 0.17030293 43
0.16881478 1.2563183 0.010785587 100
0.17051131 1.2541538 0.032238949 100
0.15668735 1.2717905 0.055779677 100
0.16425085 1.262141 0.076777689 29
0.17710629 1.2457399 0.095737889 25
0.17576125 1.247456 0.11791996 100
0.19054973 1.2285888 0.13452072 38
0.1591039 1.2687075 0.16978529 44
0.16314605 1.2671148 0.010995016 100
0.17588347 1.250747 0.031924933 91
0.15599409 1.2763052 0.056128297 97
0.17450508 1.2525182 0.075071514 30
0.16421112 1.2657461 0.099492319 24
0.17863587 1.24721 0.11753834 100
0.18975905 1.2329166 0.13542053 30
0.15610135 1.2761674 0.17185585 36
0.16977403 1.2621324 0.010855397 65
0.18244827 1.2457279 0.031506244 62
0.15289131 1.2839839 0.056825545 47
0.18104631 1.2475425 0.07409656 30
0.16956714 1.2624002 0.09855371 24
0.20329151 1.2187502 0.13092151 24
0.14605945 1.2928265 0.17703223 34
0.17149419 1.2634567 0.010855397 65
0.17803323 1.2549317 0.032029606 30
0.1656014 1.2711391 0.055256739 49
0.17909098 1.2535528 0.074827775 45
0.19533342 1.2323775 0.092296332 53
0.18556109 1.2451177 0.11639348 13
0.19299957 1.2354202 0.13542053 22
0.15376577 1.2865691 0.17444403 56
0.17564201 1.2615931 0.010785587 52
0.17246801 1.2657611 0.032657638 29
0.17942393 1.2566268 0.053513627 52
0.18559182 1.2485273 0.073852822 46
0.18976891 1.2430421 0.094173551 52
0.19197953 1.2401392 0.11486702 13
0.20052958 1.2289116 0.13317102 46
0.17546836 1.2618212 0.16564418 68
0.17736027 1.2628968 0.010785587 39
0.17660978 1.2638896 0.032448292 29
0.17752019 1.2626853 0.054036561 51
0.18726441 1.2497964 0.073852822 100
0.19618747 1.2379937 0.092922069 53
0.19717476 1.2366879 0.11372216 13
0.2056593 1.2254653 0.13182132 47
0.17718741 1.2631254 0.16564418 68
0.18636993 1.254662 0.010576159 40
0.1688334 1.2780354 0.03328567 28
0.1817199 1.2608597 0.053687938 52
0.19736475 1.2400076 0.072146654 63
0.1884211 1.2519281 0.095425025 51
0.20242229 1.2332667 0.1125773 13
0.21083951 1.2220479 0.13047162 48
0.18131608 1.2613981 0.16460891 69
0.18567491 1.2591358 0.010645968 66
0.19447017 1.2473276 0.03119223 31
0.1822454 1.2637402 0.053862248 51
0.18833545 1.2555639 0.074340299 100
0.19954541 1.2405136 0.092922069 53
0.19817781 1.2423496 0.1144854 13
0.21358359 1.2216662 0.13002171 40
0.17495573 1.2735271 0.16823238 67
0.18135303 1.2683797 0.010820492 78
0.20436913 1.2372638 0.030459527 65
0.18033022 1.2697624 0.054385185 76
0.20293313 1.2392052 0.071659178 64
0.20345706 1.2384969 0.092296332 80
0.19507608 1.2498273 0.11601187 13
0.2162421 1.2212126 0.12957181 32
0.18926477 1.2576836 0.16253836 70
0.19493058 1.2535453 0.010471444 96
0.2071844 1.2368577 0.030354854 65
0.18915242 1.2614142 0.053339314 78
0.19987339 1.246814 0.072634131 63
0.20977122 1.2333348 0.091044858 81
0.20604911 1.2384037 0.11295892 13
0.21781915 1.2223749 0.12957181 16
0.1886825 1.2620542 0.16357364 69
0.20368823 1.2450862 0.010262015 98
0.20293367 1.2461213 0.030878214 63
0.18265459 1.273941 0.054559495 100
0.20855588 1.2384084 0.071171694 81
0.20091817 1.2488862 0.093860678 91
0.20652977 1.2411879 0.11334054 13
0.23202735 1.2062092 0.12462288 16
0.19154024 1.2617513 0.163056 70
0.18776447 1.2705927 0.010785587 100
0.20225605 1.250566 0.031087559 63
0.1890879 1.2687638 0.053862248 100
0.20902929 1.2412057 0.071415432 96
0.2014339 1.2517022 0.094173551 100
0.20817661 1.242384 0.11334054 13
0.2381216 1.2010014 0.12282328 8
0.19325897 1.2629995 0.163056 70
0.19292718 1.2669194 0.010680873 93
0.2155064 1.2354971 0.03004084 66
0.18841857 1.2731938 0.054210871 100
0.20943537 1.2439458 0.071659178 80
0.21110219 1.2416263 0.091983467 93
0.21432754 1.2371377 0.11181407 14
0.24410123 1.1957031 0.12102367 8
0.1903865 1.2704551 0.16512655 68
0.20163131 1.258395 0.010471444 96
0.21945295 1.2334099 0.029831495 66
0.19943312 1.2614766 0.05281638 100
0.20186982 1.2580605 0.073609084 62
0.22192737 1.2299409 0.089480512 100
0.20683965 1.251093 0.11486702 20
0.2433258 1.1999414 0.12192347 17
0.19774479 1.2638435 0.16253836 70
0.20102715 1.262872 0.010541254 95
0.22107255 1.2345608 0.029831495 66
0.20345348 1.2594452 0.052467756 100
0.20586979 1.2560325 0.073121607 78
0.21782744 1.2391441 0.091044858 100
0.20284867 1.2602994 0.1167751 39
0.2301892 1.2216849 0.1277722 16
0.20058709 1.2634935 0.16202073 70
0.20964876 1.2542708 0.010331824 84
0.21810246 1.2422425 0.030250182 65
0.19370773 1.2769526 0.054210871 100
0.20414415 1.2621031 0.073852822 100
0.21038029 1.25323 0.093547814 100
0.20907778 1.2550833 0.11524864 87
0.22616518 1.2307703 0.13002171 40
0.20342267 1.2631297 0.16150309 70
0.20905301 1.258736 0.010401634 97
0.22318107 1.2384839 0.029936166 99
0.20003924 1.271657 0.053513627 100
0.21835741 1.2453985 0.071171694 65
0.22111076 1.2414517 0.091044858 100
0.20178697 1.2691517 0.11830158 100
0.22889048 1.2302997 0.12957181 80
0.20404083 1.2659209 0.16202073 70
0.20848432 1.2632113 0.010471444 96
0.22140738 1.244548 0.030250182 65
0.20406094 1.2695994 0.053165004 100
0.21775872 1.2498174 0.071659178 64
0.22050935 1.245845 0.091670595 100
0.21917841 1.247767 0.11295892 100
0.22938982 1.2330199 0.13002171 96
0.20467424 1.2687137 0.16253836 70
0.21020803 1.2644004 0.010471444 96
0.22872218 1.2374622 0.029726824 100
0.21257797 1.2609521 0.052119136 100
0.22055998 1.2493382 0.071415432 48
0.2311233 1.2339685 0.089167647 100
0.21751216 1.2537729 0.11410378 100
0.22880045 1.2373483 0.13092151 88
0.21188825 1.2619556 0.15995017 72
0.21644339 1.2589757 0.010331824 84
0.2337324 1.2336309 0.029412808 67
0.20980272 1.2687106 0.05281638 100
0.21887925 1.2554048 0.072146654 63
0.22940525 1.2399743 0.090106249 96
0.2225219 1.250065 0.11295892 100
0.22604108 1.2449059 0.13272113 94
0.21905079 1.2551534 0.15736198 74
0.21927339 1.2584811 0.010296919 42
0.22863427 1.2446553 0.03004084 33
0.20484355 1.279794 0.053862248 77
0.22614026 1.2483388 0.070927955 97
0.22883278 1.244362 0.090731993 95
0.23300505 1.2381996 0.10990598 100
0.22988588 1.2428066 0.13182132 100
0.21424788 1.2659038 0.1604678 72
0.21651924 1.2662717 0.010436539 41
0.22806513 1.2490896 0.030250182 32
0.21107015 1.2743808 0.053165004 52
0.21895453 1.2626476 0.072877869 100
0.23159233 1.2438406 0.090419121 100
0.22807133 1.2490804 0.11219569 100
0.23697272 1.2358336 0.12957181 96
0.213826 1.2702796 0.16150309 70
0.21825358 1.2674328 0.010436539 41
0.23195577 1.2468872 0.03004084 33
0.2139383 1.2739033 0.05299069 52
0.23499462 1.2423306 0.069709264 66
0.23763239 1.2383754 0.089167647 84
0.22647768 1.2551012 0.11334054 96
0.2429257 1.2304385 0.1277722 97
0.21128684 1.277879 0.16357364 69
0.21778455 1.2719228 0.010506349 27
0.21377987 1.2779732 0.031924933 30
0.22119766 1.2667661 0.052119136 54
0.23116708 1.251704 0.070927955 97
0.24690121 1.2279323 0.086977564 100
0.23250735 1.2496791 0.11181407 84
0.24023247 1.2380077 0.12957181 96
0.22052556 1.2677816 0.15995017 72
0.22603983 1.2629946 0.010296919 28
0.18914223 1.3191445 0.03443706 27
0.23269424 1.2528682 0.05055033 56
0.22404501 1.2660303 0.072877869 100
0.24191254 1.23884 0.088854775 98
0.24056873 1.240885 0.10952436 92
0.24071595 1.2406609 0.13002171 96
0.22960445 1.2575701 0.1563267 74
0.23423219 1.2540175 0.010087491 28
0.21279109 1.286883 0.032343622 30
0.22776544 1.2639298 0.051596198 54
0.2408767 1.2438326 0.069465525 49
0.24346897 1.2398591 0.088854775 98
0.24213192 1.2419086 0.10952436 92
0.24440798 1.2384198 0.1291219 96
0.2280564 1.2634839 0.15787962 73
0.22505593 1.2719028 0.010436539 41
0.23413539 1.2578788 0.030459527 32
0.22732595 1.2683966 0.051944822 54
0.23929608 1.2499077 0.07019674 66
0.2461845 1.2392681 0.08854191 84
0.24484804 1.2413323 0.10914274 85
0.25345847 1.2280328 0.12597258 90
0.22663125 1.2694696 0.15943253 73
0.23537168 1.2595201 0.0101573 71
0.25087333 1.2354015 0.028994121 68
0.22574872 1.274492 0.052467756 53
0.24303579 1.2475955 0.069709264 49
0.25415063 1.2303025 0.086664692 71
0.24216673 1.2489477 0.11066922 85
0.25392535 1.2306529 0.12642249 99
0.22202224 1.2802899 0.16253836 70
0.23501793 1.2640421 0.01022711 70
0.2515074 1.2381788 0.029098792 68
0.22867104 1.2739971 0.052293446 80
0.2469227 1.2453698 0.069221787 67
0.25371578 1.234715 0.087290429 71
0.24497968 1.2484174 0.1102876 78
0.25666335 1.2300918 0.12597258 82
0.23428026 1.2651992 0.15736198 74
0.24307451 1.2549458 0.010017681 58
0.24665284 1.2492919 0.029726824 100
0.24099934 1.2582246 0.05055033 84
0.24531588 1.2514043 0.069953002 66
0.24891993 1.2457099 0.089167647 70
0.23921826 1.2610387 0.11295892 100
0.25819069 1.2310621 0.12597258 99
0.23902357 1.2613463 0.15580906 67
0.24706471 1.2527331 0.0099478718 73
0.2506187 1.2470697 0.029517479 100
0.24287626 1.2594074 0.05055033 84
0.25138727 1.245845 0.068978049 50
0.25494877 1.2401696 0.087916173 56
0.25467229 1.2406102 0.10799789 79
0.25167641 1.2453842 0.12957181 96
0.23269755 1.2756274 0.15995017 64
0.24549523 1.258827 0.010052586 86
0.2500903 1.2514504 0.029726824 100
0.24555433 1.2587321 0.05037602 84
0.24981812 1.2518873 0.069709264 83
0.25233173 1.2478522 0.089167647 56
0.24896824 1.2532517 0.11066922 92
0.26252776 1.2314843 0.12552269 99
0.24050462 1.2668384 0.15684435 66
0.24720341 1.2598869 0.010052586 86
0.2580733 1.2423007 0.029098792 100
0.23783433 1.2750449 0.051944822 81
0.25045833 1.2546208 0.069953002 49
0.2623103 1.2354459 0.086664692 86
0.25685024 1.2442795 0.10837951 72
0.26823875 1.2258544 0.12372308 92
0.23614657 1.2777755 0.15995017 64
0.24046376 1.2745241 0.010331824 84
0.25546327 1.2500758 0.029517479 100
0.24680421 1.2641895 0.05072464 100
0.25621942 1.2488434 0.068978049 50
0.25972331 1.2431324 0.087916173 70
0.24815789 1.2619832 0.11219569 91
0.26669472 1.2317693 0.12507279 83
0.25092107 1.2574793 -0.0099827768 86
0.24389365 1.2689335 0.15684435 66
0.25262451 1.2585204 0.0099827768 87
0.25714085 1.251101 0.029517479 100
0.25267503 1.2584374 0.050027397 100
0.24963522 1.2634311 0.070927955 48
0.25932235 1.2475173 0.08854191 70
0.26518944 1.237879 0.10647142 81
0.26830831 1.2327554 0.12507279 83
0.25568208 1.2534975 0.15166797 69
0.25631434 1.2560806 0.0099129668 87
0.25873783 1.2520696 0.029517479 100
0.24708408 1.2713578 0.051247578 82
0.25435281 1.2593272 0.07019674 82
0.26499355 1.2417157 0.087290429 71
0.25862047 1.2522638 0.10952436 85
0.26682118 1.2386909 0.12642249 90
0.25129291 1.2643917 0.15477379 67
0.25621352 1.2606871 0.0099827768 87
0.26170132 1.2515212 0.029412808 100
0.24500519 1.2794074 0.051944822 81
0.2614181 1.2519943 0.068978049 50
0.26688945 1.242856 0.087290429 57
0.26156726 1.2517452 0.10914274 78
0.27471119 1.229792 0.12372308 92
0.24732569 1.2755316 0.15787962 65
0.2547777 1.2668159 0.010087491 71
0.27044168 1.2404557 0.028680105 100
0.25280294 1.2701392 0.050898954 83
0.26504618 1.2495356 0.068490572 50
0.27754101 1.2285086 0.084474608 59
0.25915471 1.25945 0.11066922 78
0.27822843 1.2273518 0.12282328 85
0.25196439 1.2715503 0.1563267 74
0.25457016 1.2713403 0.0101573 71
0.27318186 1.2397565 0.028575432 100
0.25767258 1.2660755 0.05037602 100
0.26579788 1.2522869 0.068734311 67
0.27822047 1.2312059 0.084787481 59
0.2609506 1.2605127 0.11066922 78
0.27990654 1.2283448 0.12282328 85
0.25870857 1.2643175 0.15373851 68
0.25724381 1.270591 0.010122396 85
0.26365012 1.2596366 0.029726824 100
0.26535413 1.2567229 0.049330149 87
0.26840088 1.2515132 0.068490572 50
0.28473753 1.2235788 0.083223134 60
0.27149874 1.2462161 0.10723466 81
0.28142795 1.2292379 0.12282328 85
0.26229987 1.2619455 0.15270324 68
0.276052 1.2422051 0.0095290141 92
0.26736552 1.2571781 0.029517479 100
0.26205578 1.2663305 0.050201707 85
0.27207568 1.2490591 0.068003096 51
0.28037483 1.2347538 0.085100345 58
0.27217758 1.2488835 0.10761628 79
0.28303263 1.2301726 0.12282328 76
0.255294 1.2779858 0.15736198 74
0.26963755 1.2569751 0.0098082526 74
0.27695474 1.2442654 0.028680105 100
0.25972694 1.2741892 0.050898954 83
0.27960852 1.239656 0.066540658 52
0.2750183 1.2476289 0.087290429 71
0.26984894 1.2566079 0.10914274 78
0.29039392 1.2209222 0.12012386 86
0.26464888 1.26564 -0.0099827768 86
0.25794405 1.2772861 0.15684435 66
0.26845017 1.2632093 0.0099129668 87
0.28265551 1.2383249 0.028261416 100
0.25960132 1.2787104 0.051247578 82
0.27542689 1.2509878 0.068003096 51
0.28362596 1.2366248 0.085100345 58
0.26968771 1.2610414 0.10990598 85
0.28818393 1.2286403 0.12192347 85
0.26076302 1.2766753 0.1563267 74
0.27698651 1.2519608 0.0096686333 75
0.28027236 1.24616 0.028680105 100
0.26619989 1.2710028 0.05037602 84
0.27017453 1.2639861 0.069709264 49
0.28517479 1.2375057 0.085100345 58
0.2713176 1.2619683 0.10990598 78
0.28970626 1.229506 0.12192347 76
0.27600092 1.2537006 -0.0097035384 89
0.26720566 1.2692273 0.15373851 68
0.27581716 1.2581887 0.0097733475 89
0.27615121 1.2575939 0.029308135 100
0.27779454 1.254668 0.048632905 88
0.27587527 1.2580853 0.068734311 33
0.28302082 1.2453624 0.086351827 58
0.27889091 1.2527158 0.10761628 79
0.29234648 1.2287579 0.12147357 77
0.26998332 1.2685759 0.15322088 76
0.29009223 1.2363873 0.0093195848 78
0.27388063 1.2654779 0.029726824 100
0.2774635 1.2590487 0.048981529 87
0.27459633 1.2641937 0.069465525 49
0.28844503 1.239343 0.085100345 58
0.28718302 1.2416077 0.10494494 82
0.29292056 1.231312 0.12192347 85
0.27445945 1.2644393 0.15166797 69
0.2821331 1.25484 0.0096686333 75
0.2872887 1.2455083 0.02847076 100
0.27347681 1.2705078 0.050027397 85
0.28024936 1.2582495 0.068490572 50
0.28730121 1.2454857 0.086038955 58
0.28036866 1.2580336 0.10837951 79
0.29838261 1.2254283 0.12012386 86
0.27440506 1.2688277 0.15270324 68
0.28181991 1.2592326 0.0097384425 75
0.29078707 1.2428741 0.028261416 100
0.27513808 1.2714221 0.050027397 85
0.27996156 1.2626228 0.068978049 50
0.29077849 1.2428898 0.085413218 58
0.28010112 1.2623682 0.10914274 78
0.27701381 1.2680002 -0.0099129668 97
0.27420354 1.273127 0.15373851 76
0.28066403 1.2654364 0.0098431576 88
0.29243931 1.2437761 0.028261416 100
0.27498683 1.2758794 0.05037602 84
0.28168276 1.2635624 0.068978049 50
0.2855722 1.256408 0.10761628 87
0.28066403 1.2654364 -0.0098431576 87
0.28334296 1.2605085 0.14959741 70
0.29283354 1.2470114 0.009459204 77
0.28461668 1.2622527 0.029308135 100
0.28999117 1.2522837 0.047935657 89
0.28529131 1.2610013 0.068490572 50
0.29286164 1.2469593 0.10532656 75
0.28239504 1.2663735 -0.0098431576 87
0.28047299 1.2699387 0.1521856 77
0.29081362 1.2550054 0.0095988233 76
0.28830534 1.2596991 0.029098792 100
0.28988245 1.2567478 0.048284281 88
0.29270637 1.2514637 0.067028143 51
0.29862082 1.2403961 0.084474608 59
0.29831281 1.2409725 0.1038001 76
0.28798613 1.2602963 -0.0097035384 89
0.28139666 1.2726271 0.15270324 68
0.28969917 1.2612081 0.0097035384 90
0.28878438 1.2629343 0.048807215 58
0.29624754 1.2488507 0.066540658 52
0.29995835 1.2418482 0.1038001 76
0.2822085 1.2753434 -0.0099827768 86
0.28043908 1.2786825 0.15425615 75
0.29598185 1.2532183 0.0095290141 76
0.28763923 1.2690885 0.049330149 87
0.2933028 1.2583147 0.10723466 73
0.28667718 1.2709186 -0.0098780617 97
0.28302631 1.2778637 0.15373851 68
0.29674587 1.2558753 0.0095639192 91
0.29951295 1.2505666 0.047412723 60
0.29767776 1.2540874 0.067028143 51
0.2968238 1.2557259 0.10647142 73
0.28750303 1.273608 -0.0099129668 97
0.28926536 1.270227 0.15115032 77
0.29653275 1.2602438 0.048284281 88
0.29563767 1.2619749 0.068003096 51
0.28733769 1.2780284 -0.0099827768 96
0.29891077 1.2556443 0.14649157 72
0.29824555 1.2611256 0.048284281 59
0.28911263 1.2789421 -0.0099827768 100
0.2946057 1.2729745 0.15115032 77
0.29374948 1.2790546 -0.0099478718 100
0.29636297 1.2738628 0.15115032 77
0.29821387 1.2835057 -0.0099827768 100
