# .PCD v0.7 - Point Cloud Data file format
VERSION 0.7
FIELDS x y z intensity
SIZE 4 4 4 4
TYPE F F F F
COUNT 1 1 1 1
WIDTH 784
HEIGHT 1
VIEWPOINT 0 0 0 1 0 0 0
POINTS 784
DATA ascii
0.057307452 0.0040236115 0.047730394 58
0.052944779 0.0031377673 0.015951499 58
0.051377714 0.00072008371 0.04804441 54
0.042245507 0.004319191 0.048149079 100
0.042904735 0.011078238 0.047835063 75
0.038027883 0.0095394254 0.04804441 36
0.034255326 0.0096783042 0.048149079 26
0.02556181 0.0083623528 0.048463095 8
0.029736936 0.02004385 0.047835063 9
0.029410601 0.025138617 0.047625721 9
0.0086844563 0.00064247847 0.049300469 7
0.077492595 0.51291525 0.0093893949 15
0.097716361 0.52596098 0.0089705372 16
0.074838221 0.51361656 -0.0094242999 11
0.073946148 0.51527679 -0.0094242999 11
0.073059916 0.51694006 -0.0094242999 11
0.078396648 0.52397549 -0.0092846798 11
0.095302343 0.5348103 -0.0089356322 12
0.083017766 0.53247118 -0.0091450606 11
0.09647572 0.54130566 -0.0088658221 12
0.070638925 0.53037226 -0.0093544899 11
0.04814142 0.52782416 0.029203463 34
0.06013605 0.53361225 -0.0094941091 11
0.08817777 0.54912812 -0.0089356322 12
0.079407185 0.54895693 -0.0090752514 11
0.080475062 0.57108521 0.0089007271 16
0.076095611 0.57117808 0.0089705372 16
-0.055932283 0.51578712 0.03443706 27
0.079097807 0.57436794 0.0089007271 16
0.05252701 0.56536257 0.0093893949 15
0.051815718 0.56710035 0.0093893949 15
0.077075034 0.57930982 0.0089007271 16
0.03319484 0.56161672 0.029203463 34
0.049787343 0.57215375 0.0093893949 15
0.04906559 0.57398844 0.0093893949 15
0.048384428 0.57573819 0.0093893949 15
0.047709346 0.57749033 0.0093893949 15
0.017124653 0.56789881 0.0099478718 14
0.046377659 0.58100164 0.0093893949 15
0.045720994 0.58276081 0.0093893949 15
0.022579551 0.57615602 0.0098082526 14
0.0068714619 0.57253206 0.010087491 14
0.062606215 0.59481561 0.0090403464 16
0.043155909 0.58981991 0.0093893949 15
0.019891977 0.5836314 0.0098082526 14
0.015467048 0.58416969 0.0098780617 14
-0.0040560365 0.57943952 0.01022711 14
0.0028551221 0.58394974 0.010087491 14
0.0022090077 0.58586079 0.010087491 14
0.0053649545 0.58903515 0.010017681 14
-0.029427946 0.57960582 0.010645968 13
-0.0072658062 0.58904088 0.01022711 14
-0.0079253316 0.59108454 0.01022711 14
-0.00092124939 0.59544909 0.010087491 14
-0.0014970303 0.59727699 0.010087491 14
-0.025021017 0.59211123 0.010506349 13
-0.0026894212 0.60113132 0.010087491 14
-0.026248932 0.59612989 0.010506349 13
-0.038320422 0.59461403 0.010715778 13
-0.035092413 0.59779793 0.010645968 13
-0.039560378 0.59882843 0.010715778 13
-0.017086387 0.60749769 0.010296919 14
-0.029166996 0.60611224 0.010506349 13
-0.029735565 0.60813493 0.010506349 13
-0.030297041 0.61015952 0.010506349 13
-0.034710944 0.61113751 0.010576159 13
-0.039125025 0.61214441 0.010645968 13
-0.047405839 0.61215854 0.010785587 13
-0.069239557 0.60870016 0.01116954 25
-0.052366972 0.61533844 0.010855397 13
-1.0584319 1.136903 0.02879647 3
-1.0155802 1.1271281 0.084156215 5
-1.0253603 1.1293591 0.14136662 6
-1.0240245 1.1348393 0.028203089 8
-1.0123782 1.1321398 0.084051549 15
-1.0163326 1.1330564 0.14066938 19
-0.99938375 1.1348314 0.02778423 23
-0.99944013 1.1348448 0.083423518 82
-1.0247526 1.140805 0.14154093 68
-0.99810082 1.1402376 0.02778423 38
-0.9981572 1.140251 0.083423518 100
-1.0215108 1.1458362 0.14136662 100
-0.99679905 1.1456392 0.02778423 42
-0.9793877 1.1414108 0.082481466 100
-1.0105088 1.1489686 0.14049506 84
-0.98771209 1.1491215 0.027644612 27
-0.98777789 1.1491377 0.083004825 100
-0.9937008 1.150598 0.13910057 92
-0.97086042 1.1506031 0.027365373 26
-0.99225754 1.1559578 0.083318844 58
-0.99429566 1.1564679 0.13927488 84
-0.97533709 1.1573863 0.027470088 33
-0.97154289 1.1564226 0.08227212 42
-0.99293727 1.1618562 0.13927488 77
-0.96816629 1.1612114 0.027365373 61
-0.98178917 1.1647217 0.082900152 48
-0.99541873 1.1682339 0.13962349 84
-0.97259551 1.1680256 0.027470088 61
-0.96880811 1.1670356 0.08227212 100
-0.97667068 1.1690909 0.1380547 91
-0.95186776 1.168213 0.027121039 75
-0.95582968 1.1692635 0.081644088 94
-0.96949071 1.1728857 0.13753176 98
-0.94660634 1.1724145 0.027051231 83
-0.96021301 1.1760732 0.081958108 96
-0.9680751 1.1781873 0.13753176 100
-0.95098037 1.1792142 0.027155945 89
-0.9472248 1.1781904 0.081330076 100
-0.96664101 1.1834838 0.13753176 98
-0.95347017 1.1852541 0.027225753 88
-0.93431193 1.1799626 0.080702044 100
-0.9671821 1.1890414 0.13770607 91
-0.94816023 1.1894215 0.027155945 92
-0.94248837 1.1878335 0.081225403 90
-0.9541983 1.1911119 0.1366602 92
-0.93906575 1.1922053 0.027016325 83
-0.94109458 1.1927806 0.081225403 80
-0.9412927 1.1928368 0.13561434 100
-0.95672673 1.2031856 0.027365373 52
-0.93953496 1.1982429 0.081225403 48
-0.94356257 1.1994008 0.13596296 100
-0.94376189 1.2048262 0.027155945 44
-0.92276531 1.1987143 0.080388032 24
-0.95552129 1.2082493 0.13718314 85
-0.93256849 1.2074685 0.026981421 64
-0.91352171 1.2018483 0.079969339 26
-0.95581585 1.2143283 0.13735744 84
-0.92727751 1.2112379 0.026911611 74
-0.91973656 1.2089856 0.080388032 28
-0.93715256 1.2141874 0.13578865 94
-0.914244 1.212918 0.026702182 75
-0.92201859 1.2152698 0.080597371 68
-0.92796487 1.2170684 0.13509139 98
-0.90320665 1.2148446 0.026527658 81
-0.91671437 1.2189795 0.080388032 100
-0.92647415 1.2219671 0.13509139 100
-0.90928525 1.2222824 0.026667276 88
-0.91132277 1.222914 0.080178685 90
-0.92679065 1.227708 0.13526571 80
-0.90777737 1.2271192 0.026667276 81
-0.90981287 1.2277575 0.080178685 74
-0.92526466 1.2326027 0.13526571 54
-0.91736466 1.2366033 0.026876707 79
-0.90035015 1.2311928 0.07976 76
-0.91580099 1.2361059 0.13456847 43
-0.8929655 1.2341191 0.026457848 81
-0.9007141 1.2366114 0.079864666 89
-0.89907366 1.2360837 0.13317397 46
-0.88364917 1.2369276 0.02631823 93
-0.91038865 1.2456365 0.080492698 100
-0.90872234 1.2450938 0.13421984 57
-0.88969022 1.2441815 0.026457848 100
-0.88793617 1.2436037 0.079341307 100
-0.91281599 1.2517983 0.13474278 77
-0.88810986 1.2489531 0.026457848 100
-0.88067287 1.2464763 0.079027295 100
-0.91688126 1.2585351 0.13526571 85
-0.88651365 1.2537193 0.026457848 96
-0.88854915 1.2544048 0.079550654 100
-0.89825922 1.2576745 0.13369691 77
-0.87328964 1.2553591 0.02624842 96
-0.88289779 1.2586355 0.079341307 100
-0.89071876 1.2613026 0.13317397 95
-0.86032921 1.256166 0.026038991 96
-0.88504606 1.2646863 0.079550654 100
-0.8853144 1.2647789 0.13282534 100
-0.86995298 1.2650357 0.02624842 79
-0.86633712 1.2637751 0.07860861 100
-0.89486653 1.2737213 0.13387123 66
-0.87207574 1.271071 0.02631823 81
-0.86657566 1.2691329 0.078713275 65
-0.91010052 1.284469 0.13544002 35
-0.87390822 1.2778711 0.026388038 88
-0.85712391 1.2718847 0.07829459 25
-0.88747185 1.2827089 0.1335226 39
-0.85716635 1.2771659 0.0261088 96
-0.86860448 1.2812884 0.079027295 34
-0.87264317 1.2827441 0.13230242 28
-0.84787196 1.2793365 0.025969181 93
-0.86305803 1.2848697 0.078817949 78
-0.87271672 1.288389 0.13247673 16
-0.84617525 1.2839692 0.025969181 100
-0.85571998 1.2874827 0.078503937 100
-0.88407785 1.2979221 0.13369691 12
-0.84812099 1.2902343 0.026038991 100
-0.8351863 1.2854214 0.077457212 99
-0.89529747 1.3077885 0.1349171 1
-0.84638816 1.2948678 0.026038991 100
-0.8185131 1.2843902 0.076619841 42
-0.87112623 1.3041662 0.13282534 1
-0.83697802 1.2971406 0.025899371 89
-0.83715516 1.2972078 0.077771232 51
-0.84308511 1.2994616 0.130385 7
-0.82962173 1.2995871 0.025794657 74
-0.84658688 1.3060994 0.078399263 57
-0.85992223 1.3112185 0.1321281 45
-0.83139986 1.306087 0.025864467 72
-0.83157879 1.3061565 0.077666558 72
-0.85049945 1.3134992 0.13143086 90
-0.8333382 1.3121243 0.025934275 88
-0.81863588 1.3063625 0.077038527 63
-0.85796458 1.3217752 0.13230242 97
-0.82948273 1.3164544 0.025899371 99
-0.83151585 1.3172598 0.077875905 80
-0.83185214 1.3173929 0.13003637 99
-0.81652302 1.3165702 0.025689943 100
-0.82598466 1.3203546 0.077666558 91
-0.82262975 1.3190126 0.12933913 97
-0.81080264 1.3200762 0.025620133 100
-0.82025486 1.3238971 0.077457212 95
-0.82984418 1.3277733 0.13021068 100
-0.81267387 1.3260969 0.025689943 100
-0.81471211 1.3269286 0.077247873 100
-0.83536571 1.3353572 0.13090792 100
-0.79353303 1.3182857 0.17817298 21
-0.81062657 1.3310876 0.025689943 100
-0.79789025 1.3258355 0.076410495 100
-0.82407469 1.3366332 0.13003637 100
-0.78600901 1.320936 0.17744176 16
-0.80506617 1.3340596 0.025620133 100
-0.80341524 1.3333724 0.07682918 100
-0.80379421 1.3335302 0.12829325 100
-0.79700321 1.3307033 0.17914793 19
-0.79192978 1.334371 0.025410704 100
-0.80134124 1.3383291 0.07682918 100
-0.80355614 1.3392606 0.12846756 100
-0.7949391 1.3356366 0.17914793 24
-0.7863695 1.3372552 0.025340894 96
-0.7976107 1.3420267 0.076724514 78
-0.80716306 1.3460815 0.1289905 100
-0.767474 1.3292346 0.17573559 18
-0.81378907 1.3545208 0.025899371 60
-0.80111307 1.3490877 0.077038527 42
-0.8033126 1.3500304 0.12881619 45
-0.77463669 1.3377399 0.17695428 9
-0.81734937 1.3614216 0.026004085 83
-0.8028515 1.3551508 0.077247873 74
-0.82881159 1.3663794 0.13143086 39
-0.78914446 1.3492221 0.17914793 10
-0.80234534 1.3608252 0.025759751 100
-0.8061884 1.3625041 0.077561885 100
-0.82296509 1.3698337 0.13108224 100
-0.79065055 1.3557158 0.17963541 22
-0.79488939 1.3628864 0.025655037 100
-0.80604368 1.3678038 0.077666558 100
-0.81185287 1.3703648 0.13021068 100
-0.79415017 1.3625606 0.18036664 33
-0.78722686 1.3653717 0.025550323 100
-0.81296641 1.3768318 0.078189917 100
-0.79872245 1.3704898 0.12916481 100
-0.76476723 1.3553721 0.17671055 24
-0.79801387 1.3755387 0.025794657 100
-0.80548102 1.3788929 0.077875905 100
-0.80762833 1.3798575 0.13021068 100
-0.76825124 1.362169 0.17744176 20
-0.79760653 1.3813014 0.025829561 100
-0.80505902 1.3846819 0.077980578 100
-0.81627065 1.3897679 0.13125655 100
-0.77330309 1.3702769 0.17841671 19
-0.8028453 1.3890953 0.025969181 100
-0.81027776 1.3924966 0.078399263 100
-0.79971439 1.3876625 0.12986206 100
-0.77672046 1.3771399 0.17914793 14
-0.80056709 1.3940496 0.025969181 100
-0.8134262 1.3999913 0.078713275 100
-0.804676 1.3959482 0.1305593 100
-0.77088219 1.3803332 0.17866045 12
-0.78931886 1.3945346 0.025794657 100
-0.80397826 1.4013705 0.07829459 100
-0.80248278 1.4006732 0.1305593 100
-0.76154727 1.3815845 0.1776855 11
-0.79255885 1.4017602 0.025899371 100
-0.80538052 1.4077936 0.078503937 100
-0.80568141 1.4079351 0.13108224 100
-0.75581211 1.3844686 0.17719802 5
-0.80118376 1.4115891 0.0261088 100
-0.7995376 1.4108076 0.07829459 100
-0.81604487 1.4186459 0.13230242 100
-0.76800483 1.3958347 0.17914793 3
-0.7972452 1.4152026 0.026073895 100
-0.80280918 1.4178672 0.07860861 100
-0.8031047 1.4180088 0.13125655 100
-0.79318434 1.4190314 0.026038991 100
-0.80953103 1.4269302 0.079131968 100
-0.80083448 1.4227281 0.13125655 100
-0.78383416 1.4199781 0.025899371 100
-0.81093603 1.4331849 0.079341307 100
-0.80582672 1.4306951 0.13195379 100
-0.78873545 1.4281591 0.026038991 100
-0.79965097 1.4335256 0.078817949 100
-0.81066424 1.4389399 0.13265105 100
-0.80076152 1.4399362 0.02631823 100
-0.781223 1.4302458 0.077875905 100
-0.81189066 1.445456 0.13299966 100
-0.80199152 1.4464366 0.026388038 100
-0.7931996 1.4420379 0.078713275 100
-0.80417913 1.4475312 0.13247673 100
-0.79248124 1.4475479 0.02624842 100
-0.80154377 1.4521219 0.079341307 100
-0.80002719 1.4513564 0.13230242 100
-0.78654379 1.4504155 0.02617861 100
-0.80983382 1.4622722 0.079969339 100
-0.80829388 1.4614882 0.13334829 100
-0.78771836 1.4569037 0.02624842 100
-0.80030221 1.4633653 0.079550654 100
-0.80764431 1.4671354 0.1335226 100
-0.79951793 1.4689261 0.026527658 100
-0.79432672 1.4662375 0.079341307 100
-0.81581765 1.4773679 0.13456847 100
-0.8042832 1.4770994 0.026667276 100
-0.79555136 1.4725404 0.079550654 100
-0.81169826 1.4809711 0.13439415 100
-0.79119045 1.4762323 0.026457848 93
-0.79485816 1.4781635 0.079655327 100
-0.80391949 1.4829351 0.13387123 100
-0.77610832 1.4748075 0.026213514 37
-0.7903654 1.4823849 0.079550654 34
-0.79941279 1.4871933 0.13369691 68
0.12809137 1.2923173 0.13051336 5
0.13829464 1.2831577 0.011483683 12
0.13879624 1.2825325 0.03443706 27
0.11860302 1.3077017 0.060311776 21
0.14579728 1.2738063 0.12555231 18
0.20732138 1.1971214 0.12642249 8
0.12566617 1.298898 0.18169098 6
0.15753147 1.2626941 0.010995016 38
0.16298729 1.2558451 0.032552965 59
0.15524122 1.2655692 0.055431053 49
0.15668702 1.2637542 0.077508904 29
0.1524581 1.2690631 0.10105667 23
0.14755836 1.2752142 0.12555231 66
0.19060165 1.2211788 0.13317102 15
0.15279183 1.2686441 0.17082056 14
0.16413042 1.25772 0.010855397 100
0.17575356 1.2430289 0.031610917 92
0.16059539 1.2621881 0.054908119 100
0.15955821 1.263499 0.077265166 29
0.17495129 1.2440429 0.095737889 38
0.16019908 1.262689 0.12211776 100
0.18242681 1.2345942 0.13677025 45
0.15085167 1.2745037 0.17237349 42
0.16715556 1.2575582 0.010820492 100
0.16885549 1.2553934 0.032343622 100
0.15871054 1.2683131 0.055431053 100
0.17362922 1.249314 0.074827775 30
0.1718114 1.2516289 0.096989371 25
0.1717073 1.2517616 0.11906482 100
0.18533561 1.2344056 0.13632034 38
0.15151036 1.2774826 0.17289113 35
0.16754472 1.260402 0.010855397 100
0.18152153 1.2424803 0.031401575 93
0.15791464 1.2727501 0.055779677 98
0.17766231 1.2474287 0.074340299 30
0.17098102 1.2559958 0.097615108 24
0.17813635 1.2468209 0.11753834 100
0.18927449 1.2325391 0.13542053 38
0.14963129 1.2833714 0.17444403 42
0.16322482 1.2697072 0.011029921 89
0.18570071 1.2406688 0.03119223 63
0.16097942 1.2726083 0.055605363 73
0.1757696 1.2534995 0.075071514 30
0.17276484 1.2573817 0.097615108 24
0.17748314 1.2512857 0.11830158 32
0.1897794 1.2353991 0.13587044 30
0.14560336 1.2924738 0.17703223 34
0.17097765 1.2630601 0.010855397 65
0.17630839 1.2561255 0.032134276 30
0.17600524 1.2565198 0.053687938 52
0.18342409 1.2468688 0.073852822 62
0.19123772 1.2367042 0.093234941 53
0.18984982 1.2385098 0.11486702 13
0.19726306 1.2288661 0.13362093 23
0.15322503 1.2861539 0.17444403 56
0.18240651 1.2516629 0.010576159 54
0.17558414 1.2606024 0.032343622 30
0.16440958 1.2752445 0.055605363 49
0.1850909 1.2481455 0.073852822 46
0.20365486 1.2238209 0.090419121 55
0.1998249 1.2288393 0.11219569 14
0.20123148 1.2269963 0.13272113 39
0.17612553 1.2598929 0.16512655 68
0.17917415 1.2592539 0.010715778 39
0.16756165 1.274575 0.033180997 28
0.17330807 1.2669934 0.054559495 50
0.19267392 1.2414428 0.072634131 63
0.19203633 1.2422841 0.093860678 52
0.19779074 1.2346919 0.11334054 13
0.19686323 1.2359155 0.13497064 45
0.17658523 1.2626697 0.16564418 83
0.18337396 1.2574136 0.010645968 40
0.1694136 1.2759733 0.033180997 28
0.17034152 1.2747396 0.055256739 49
0.19679078 1.2395765 0.072146654 63
0.1949572 1.2420142 0.093547814 52
0.19123524 1.2469623 0.11601187 13
0.20911607 1.2231905 0.13092151 40
0.17142582 1.2732981 0.16875002 73
0.18020532 1.2650349 0.010785587 52
0.18543702 1.2580314 0.031924933 30
0.17440215 1.2728035 0.054908119 50
0.19359785 1.2471066 0.073121607 78
0.19652441 1.243189 0.093547814 52
0.19751865 1.241858 0.1144854 13
0.21062079 1.2243185 0.13092151 32
0.17887762 1.2668122 0.16616182 68
0.18083134 1.2679933 0.010820492 78
0.21339533 1.2240659 0.029622151 67
0.17862055 1.2709756 0.054559495 50
0.19534895 1.2484097 0.073121607 78
0.2053194 1.23496 0.091670595 81
0.20509627 1.235261 0.1125773 13
0.20996717 1.2286903 0.13182132 31
0.18185148 1.2666172 0.16564418 68
0.18968341 1.2596155 0.010611063 81
0.19959286 1.24615 0.030982886 63
0.18155247 1.2706642 0.054385185 76
0.19113809 1.2576388 0.074340299 92
0.19874865 1.2472973 0.093860678 91
0.20323148 1.2412057 0.11372216 13
0.21850067 1.2204572 0.1291219 24
0.19045749 1.2585636 0.16253836 70
0.1866762 1.2673291 0.010750682 79
0.2000789 1.248983 0.031087559 63
0.18447769 1.2703385 0.054210871 100
0.20572355 1.2412565 0.071659178 80
0.20624325 1.240545 0.092296332 93
0.21298531 1.2313163 0.11105084 14
0.23157072 1.205876 0.12462288 16
0.18988588 1.2629355 0.16357364 69
0.20015422 1.2524061 0.010401634 83
0.21347848 1.2340331 0.03004084 66
0.19207487 1.2635468 0.053339314 78
0.20503983 1.2456694 0.072146654 79
0.19629082 1.2577333 0.095425025 100
0.21113989 1.2372578 0.11219569 14
0.23080602 1.21014 0.12552269 16
0.1904746 1.2657535 0.16409127 69
0.19249368 1.2666076 0.010680873 93
0.2197679 1.2287214 0.029622151 100
0.18332335 1.279346 0.054908119 100
0.21134147 1.2404263 0.071171694 81
0.20492017 1.2493461 0.093547814 100
0.21392003 1.2368445 0.11181407 14
0.19446465 1.2638698 0.163056 70
0.19422933 1.2678525 0.010680873 93
0.20975882 1.2461212 0.03066887 64
0.19437078 1.2676547 0.053513627 100
0.20606068 1.2512962 0.072634131 94
0.21233806 1.2425119 0.091983467 100
0.19957119 1.2603773 0.11715672 13
0.23048747 1.2171142 0.12687239 16
0.19731393 1.263536 0.16253836 70
0.20274034 1.2591841 0.010471444 96
0.22050524 1.2341586 0.029831495 66
0.20285577 1.2590215 0.052467756 100
0.21217072 1.2458994 0.071659178 96
0.21611106 1.2403487 0.09135773 94
0.20679566 1.2534714 0.11524864 27
0.22738156 1.224472 0.128672 16
0.20445749 1.2567651 0.15995017 72
0.20445001 1.2603933 0.010471444 82
0.20717189 1.2565305 0.03119223 94
0.19538388 1.2732596 0.053862248 100
0.20468661 1.2600574 0.073609084 100
0.21434146 1.2463557 0.092296332 100
0.20283118 1.2626907 0.11715672 59
0.23121488 1.2224095 0.1277722 32
0.20393321 1.2611268 0.16098544 72
0.2107484 1.2550418 0.010331824 98
0.21574062 1.2479043 0.030564198 97
0.19714275 1.2744944 0.053862248 100
0.20184833 1.2677666 0.074584037 91
0.21147755 1.2539994 0.093547814 100
0.20567834 1.2622907 0.1167751 100
0.22832838 1.229907 0.12957181 64
0.19900626 1.2718301 0.16409127 69
0.21016279 1.2595084 0.010401634 97
0.23449591 1.2244585 0.028994121 68
0.19890592 1.275723 0.053862248 100
0.2092483 1.2608256 0.073365346 100
0.22330782 1.240574 0.090731993 95
0.21523613 1.2522006 0.11410378 96
0.22660169 1.2358295 0.13092151 96
0.19745499 1.277813 0.16564418 68
0.21178794 1.2606326 0.010401634 97
0.2167342 1.2534572 0.030773543 96
0.20510805 1.2703229 0.053165004 100
0.21425778 1.2570497 0.072634131 63
0.22711238 1.238402 0.090106249 100
0.21906552 1.2500753 0.11334054 96
0.22814822 1.2368994 0.13092151 96
0.21339455 1.258302 0.15891489 73
0.21350262 1.2618102 0.010401634 97
0.22406289 1.2463758 0.030250182 98
0.21135685 1.2649463 0.052467756 100
0.2204437 1.2516654 0.071659178 64
0.22874936 1.2395263 0.090106249 96
0.22517774 1.2447463 0.11181407 84
0.23088038 1.2364116 0.13047162 96
0.21291932 1.2626626 0.15995017 72
0.22083849 1.2547103 0.01022711 56
0.22460568 1.2491629 0.030354854 65
0.21084797 1.2694219 0.05281638 79
0.22101182 1.2544551 0.071902916 64
0.22484151 1.2488157 0.091670595 100
0.23014572 1.2410048 0.11066922 92
0.22813123 1.2439713 0.13227122 94
0.2124705 1.2670326 0.16098544 72
0.21359137 1.269122 0.010506349 40
0.21846631 1.2618892 0.031087559 31
0.21259335 1.2706027 0.05281638 53
0.22714278 1.249016 0.070927955 97
0.23203507 1.2417575 0.090106249 100
0.23069453 1.2437465 0.11105084 91
0.23850092 1.2321643 0.128672 97
0.21636695 1.2650039 0.15995017 72
0.20662025 1.28371 0.010785587 39
0.23367637 1.243233 0.029831495 33
0.2156252 1.2702382 0.05264207 53
0.22346872 1.258504 0.072146654 63
0.23494658 1.2413327 0.089793384 97
0.22487885 1.2563944 0.11372216 89
0.23919487 1.234977 0.1291219 96
0.21827009 1.2662814 0.15995017 72
0.21062642 1.2815728 0.010715778 39
0.23312199 1.2476629 0.03004084 33
0.21406916 1.2763832 0.053165004 52
0.23395494 1.2464073 0.07019674 82
0.24314582 1.232553 0.087916173 98
0.2309199 1.2509823 0.11219569 100
0.24189711 1.2344353 0.128672 97
0.22214034 1.2642167 0.15891489 73
0.22341049 1.2660522 0.010366729 27
0.2216118 1.2687842 0.031296901 31
0.22679493 1.2609117 0.051421888 55
0.23671144 1.2458496 0.069953002 99
0.24367604 1.2352712 0.088229038 98
0.24231708 1.2373352 0.10876112 94
0.23816213 1.2436461 0.13092151 96
0.22599214 1.262131 0.15787962 73
0.23170677 1.2571449 0.0101573 28
0.21680012 1.2799594 0.031924933 30
0.2230615 1.2703764 0.052293446 53
0.22534472 1.2668821 0.072877869 94
0.24206054 1.2412987 0.089167647 84
0.24072871 1.243337 0.10990598 92
0.23768553 1.2479945 0.13182132 94
0.23088202 1.2584072 0.1563267 74
0.228971 1.2649084 0.010296919 42
0.24675268 1.2374957 0.029203463 34
0.23664945 1.2530711 0.05037602 56
0.24319854 1.2429748 0.069221787 83
0.2447001 1.24066 0.088854775 98
0.24443683 1.2410657 0.10914274 85
0.25093788 1.2310436 0.12687239 90
0.22514418 1.270808 0.15995017 72
0.23719475 1.2559373 0.010087491 43
0.24190006 1.2486277 0.029831495 33
0.22216135 1.2792914 0.05299069 52
0.24377692 1.245712 0.069465525 49
0.25169092 1.2334177 0.087290429 85
0.2428951 1.247082 0.1102876 85
0.25254902 1.2320848 0.12687239 99
0.22584867 1.2735633 0.1604678 72
0.2367399 1.2603967 0.0101573 85
0.25109896 1.2379181 0.029098792 68
0.23466673 1.2636422 0.051247578 55
0.23902753 1.2568154 0.070927955 48
0.25331035 1.2344563 0.087290429 85
0.24350542 1.2498056 0.11066922 85
0.25416383 1.2331202 0.12687239 99
0.23488823 1.2632954 0.15684435 74
0.24059483 1.2581093 0.010087491 71
0.2495262 1.2440194 0.029412808 100
0.2353251 1.2664226 0.051421888 82
0.2513566 1.2411318 0.068490572 67
0.25916377 1.2288153 0.086038955 87
0.24202883 1.255847 0.11181407 98
0.25160891 1.2407337 0.128672 89
0.23661205 1.2643924 0.15684435 66
0.24655935 1.2524155 0.0099478718 73
0.24586564 1.2535185 0.029936166 99
0.23705983 1.267518 0.051421888 82
0.24877527 1.2488927 0.069465525 49
0.25445658 1.2398604 0.087916173 70
0.25627023 1.236977 0.10723466 81
0.25532904 1.2384733 0.1277722 89
0.23936829 1.2638481 0.1563267 66
0.24930394 1.2517755 0.0099129668 87
0.24967027 1.2511885 0.029726824 100
0.23668855 1.2719878 0.051770512 81
0.25465298 1.2432052 0.068490572 50
0.249823 1.2509438 0.089793384 69
0.25062561 1.2496579 0.10990598 92
0.26315698 1.22958 0.12507279 92
0.23802543 1.2698458 0.15787962 65
0.24239132 1.2663155 0.010192205 85
0.25539213 1.245339 0.029308135 100
0.23616794 1.2763566 0.052119136 81
0.2571868 1.2424434 0.068246834 68
0.26174185 1.2350941 0.086664692 57
0.256271 1.243921 0.10837951 72
0.26665542 1.2271662 0.12417299 100
0.23552644 1.2773917 0.15995017 64
0.24307814 1.2690895 0.01022711 84
0.26542309 1.2327541 0.02847076 100
0.24628687 1.2638718 0.05072464 84
0.25779787 1.2451535 0.068490572 50
0.26543665 1.2327321 0.086038955 58
0.24661443 1.2633392 0.1125773 82
0.26723215 1.2298124 0.12462288 92
0.25250578 1.2537591 -0.0099129668 87
0.24741924 1.2620304 0.15477379 75
0.25836247 1.2479665 0.0097733475 89
0.25663719 1.2507941 0.029517479 100
0.25112593 1.2598265 0.050201707 85
0.25635639 1.2512543 0.069221787 33
0.26911139 1.23035 0.085413218 73
0.26060933 1.2442842 0.10799789 79
0.26680887 1.2341237 0.12552269 90
0.24913859 1.2630836 0.15477379 67
0.25174788 1.2626668 0.010052586 100
0.26038593 1.2483981 0.029308135 100
0.25180575 1.2625712 0.05037602 84
0.25701001 1.2539746 0.069465525 49
0.26253602 1.2448465 0.087916173 70
0.25718302 1.2536888 0.10990598 85
0.26742148 1.2367765 0.12597258 82
0.24886069 1.267436 0.15580906 67
0.25149697 1.2671854 0.010122396 99
0.26419744 1.2460316 0.029098792 100
0.24745974 1.2739098 0.051421888 82
0.26696026 1.2414298 0.067515619 51
0.27037916 1.2357354 0.086038955 58
0.2589578 1.2547588 0.10990598 85
0.27414966 1.2294552 0.12372308 92
0.2486971 1.2718489 0.15684435 66
0.25732759 1.2613524 0.0099827768 87
0.26483876 1.2487423 0.029203463 100
0.25024015 1.2732511 0.051247578 100
0.26860759 1.242415 0.067515619 51
0.26897392 1.2418 0.086977564 57
0.26165637 1.2540851 0.10952436 85
0.27774963 1.2270669 0.12282328 85
0.25732759 1.2613524 -0.0099827768 86
0.2494621 1.2745574 0.15736198 74
0.26006186 1.2606494 0.0099478718 73
0.27159205 1.2411374 0.028680105 100
0.25808033 1.2640027 0.050201707 85
0.26419896 1.2536484 0.068978049 50
0.27363738 1.2376761 0.086038955 72
0.26334789 1.2550886 0.10952436 78
0.28033817 1.2263367 0.12237337 76
0.25417361 1.2706139 0.15580906 67
0.26582155 1.2547581 0.0098082526 89
0.27424842 1.2403834 0.028575432 100
0.26383695 1.2581434 0.049504463 86
0.2598654 1.2649182 0.070440479 49
0.28226465 1.226709 0.083848871 59
0.2660358 1.2543926 0.10914274 78
0.27404839 1.2407246 0.12597258 82
0.26373887 1.2583108 0.15166797 69
0.27145296 1.2487839 0.0096686333 75
0.26576617 1.2585588 0.029622151 100
0.26345345 1.262534 0.049853086 85
0.26949412 1.2521509 0.068490572 50
0.27583379 1.2412539 0.086351827 58
0.27257997 1.2468468 0.10723466 81
0.27561089 1.241637 0.12597258 82
0.26535973 1.2592573 0.15166797 69
0.27712411 1.2428255 0.0095290141 76
0.27246493 1.2508986 0.029098792 100
0.26318267 1.2669824 0.050201707 100
0.27117887 1.2531271 0.068490572 50
0.27550566 1.2456298 0.086977564 57
0.2693395 1.2563143 0.10914274 85
0.2879737 1.2240258 0.12102367 86
0.25934422 1.2736335 0.15580906 67
0.26694065 1.2646497 0.0099478718 73
0.27819729 1.2449787 0.028680105 100
0.25906876 1.278406 0.051247578 82
0.27492335 1.2506999 0.068003096 51
0.28313744 1.2363456 0.085100345 58
0.273074 1.2539316 0.10837951 79
0.2925432 1.219909 0.11967396 96
0.25927311 1.278049 0.15684435 66
0.27459177 1.2552004 0.0097384425 90
0.27985695 1.2459245 0.028680105 100
0.26871336 1.2655567 0.049853086 85
0.27170339 1.260289 0.069221787 50
0.28184158 1.2424281 0.086038955 58
0.27282667 1.2583101 0.10914274 85
0.28930539 1.2292788 0.12192347 85
0.27360466 1.2569395 -0.0097733475 88
0.26867738 1.2656201 0.15270324 68
0.28110904 1.2473993 0.0095639192 91
0.27163506 1.2642199 0.029726824 100
0.27915815 1.2508631 0.048284281 88
0.27430499 1.2594795 0.068978049 50
0.28825676 1.234709 0.084474608 59
0.27830136 1.2523842 0.10761628 79
0.29082984 1.2301407 0.12192347 76
0.27325821 1.261338 -0.0098431576 87
0.2741147 1.2598174 0.15063268 70
0.2808266 1.2518265 0.0096337283 90
0.27336192 1.2651885 0.029726824 100
0.27014959 1.2709386 0.050201707 85
0.27601525 1.2604389 0.068978049 50
0.28506348 1.2442424 0.086038955 58
0.28094435 1.2516158 0.10723466 81
0.28388387 1.246354 0.12597258 82
0.27394181 1.2641505 0.15166797 77
0.27863345 1.2597598 0.0097733475 89
0.28477198 1.2486811 0.028680105 100
0.27769366 1.2614559 0.049155839 87
0.28157723 1.2544469 0.068003096 51
0.28959262 1.2399807 0.085100345 58
0.28072414 1.2559866 0.10799789 87
0.29877087 1.223416 0.11967396 87
0.27379584 1.2684907 0.15270324 68
0.28323385 1.2554464 0.0096686333 75
0.28836825 1.2461032 0.02847076 100
0.27749175 1.2658957 0.049504463 86
0.28518194 1.2519014 0.067515619 51
0.29313743 1.2374245 0.084474608 59
0.28620419 1.2500412 0.10647142 73
0.2994166 1.225998 0.12012386 86
0.27553758 1.2694517 0.15270324 68
0.28014535 1.2651541 0.0098431576 88
0.29194331 1.2435061 0.028261416 100
0.27827096 1.2685933 0.049678773 86
0.28686571 1.2528229 0.067515619 51
0.29666123 1.2348492 0.083848871 59
0.28318399 1.2595785 0.10837951 79
0.28014535 1.2651541 -0.0098431576 87
0.28282946 1.260229 0.14959741 78
0.29043257 1.2502602 0.0095290141 76
0.28789988 1.2549462 0.028889447 100
0.28569698 1.2590222 0.048632905 88
0.28666496 1.2572312 0.068003096 51
0.29171073 1.2478954 0.086038955 72
0.29142886 1.2484169 0.10570818 81
0.28282619 1.2643338 -0.0098082526 88
0.28821644 1.2543606 0.14752686 79
0.29116592 1.2529259 0.0095639192 91
0.29336825 1.2488168 0.02847076 100
0.28552318 1.263454 0.048981529 87
0.29024285 1.2546482 0.067515619 51
0.29711315 1.2418298 0.084787481 59
0.29681015 1.242395 0.10418171 75
0.28260797 1.2688931 0.15166797 77
0.29003775 1.2591238 0.0096686333 75
0.2987906 1.2426552 0.028052073 100
0.28350702 1.2714114 0.049678773 86
0.29938927 1.2415287 0.065565705 53
0.2947751 1.2502104 0.10570818 73
0.28159133 1.275016 -0.0099827768 86
0.28253776 1.2732352 0.15270324 68
0.28903618 1.265381 0.0097733475 89
0.28627518 1.2706221 0.049504463 57
0.29371753 1.2564945 0.067515619 68
0.29562184 1.2528796 0.1060898 73
0.28717214 1.2689195 -0.0098431576 87
0.28888598 1.2656661 0.15011504 78
0.29354447 1.2609715 0.0096686333 75
0.28617939 1.2750716 0.049853086 57
0.29276416 1.2624654 0.10799789 72
0.29261863 1.2627439 -0.0097035384 89
0.29330102 1.2614377 0.14856213 71
0.29977375 1.2529416 0.0094941091 92
0.29703489 1.2582277 0.067515619 51
0.28781441 1.2760234 -0.0099478718 96
0.2949321 1.2622862 0.14856213 71
0.29508585 1.2662224 0.048807215 58
0.29665205 1.2631735 0.14856213 71
0.29943544 1.2617607 0.0096337283 90
0.29828888 1.2640109 0.14856213 71
0.29935029 1.2662021 0.0097035384 100
0.2912828 1.2821729 0.050201707 56
0.29664543 1.2715569 -0.0098082526 100
0.29827276 1.2683352 0.14959741 78
0.29759035 1.2742703 -0.0098431576 100
0.29757449 1.2787309 -0.0099129668 100
0.29758668 1.2831976 -0.0099827768 100
