# .PCD v0.7 - Point Cloud Data file format
VERSION 0.7
FIELDS x y z intensity
SIZE 4 4 4 4
TYPE F F F F
COUNT 1 1 1 1
WIDTH 795
HEIGHT 1
VIEWPOINT 0 0 0 1 0 0 0
POINTS 795
DATA ascii
0.057162702 0.0099359155 0.015811881 50
0.051243454 0.00080710649 0.04804441 54
0.055116266 0.012584805 0.047416378 34
0.049180567 0.0093123317 0.047730394 100
0.036247015 0.0011143088 0.048463095 68
0.042357922 0.01625514 0.047625721 38
0.039729953 0.018031716 0.047625721 28
0.042873919 0.027972698 0.047102362 20
0.032357931 0.018232405 0.047835063 9
0.020629525 0.0069155693 0.048672438 8
0.022545695 0.015316248 0.048253752 8
0.063348562 0.5455476 0.0093544899 15
0.091705024 0.56046635 0.008796013 16
0.072761208 0.55381608 0.0091450606 16
0.029044688 0.53401297 -0.0099827768 10
0.074918061 0.55877787 0.0090752514 32
0.045682251 0.54577959 -0.0096337283 11
0.088859618 0.56680506 0.008796013 33
0.063240707 0.55551648 -0.0092846798 11
0.081875175 0.5678122 0.0089007271 32
0.054338425 0.55591875 -0.0094242999 11
0.042562902 0.55293137 -0.0096337283 11
0.027078092 0.54846352 -0.0099129668 10
0.048435807 0.55957371 -0.0094941091 11
0.084671587 0.57658827 0.008796013 16
0.058820009 0.56584316 -0.0092846798 11
0.032221437 0.55690414 -0.0097733475 11
0.033925414 0.55981398 0.029203463 34
0.049963772 0.56634605 -0.0094242999 11
0.03319484 0.56161672 0.029203463 34
0.056674331 0.57108396 -0.0092846798 11
0.070907444 0.5785706 0.0090054413 16
0.058508337 0.57361633 0.027738057 36
0.05605185 0.57263482 -0.0092846798 11
0.0095370412 0.55623376 0.030459527 32
0.070242137 0.58024406 -0.0090054413 12
0.008757174 0.55821609 0.030459527 32
0.043478966 0.57180244 -0.0094941091 11
0.030370831 0.56876206 0.029203463 34
0.02967155 0.57057714 0.029203463 34
0.048910201 0.57995397 0.0093544899 15
0.078205079 0.59294581 0.008796013 16
-0.066006184 0.5412764 0.03443706 27
0.054519355 0.58779681 0.0092148706 15
0.027005017 0.57767892 0.029203463 34
0.027577341 0.57995689 0.0097035384 15
0.0080671906 0.57510579 0.010052586 14
0.045102775 0.59031343 0.0093544899 15
0.014298201 0.58145469 0.0099129668 14
-0.069828033 0.55184567 0.03443706 27
0.021229804 0.5858627 0.0097733475 14
0.020526648 0.58789438 0.0097733475 14
-0.010364294 0.57934552 0.010331824 14
0.004104495 0.58649796 0.010052586 14
0.041450441 0.60092664 0.0093544899 15
-0.019929111 0.58272707 0.010471444 13
0.0098822117 0.59450507 0.0099129668 14
-0.074937522 0.56694543 0.03443706 27
-0.0059900284 0.59159815 0.010192205 14
-0.010390759 0.59223354 0.010262015 14
0.0080444217 0.60026526 0.0099129668 14
-0.026900232 0.59141952 0.010541254 13
-0.058117151 0.58407986 0.011099731 12
-0.008959949 0.60113358 0.010192205 14
-0.028768778 0.59757149 0.010541254 13
-0.044684052 0.59497494 0.010820492 13
-0.018436074 0.60496163 0.010331824 14
-0.049735904 0.59802848 0.010890301 13
-0.061877429 0.59685612 0.011099731 12
-0.047040701 0.6031909 0.010820492 13
-0.063071251 0.60113204 0.011099731 12
-0.063627899 0.60316598 0.011099731 12
-0.083550811 0.60024053 0.011448778 12
-0.076406121 0.60449636 0.011309159 12
-0.080850244 0.60567582 0.011378969 12
-0.065925062 0.6118573 0.011099731 12
-0.089679897 0.60789847 0.011518588 11
-0.090241849 0.61013234 0.011518588 11
-0.098563254 0.61045748 0.011658208 23
-0.11855078 0.60801345 0.012007256 22
-0.097743094 0.61556631 0.011623302 23
-1.052583 1.1355689 0.028691756 2
-0.99610776 1.1226861 0.083109498 5
-1.0409005 1.1329039 0.14276111 6
-1.0357127 1.1375484 0.028412517 8
-0.99292153 1.12763 0.083004825 13
-1.0182736 1.1335063 0.14084367 19
-0.9935444 1.1334565 0.027679516 18
-1.0072165 1.1366758 0.083842203 78
-1.0208738 1.1398916 0.1411923 68
-0.98448688 1.1369817 0.027539898 37
-1.0059271 1.1421093 0.083842203 100
-1.0156977 1.1444459 0.14084367 100
-0.98520476 1.1425397 0.027574802 43
-0.97945255 1.1411439 0.082481466 100
-1.0067027 1.1477566 0.14014643 84
-0.98784441 1.1485847 0.027644612 28
-0.97045594 1.144304 0.082062781 100
-1.0112453 1.1543455 0.14066938 87
-0.97875339 1.1520114 0.027504992 23
-0.97689074 1.1515459 0.082481466 64
-0.99056453 1.1549628 0.13892625 85
-0.97360128 1.1560963 0.027435184 32
-0.97948927 1.1575884 0.082690813 33
-0.99314219 1.1610482 0.13927488 77
-0.95861965 1.1581898 0.027190849 50
-0.98772961 1.1656802 0.083214171 43
-0.98012131 1.1637225 0.13822901 87
-0.96312898 1.1647046 0.027295563 61
-0.96515065 1.1652319 0.082062781 90
-0.98266309 1.1698002 0.13857763 89
-0.95973903 1.169736 0.027260659 74
-0.96369177 1.1707826 0.082062781 96
-0.9811874 1.1754149 0.13857763 98
-0.95647377 1.1742221 0.027225753 81
-0.95656735 1.1742473 0.081748761 96
-0.96636432 1.1768759 0.13735744 99
-0.94726425 1.1776396 0.027086135 92
-0.95314854 1.1792417 0.081644088 100
-0.96101803 1.1813842 0.13700883 100
-0.94204885 1.1815391 0.027016325 93
-0.94985777 1.1836929 0.081539422 100
-0.96540755 1.187982 0.13753176 94
-0.94045764 1.1872652 0.027016325 96
-0.93864173 1.1867567 0.081016064 94
-0.96187288 1.1932604 0.13735744 92
-0.94291347 1.1932963 0.027086135 88
-0.92956549 1.1895117 0.080597371 80
-0.95662731 1.1971847 0.13700883 100
-0.96825773 1.2065008 0.027574802 50
-0.92993742 1.1954836 0.080702044 52
-0.95313662 1.2021534 0.13683452 100
-0.93800193 1.2031496 0.027051231 41
-0.93235368 1.2015053 0.08091139 22
-0.94786936 1.2060218 0.13648589 85
-0.92681462 1.2057707 0.026876707 66
-0.91926855 1.203544 0.080283359 26
-0.94435018 1.210945 0.13631158 82
-0.9157812 1.2078042 0.026702182 74
-0.9235639 1.2101288 0.080597371 28
-0.9390617 1.2147577 0.13596296 92
-0.91814965 1.2138197 0.026771991 74
-0.91636091 1.213279 0.080283359 64
-0.93376428 1.2185401 0.13561434 99
-0.91858202 1.2192708 0.026806897 78
-0.90915316 1.2163863 0.079969339 100
-0.92083734 1.2199608 0.13456847 99
-0.90928525 1.2222824 0.026667276 85
-0.91323048 1.2235053 0.080283359 88
-0.91917831 1.2253487 0.13456847 78
-0.89251274 1.2223326 0.026388038 85
-0.91362435 1.2289526 0.080388032 68
-0.90625352 1.2266413 0.1335226 60
-0.90211934 1.2317554 0.026597468 79
-0.90225345 1.2317981 0.079864666 74
-0.91580099 1.2361059 0.13456847 43
-0.90819472 1.2390175 0.026737086 88
-0.89501017 1.2347767 0.079550654 91
-0.91045386 1.2397441 0.13421984 43
-0.89513963 1.240391 0.026527658 93
-0.89717728 1.2410543 0.07976 100
-0.90691072 1.2442225 0.13404553 54
-0.88977295 1.2439302 0.026457848 100
-0.8937102 1.2452263 0.079655327 100
-0.90154511 1.2478052 0.13369691 78
-0.88043767 1.2466753 0.02631823 100
-0.89764315 1.2524087 0.079969339 100
-0.89978415 1.2531222 0.13369691 84
-0.87884909 1.2514162 0.02631823 100
-0.88467914 1.2533804 0.079341307 100
-0.90950269 1.2617441 0.13474278 77
-0.88103062 1.2574413 0.026388038 93
-0.87172478 1.2542715 0.078713275 100
-0.90409201 1.2652965 0.13439415 87
-0.87940639 1.262184 0.026388038 96
-0.87388796 1.2602839 0.078922622 100
-0.89302236 1.2668724 0.1335226 100
-0.86995298 1.2650357 0.02624842 83
-0.87576681 1.2670627 0.079131968 99
-0.89486653 1.2737213 0.13387123 66
-0.8569873 1.2657545 0.026038991 77
-0.86657566 1.2691329 0.078713275 65
-0.89506727 1.2791719 0.13404553 38
-0.86457878 1.2742653 0.026213514 88
-0.84968632 1.2689564 0.077875905 27
-0.89506811 1.2851341 0.13421984 36
-0.86101753 1.2782757 0.02617861 96
-0.84802395 1.2735952 0.077875905 29
-0.88772851 1.2878976 0.13369691 29
-0.8591451 1.2834439 0.02617861 96
-0.85179859 1.2807672 0.078189917 68
-0.87271672 1.288389 0.13247673 16
-0.8536815 1.2867324 0.0261088 100
-0.85197133 1.2861028 0.07829459 100
-0.86164123 1.2896626 0.13160518 13
-0.84053403 1.2876875 0.025899371 100
-0.8500703 1.2912378 0.07829459 99
-0.86532861 1.2969184 0.1321281 1
-0.83506626 1.2908881 0.025829561 100
-0.82590097 1.2874413 0.077038527 47
-0.87103301 1.3044143 0.13282534 1
-0.84062427 1.298804 0.025969181 89
-0.83146256 1.2953203 0.077457212 53
-0.84857959 1.3018292 0.13090792 7
-0.84072977 1.3041296 0.026004085 72
-0.83530647 1.3020468 0.077771232 57
-0.86726743 1.3143218 0.13282534 45
-0.82767135 1.3046402 0.025794657 74
-0.83530277 1.3076017 0.077875905 72
-0.83564001 1.3077326 0.13003637 93
-0.81471997 1.3048279 0.025585229 90
-0.82793373 1.3100064 0.077561885 63
-0.84683436 1.3174133 0.13125655 97
-0.8184225 1.3117968 0.025689943 100
-0.82046932 1.3126072 0.077247873 76
-0.83935755 1.3200855 0.13073361 97
-0.82033199 1.3178163 0.025759751 100
-0.81866246 1.3171488 0.077247873 95
-0.84492594 1.3276482 0.13143086 97
-0.82573122 1.3258314 0.025899371 100
-0.81849962 1.3229097 0.077352546 97
-0.82994157 1.3275325 0.13021068 100
-0.80906779 1.3243486 0.025620133 100
-0.81850797 1.3281991 0.077457212 97
-0.82439548 1.3306005 0.12986206 100
-0.78260034 1.3135529 0.17671055 16
-0.79963166 1.326278 0.025480513 100
-0.81645292 1.3332112 0.077457212 95
-0.81127912 1.3310788 0.12881619 100
-0.78243452 1.3191898 0.17695428 16
-0.80147201 1.3322868 0.025550323 100
-0.79982549 1.3316017 0.076619841 100
-0.80757159 1.3348246 0.12864187 100
-0.76594371 1.317505 0.17500438 16
-0.79940206 1.3372364 0.025550323 100
-0.7867108 1.3319016 0.075991809 100
-0.81834918 1.345201 0.12986206 100
-0.77307802 1.3261708 0.17622307 20
-0.80119532 1.3432701 0.025620133 100
-0.79954916 1.3425717 0.07682918 83
-0.80726355 1.3458446 0.1289905 100
-0.77305382 1.3313305 0.17646681 18
-0.80643708 1.3513696 0.025759751 61
-0.808456 1.352235 0.077457212 40
-0.79415625 1.3461061 0.12794463 45
-0.76733845 1.3346119 0.17597933 9
-0.80623478 1.3568952 0.025794657 83
-0.81558031 1.3609394 0.077980578 78
-0.82322198 1.3642461 0.13090792 33
-0.78539962 1.3478789 0.17866045 10
-0.79135066 1.3560216 0.025550323 100
-0.80984885 1.3641033 0.077771232 100
-0.80835897 1.3634524 0.12968774 93
-0.78155524 1.3517423 0.17841671 26
-0.80027479 1.3655422 0.025759751 100
-0.79680222 1.3640106 0.0771432 100
-0.82815462 1.3778386 0.13177948 100
-0.78859788 1.3603921 0.17963541 38
-0.80022424 1.3705939 0.025794657 100
-0.8058787 1.3731091 0.077771232 100
-0.80257279 1.3716385 0.12951343 100
-0.7776677 1.3605605 0.17841671 21
-0.79447109 1.3736652 0.025724847 100
-0.81287533 1.3819287 0.07829459 100
-0.80046445 1.3763562 0.12951343 100
-0.78465289 1.3692569 0.17963541 22
-0.78314334 1.3744601 0.025550323 100
-0.80880433 1.386095 0.078189917 100
-0.80186218 1.3829474 0.12986206 100
-0.7752158 1.3708656 0.17866045 19
-0.79375368 1.3849348 0.025794657 100
-0.80664545 1.3908343 0.078189917 100
-0.81058449 1.392637 0.13090792 100
-0.75505966 1.3672274 0.17622307 15
-0.79886061 1.3929754 0.025934275 100
-0.80265683 1.3947287 0.078085244 100
-0.81202036 1.3990533 0.13125655 100
-0.75837356 1.3742764 0.17695428 13
-0.79667777 1.39768 0.025934275 100
-0.80408853 1.4011341 0.07829459 100
-0.80439872 1.4012787 0.13073361 100
-0.78144568 1.3905804 0.18036664 8
-0.79277927 1.4012916 0.025899371 100
-0.81283289 1.4107195 0.078922622 100
-0.79688865 1.4032235 0.13021068 100
-0.77399117 1.3924584 0.17963541 5
-0.78334063 1.4025464 0.025759751 100
-0.81058806 1.4154727 0.078922622 100
-0.80187052 1.4113371 0.13090792 100
-0.76463622 1.3936729 0.17866045 3
-0.78833932 1.4106505 0.025899371 100
-0.80292219 1.4176311 0.07860861 100
-0.81040615 1.4212136 0.13195379 100
-0.79869956 1.4214061 0.026143705 100
-0.79525787 1.4197438 0.07829459 100
-0.8188892 1.4311576 0.13299966 100
-0.80001277 1.4278619 0.026213514 100
-0.79836792 1.4270604 0.07860861 100
-0.80582672 1.4306951 0.13195379 100
-0.79232448 1.4299235 0.0261088 100
-0.80144328 1.4344066 0.078922622 100
-0.79636019 1.4319077 0.13125655 100
-0.78654546 1.4325949 0.026038991 100
-0.80639035 1.442433 0.079341307 100
-0.80843848 1.4434483 0.13265105 100
-0.78422445 1.4372563 0.026038991 100
-0.80403489 1.4471636 0.079341307 100
-0.80607933 1.4481862 0.13265105 100
-0.79593307 1.4495848 0.02631823 100
-0.79607612 1.4496571 0.079027295 100
-0.81235796 1.4578781 0.1335226 100
-0.80068022 1.4579091 0.026457848 100
-0.79725486 1.4561645 0.079236634 100
-0.80284697 1.4590125 0.13282534 100
-0.79483384 1.4605575 0.026388038 100
-0.80385572 1.4651899 0.07976 100
-0.8040995 1.4653151 0.13317397 100
-0.78886384 1.4634082 0.02631823 99
-0.80851477 1.4735856 0.080178685 100
-0.80697173 1.4727864 0.13369691 100
-0.7901023 1.4696953 0.026388038 99
-0.79555136 1.4725404 0.079550654 100
-0.81523055 1.4828153 0.13474278 100
-0.79472917 1.4780958 0.026527658 96
-0.78955644 1.4753718 0.079341307 100
-0.81802279 1.4903615 0.13526571 100
-0.79224926 1.4827853 0.026527658 38
-0.79061395 1.4819169 0.079550654 38
-0.79614371 1.4848534 0.13334829 78
0.12306452 1.2983518 0.13203983 5
0.15089533 1.2676299 0.011134636 12
0.13888571 1.2826042 0.03443706 27
0.13116229 1.2922343 0.05856866 22
0.10013357 1.330923 0.11388429 9
0.14834183 1.2708137 0.12478908 18
0.20008054 1.2063025 0.1291219 8
0.12092382 1.3050003 0.18376152 6
0.16492271 1.2532423 0.010785587 39
0.16539186 1.2526536 0.032343622 60
0.16136301 1.2577095 0.054559495 50
0.15412664 1.2667905 0.077996381 14
0.15113997 1.2705386 0.10136953 11
0.14869368 1.2736084 0.12517071 66
0.18809399 1.2241641 0.13407083 15
0.14909303 1.2731073 0.17237349 14
0.16421553 1.2577873 0.010855397 100
0.16964138 1.2509269 0.032134276 100
0.15326568 1.2716324 0.055953987 97
0.15595013 1.2682381 0.077996381 14
0.17258328 1.2472072 0.096363634 25
0.15906721 1.2642969 0.12249938 100
0.18855217 1.227016 0.13452072 46
0.14734459 1.279119 0.1739264 35
0.16336471 1.2622091 0.010925206 100
0.17123827 1.2521856 0.032134276 100
0.15862358 1.2682447 0.055431053 99
0.16618818 1.2586147 0.076290213 29
0.18392971 1.2360287 0.093860678 26
0.16434672 1.2609589 0.12135452 100
0.19247726 1.2251471 0.13362093 38
0.15500182 1.2728555 0.1713382 43
0.16991919 1.2571819 0.010785587 100
0.16915372 1.2581631 0.032448292 89
0.16518015 1.2632563 0.054733805 100
0.1726948 1.2536242 0.075315252 30
0.18790728 1.2341251 0.093234941 26
0.17322266 1.2529476 0.11906482 100
0.19638592 1.2232573 0.13272113 31
0.15429494 1.2772088 0.17237349 42
0.16786245 1.2631818 0.010890301 91
0.16343477 1.2688961 0.033076324 58
0.16071633 1.2724044 0.055605363 73
0.16822135 1.2627186 0.076533951 29
0.1749295 1.2540611 0.096989371 25
0.19286343 1.2309158 0.11334054 41
0.17759988 1.2506148 0.14036946 29
0.15242931 1.2830995 0.1739264 35
0.18047595 1.2501833 0.010576159 54
0.18336228 1.2464327 0.031506244 31
0.16724488 1.2673767 0.054908119 50
0.19164896 1.2356645 0.072146654 31
0.1777415 1.2537367 0.096676499 50
0.18002594 1.2507682 0.11791996 13
0.18751502 1.2410364 0.13722014 22
0.15295485 1.2859461 0.17444403 56
0.17270106 1.2643801 0.010855397 52
0.18043095 1.2542515 0.031924933 30
0.16440958 1.2752445 0.055605363 49
0.1850909 1.2481455 0.073852822 46
0.1916706 1.239524 0.093547814 52
0.18672311 1.2460067 0.11639348 13
0.19886693 1.2300946 0.13362093 38
0.16323331 1.2767859 0.17082056 65
0.17917415 1.2592539 0.010715778 39
0.17238739 1.2682081 0.032762308 29
0.17330807 1.2669934 0.054559495 50
0.18428034 1.252517 0.074340299 46
0.19919562 1.2328383 0.091983467 53
0.19423306 1.2393857 0.1144854 13
0.20981157 1.218832 0.13002171 40
0.17425138 1.2657489 0.16667947 67
0.17607492 1.2669368 0.010855397 39
0.15491489 1.2950579 0.03443706 27
0.17624313 1.2667133 0.054385185 51
0.18596688 1.2537906 0.074340299 92
0.19962564 1.2356385 0.092296332 53
0.19469327 1.2421935 0.11486702 13
0.20669359 1.2262454 0.13182132 39
0.18295339 1.2577955 0.16357364 69
0.18730107 1.2553593 0.010576159 81
0.16861388 1.2803662 0.033390339 28
0.17431438 1.272738 0.054908119 50
0.19589117 1.2438641 0.072634131 63
0.19171193 1.2494566 0.094799288 51
0.20566279 1.2307879 0.11181407 14
0.20820844 1.2273812 0.13182132 39
0.18226016 1.262105 0.16460891 69
0.1878913 1.2582916 0.010611063 81
0.20855731 1.2304242 0.03004084 33
0.18446711 1.2629089 0.053687938 52
0.20472503 1.2355919 0.071171694 65
0.19582495 1.2475933 0.094173551 91
0.20501506 1.2352008 0.1125773 20
0.21453029 1.2223698 0.13002171 32
0.18176481 1.2665529 0.16564418 68
0.18714091 1.2627101 0.010680873 93
0.21127036 1.2299457 0.029936166 66
0.17665181 1.2769527 0.055082429 75
0.20156229 1.2431278 0.072146654 63
0.20912459 1.2328594 0.091044858 81
0.20423123 1.2395039 0.11334054 13
0.22065464 1.2172031 0.12822211 24
0.18226787 1.2693269 0.16616182 68
0.18186978 1.2737236 0.010890301 91
0.21295843 1.2311841 0.029936166 66
0.18321475 1.2718832 0.054385185 100
0.20447001 1.242799 0.071902916 96
0.21082336 1.2341056 0.091044858 81
0.20827118 1.2375978 0.1125773 13
0.23149467 1.2058204 0.12462288 16
0.18865997 1.2644324 0.16409127 69
0.19293857 1.2619944 0.010611063 81
0.20979717 1.238765 0.030354854 65
0.18839183 1.2682593 0.053862248 100
0.20254186 1.248762 0.072634131 63
0.21004373 1.2384253 0.091670595 100
0.20751739 1.2419063 0.11334054 13
0.22836319 1.2131829 0.12642249 16
0.19257095 1.262501 0.163056 70
0.19474423 1.2632998 0.010611063 94
0.20451447 1.249733 0.030982886 95
0.18556315 1.2760484 0.054559495 100
0.21125937 1.2403673 0.071171694 81
0.20945409 1.242874 0.092296332 100
0.21842778 1.2304134 0.1102876 14
0.23454499 1.2080333 0.12462288 16
0.19663638 1.2606723 0.16202073 70
0.19638202 1.2644751 0.010611063 81
0.21075442 1.2443777 0.030564198 97
0.19419706 1.2675304 0.053513627 100
0.2105116 1.2447174 0.071659178 80
0.20642778 1.2504278 0.093547814 100
0.2153883 1.2378981 0.11181407 14
0.24506792 1.1963961 0.12102367 17
0.19377044 1.268127 0.16409127 69
0.19802371 1.265645 0.010611063 94
0.21811143 1.237358 0.03004084 66
0.18546662 1.2833277 0.055082429 100
0.2143864 1.2426035 0.071171694 65
0.21374151 1.2435117 0.091983467 93
0.20216441 1.2598143 0.1167751 26
0.23858538 1.2085271 0.12417299 16
0.19542426 1.2693056 0.16409127 69
0.19966924 1.2668096 0.010611063 94
0.21505907 1.244985 0.030459527 65
0.19750461 1.2698792 0.053513627 100
0.2113795 1.2502031 0.072146654 63
0.22328231 1.2333236 0.089793384 83
0.19813359 1.2689873 0.1186832 58
0.23330307 1.2191129 0.12687239 33
0.208215 1.2546906 0.15891489 73
0.20607811 1.2615364 0.010471444 96
0.22138226 1.2396636 0.03004084 99
0.20276579 1.2662704 0.05299069 100
0.2131418 1.251441 0.072146654 63
0.22385019 1.2361364 0.090106249 96
0.20671794 1.260622 0.11639348 100
0.23048249 1.2266575 0.128672 65
0.20777875 1.2591059 0.15995017 72
0.21227387 1.2561052 0.010331824 98
0.21496451 1.2522326 0.030773543 96
0.2032766 1.2690555 0.053165004 100
0.22266862 1.2411436 0.070440479 49
0.22314358 1.2404599 0.090731993 100
0.22178888 1.2424098 0.11181407 91
0.22199154 1.2421181 0.13272113 94
0.20940259 1.2602381 0.15995017 72
0.20733497 1.2672781 0.010541254 95
0.21908513 1.2502261 0.030564198 97
0.20519537 1.2703831 0.053165004 100
0.22560644 1.2407624 0.07019674 82
0.2159856 1.2547243 0.093234941 100
0.22360522 1.2436666 0.11181407 98
0.2282297 1.2369554 0.13092151 96
0.20471051 1.2710867 0.163056 70
0.21124426 1.265111 0.010471444 82
0.23308536 1.2331889 0.029412808 67
0.20685661 1.2715237 0.053165004 100
0.22156465 1.2500272 0.071415432 48
0.22763392 1.2411566 0.090419121 100
0.22628635 1.243126 0.11143246 91
0.23528203 1.2299783 0.128672 89
0.20855585 1.2690402 0.16202073 70
0.21634483 1.2613275 0.010366729 55
0.22797182 1.2442061 0.03004084 66
0.20749003 1.2743667 0.053339314 100
0.22435746 1.2495284 0.071171694 81
0.23593906 1.2324739 0.08854191 100
0.22463101 1.2491256 0.1125773 89
0.23360521 1.2359105 0.13002171 100
0.21138519 1.2686309 0.16150309 70
0.21350425 1.2690634 0.010506349 40
0.21838048 1.2618313 0.031087559 31
0.21696135 1.263936 0.052119136 54
0.22594944 1.2506056 0.071171694 97
0.23526573 1.2367885 0.089167647 98
0.23280695 1.2404351 0.1102876 85
0.23297307 1.2401887 0.13092151 100
0.21844056 1.2617421 0.15891489 73
0.2220923 1.2603779 0.010296919 42
0.22693259 1.2531394 0.030459527 32
0.21553791 1.2701799 0.05264207 53
0.22779721 1.2518463 0.071171694 65
0.23157021 1.2462039 0.090731993 95
0.22806787 1.2514416 0.1125773 100
0.23153111 1.2462624 0.13227122 100
0.22247884 1.2597998 0.15787962 73
0.2215082 1.2647946 0.010366729 41
0.21307093 1.2775033 0.031924933 30
0.21389243 1.2762659 0.053165004 52
0.23818049 1.2396817 0.069221787 83
0.23970661 1.2373829 0.088854775 98
0.23726729 1.2410572 0.10990598 92
0.2438907 1.2310807 0.1277722 97
0.21876234 1.2689306 0.1604678 72
0.21883652 1.2726175 0.010506349 40
0.23242643 1.2519916 0.030250182 32
0.21675786 1.2757723 0.05299069 52
0.23545316 1.2473979 0.07019674 99
0.24025315 1.2401128 0.089167647 98
0.23459285 1.2487036 0.11143246 91
0.24764639 1.2288918 0.12687239 99
0.22050595 1.2700837 0.1604678 72
0.22050506 1.2737129 0.010506349 27
0.21215984 1.2864707 0.032343622 30
0.22716224 1.2635357 0.051596198 54
0.23921135 1.2451158 0.069709264 99
0.24181381 1.2411373 0.089167647 100
0.2351073 1.2513899 0.11181407 98
0.25023657 1.2282611 0.12642249 90
0.2263962 1.2647069 0.15839726 73
0.22879827 1.2647963 0.010296919 42
0.23353958 1.2574925 0.030459527 32
0.235396 1.2546328 0.05055033 56
0.23762912 1.2511928 0.070440479 98
0.24453583 1.2405534 0.088854775 98
0.24213448 1.2442526 0.10990598 85
0.24759373 1.2358428 0.12822211 97
0.23233256 1.259352 0.1563267 74
0.23910686 1.2524117 0.010017681 58
0.24814108 1.2383933 0.029203463 34
0.23376697 1.2606976 0.051073264 55
0.23815119 1.2538947 0.070684217 65
0.24930817 1.2365824 0.087916173 84
0.24583587 1.2419703 0.10914274 85
0.24702889 1.2401192 0.1291219 96
0.23291054 1.2620265 0.15684435 74
0.23880789 1.256972 0.010087491 71
0.25316823 1.2345001 0.028889447 69
0.23243487 1.2669449 0.051596198 54
0.24214935 1.2517431 0.07019674 33
0.25110191 1.2377336 0.087916173 70
0.2487075 1.2414805 0.10876112 72
0.25723106 1.2281423 0.12552269 90
0.22960085 1.2713797 0.15943253 73
0.2329261 1.2698214 0.010331824 84
0.2557801 1.2337953 0.028784776 69
0.22554627 1.2814546 0.05299069 79
0.25119218 1.2410275 0.068490572 50
0.25053829 1.2420583 0.08854191 56
0.23765254 1.2623708 0.11334054 96
0.2608397 1.2258196 0.12462288 83
0.23230007 1.2708082 0.15891489 65
0.23795515 1.2659026 0.01022711 84
0.25322717 1.2416322 0.029203463 100
0.23909524 1.2640908 0.051073264 83
0.25080612 1.2454798 0.068978049 50
0.25647867 1.236465 0.087290429 85
0.25200638 1.2435724 0.10876112 79
0.257323 1.2351232 0.12687239 90
0.23825324 1.2654289 0.15684435 66
0.25019515 1.2499745 0.0098780617 88
0.25373471 1.2443078 0.029308135 100
0.24390194 1.2600496 0.05055033 84
0.24397138 1.2599385 0.070927955 48
0.26535261 1.225708 0.085100345 58
0.24733797 1.2545487 0.11105084 98
0.26093179 1.2327856 0.12597258 90
0.24808538 1.2533522 0.15270324 76
0.25722215 1.2425706 0.0097035384 90
0.24916387 1.2555774 0.029936166 99
0.24150288 1.2679429 0.051247578 82
0.24472368 1.2627443 0.071171694 65
0.25974235 1.2385027 0.087290429 57
0.26152357 1.2356277 0.10647142 81
0.25955096 1.2388116 0.1273223 81
0.24171954 1.2675931 0.15684435 66
0.2472682 1.2622761 0.010087491 71
0.25391448 1.2514684 0.029622151 100
0.24211213 1.2706604 0.051421888 82
0.25779787 1.2451535 0.068490572 50
0.26026276 1.2411454 0.087603301 57
0.25175655 1.2549775 0.11066922 92
0.26110721 1.2397722 0.1273223 97
0.24134737 1.271904 0.15787962 65
0.25732091 1.2496736 0.0098082526 74
0.25871778 1.2473842 0.029308135 100
0.23763508 1.2819368 0.052467756 80
0.25739032 1.2495598 0.068978049 50
0.25882244 1.2472126 0.08854191 70
0.25856414 1.247636 0.10876112 72
0.26985392 1.2291331 0.12417299 83
0.24310124 1.2729783 0.15787962 73
0.2495901 1.2660357 0.010122396 85
0.26444098 1.241514 0.028889447 100
0.244495 1.2744486 0.051596198 82
0.25281224 1.2607154 0.070440479 49
0.26859292 1.2346582 0.086038955 58
0.2509965 1.2637135 0.11219569 84
0.27137801 1.2300596 0.12417299 83
0.24877387 1.2673835 0.15580906 75
0.25750294 1.2567968 0.0099129668 87
0.25785929 1.2562038 0.029726824 100
0.25754544 1.2567261 0.049678773 86
0.25861654 1.2549435 0.069465525 49
0.27123401 1.2339445 0.08572609 58
0.25777745 1.25634 0.1102876 78
0.27499297 1.2276886 0.12327318 76
0.25449181 1.2618083 0.15373851 68
0.26423997 1.2491767 0.0097384425 90
0.26356515 1.2503083 0.029308135 100
0.25609961 1.2628269 0.050201707 85
0.25819278 1.2593169 0.069953002 49
0.2697387 1.2399561 0.086664692 71
0.26542521 1.2471893 0.10799789 79
0.27052343 1.2386403 0.12597258 82
0.25612432 1.2627854 0.15373851 68
0.25895858 1.2623203 0.0099827768 87
0.26337874 1.2548432 0.029517479 100
0.25799412 1.2639518 0.050201707 85
0.26815534 1.2467632 0.068003096 51
0.27154526 1.2410288 0.086664692 57
0.26326323 1.2550385 0.10952436 85
0.27728343 1.2313223 0.12372308 92
0.25212002 1.2738882 0.15684435 66
0.26565236 1.2546588 0.0098082526 74
0.2750949 1.2385644 0.02847076 100
0.25560084 1.2717912 0.050898954 83
0.26772884 1.2511195 0.068490572 50
0.27710721 1.2351345 0.085413218 58
0.26785368 1.2509067 0.10837951 79
0.28275925 1.2255008 0.12192347 93
0.26059279 1.2632827 -0.0099827768 86
0.25770295 1.2682083 0.15477379 67
0.27036351 1.2504636 0.0097035384 90
0.26869488 1.2533306 0.029308135 100
0.26036087 1.2676499 0.05037602 84
0.26940998 1.2521019 0.068490572 50
0.27972615 1.2343769 0.085100345 58
0.26854652 1.2535855 0.10876112 79
0.28533113 1.2247467 0.12147357 77
0.26333085 1.2625469 0.15270324 68
0.26595744 1.2617779 0.0099129668 87
0.27229708 1.2508018 0.029098792 100
0.26599869 1.2617065 0.049678773 86
0.27299592 1.2495918 0.068003096 51
0.28126758 1.2352706 0.085100345 58
0.27309746 1.249416 0.10761628 79
0.2858659 1.2273093 0.12192347 76
0.26883063 1.2568034 0.15063268 70
0.27380878 1.2524524 0.0097035384 90
0.27612984 1.2483978 0.028889447 100
0.26887867 1.2610643 0.049504463 86
0.27483946 1.2506518 0.068003096 51
0.28305605 1.236299 0.085100345 58
0.27591571 1.2487719 0.10723466 81
0.28375107 1.235085 0.12372308 83
0.26686275 1.2645857 0.15270324 68
0.27639788 1.2516268 0.0096686333 75
0.27377164 1.2562499 0.029308135 100
0.26460388 1.272388 0.05055033 84
0.28035694 1.2446576 0.067028143 51
0.28362811 1.2388994 0.085413218 58
0.27653515 1.2513852 0.10761628 79
0.28721994 1.2325766 0.12282328 85
0.26659596 1.2688813 0.15373851 68
0.27031416 1.2665651 0.0099478718 58
0.28339696 1.2433373 0.02847076 100
0.26253608 1.2803745 0.051247578 82
0.28209847 1.2456427 0.067028143 51
0.28631791 1.2381513 0.085100345 58
0.27733788 1.2540948 0.10799789 87
0.29465523 1.223349 0.12012386 77
0.27325821 1.261338 -0.0098431576 87
0.26653025 1.2732832 0.15477379 67
0.27293792 1.2657442 0.0099129668 87
0.27912179 1.2546794 0.029098792 100
0.27978224 1.2534978 0.048458595 88
0.27302432 1.2655896 0.069709264 83
0.28883553 1.2372988 0.084787481 59
0.27798691 1.2567101 0.10837951 79
0.29615998 1.2241932 0.12012386 77
0.27488908 1.262253 -0.0098431576 87
0.27385557 1.2641022 0.15166797 69
0.28154096 1.2545123 0.0096686333 75
0.28477198 1.2486811 0.028680105 100
0.27479678 1.2666842 0.049678773 86
0.27484262 1.2666014 0.069709264 83
0.29342216 1.2330693 0.083848871 59
0.27977261 1.2577038 0.10837951 79
0.29404852 1.2319388 0.12192347 85
0.27941355 1.2583519 0.14959741 70
0.2812224 1.2589047 0.0097384425 75
0.28828517 1.2460575 0.02847076 100
0.27836505 1.2641022 0.049330149 87
0.27840358 1.2640321 0.069221787 83
0.29210421 1.2391107 0.084787481 59
0.28517461 1.2517157 0.10685304 81
0.29464296 1.2344928 0.12237337 76
0.27833232 1.2641617 -0.0098431576 87
0.27358904 1.2727897 0.15373851 68
0.28675959 1.252817 0.0095988233 61
0.29186067 1.243461 0.028261416 100
0.27436897 1.275543 0.05037602 84
0.29818442 1.2318624 0.064590752 54
0.29468888 1.2382737 0.084474608 59
0.28873733 1.2491896 0.1060898 81
0.27622998 1.2721298 -0.0099827768 86
0.27904484 1.2669669 0.15166797 69
0.28464213 1.2607691 0.0097384425 75
0.29351494 1.2443593 0.028261416 100
0.28087348 1.2677391 0.049504463 86
0.28941241 1.2519467 0.067271881 51
0.29444596 1.2426373 0.085100345 58
0.28761026 1.2552797 0.10723466 81
0.27893549 1.2713233 -0.0099478718 96
0.27343056 1.2815045 0.15580906 67
0.28824675 1.2581677 0.0096686333 75
0.28950948 1.2558128 0.028889447 100
0.28543708 1.2634078 0.048981529 87
0.28452992 1.2650996 0.068978049 50
0.28930581 1.2561926 0.10723466 73
0.28541189 1.2634547 -0.0097733475 88
0.28617251 1.2620362 0.14959741 70
0.29089117 1.2573128 0.0096337283 90
0.29495749 1.2496653 0.02847076 100
0.28903174 1.2608099 0.048632905 88
0.28625974 1.2660233 0.068978049 50
0.29192623 1.2553662 0.10685304 73
0.28150317 1.2749691 -0.0099827768 86
0.29151943 1.2561313 0.14752686 79
0.29663339 1.2505525 0.02847076 100
0.29725102 1.2493811 0.066540658 52
0.29911587 1.2458441 0.10456333 75
0.28513274 1.2723655 -0.0099129668 87
0.28781196 1.2672838 0.15063268 78
0.28508005 1.2767451 0.050027397 85
0.29708654 1.2537788 0.067028143 51
0.29986882 1.2484568 0.10494494 75
0.28775939 1.27162 0.15166797 69
0.29784894 1.2564487 0.0095639192 91
0.28226605 1.2865112 0.050898954 55
0.29694968 1.2581835 0.067515619 51
0.29883 1.2545561 0.1060898 66
0.28864634 1.2742023 -0.0099129668 97
0.28595582 1.279393 0.15373851 76
0.29223606 1.2715545 0.0098431576 88
0.2950258 1.2661262 0.068490572 50
0.29223606 1.2715545 -0.0098431576 100
0.29479989 1.2665657 0.14959741 70
0.29135185 1.2776256 0.069953002 49
0.29308054 1.2742329 -0.0098780617 100
0.29213732 1.2804813 -0.0099827768 100
0.29565969 1.2735083 0.15115032 77
0.29926288 1.2795651 -0.0099129668 100
