# .PCD v0.7 - Point Cloud Data file format
VERSION 0.7
FIELDS x y z intensity
SIZE 4 4 4 4
TYPE F F F F
COUNT 1 1 1 1
WIDTH 755
HEIGHT 1
VIEWPOINT 0 0 0 1 0 0 0
POINTS 755
DATA ascii
0.078308642 0.00026959181 0.047311705 50
0.056086808 6.0021877e-05 0.047939736 79
0.052796453 0.00085169077 0.015986403 128
0.053402215 0.001788795 0.047939736 56
0.049147189 0.0069441199 0.047835063 27
0.045384884 0.0070312023 0.047939736 100
0.040376127 0.0055621862 0.048149079 79
0.030573964 0.0025224686 0.048567768 25
0.031273782 0.0092906356 0.048253752 17
0.037929714 0.024096727 0.047416378 9
0.033056855 0.022603452 0.047625721 9
0.025883675 0.01785785 0.04804441 9
-0.10895044 0.57255608 0.012007256 22
-0.11538827 0.57315564 0.01211197 43
-0.11799085 0.57491887 0.012146875 76
-0.11098194 0.5794673 0.012007256 77
-0.11548972 0.58068138 0.012077065 77
-0.12192237 0.58138418 0.012181779 53
-0.13799387 0.57946098 0.012461018 51
-0.11164874 0.58924156 0.011972351 55
-0.11420649 0.59103203 0.012007256 66
-0.099335968 0.59734643 0.011728018 69
-0.11154062 0.59657145 0.011937446 90
-0.11988634 0.59688032 0.012077065 99
-0.10692179 0.60267484 0.011832732 100
-0.10556233 0.60545576 0.011797827 100
-0.11778003 0.60486484 0.012007256 21
-0.10863799 0.60956311 0.011832732 34
-0.14030641 0.6043995 0.012391209 31
-0.13309568 0.6086489 0.012251589 31
-0.13365471 0.61103433 0.012251589 10
-0.16149569 0.60717642 0.012740256 9
-0.16205972 0.60966098 0.012740256 9
-0.17820591 0.60856062 0.013019496 18
-0.1943953 0.60769558 0.013298734 17
-0.17149413 0.61532503 0.012879875 19
-0.2092073 0.61000991 0.013543067 17
-0.22346818 0.60982239 0.013787401 16
-0.25537539 0.60614449 0.014345878 7
-0.26770806 0.60660577 0.014555307 13
-0.25649971 0.61177105 0.014345878 14
-0.28846502 0.60853708 0.014904355 12
-0.31260264 0.60700953 0.015323213 16
-0.32299739 0.60819948 0.015497737 35
-0.28223997 0.61875635 0.014764735 12
-1.0298371 1.1274806 0.08488892 5
-1.039588 1.1296871 0.1425868 4
-1.0401857 1.1359541 0.028482327 7
-1.0051596 1.1278934 0.083632857 5
-1.0246675 1.1323829 0.14136662 11
-1.013649 1.1353112 0.028028565 11
-1.009799 1.1344118 0.083946876 52
-1.0292776 1.1389625 0.14188954 50
-0.99861628 1.1380756 0.02778423 35
-0.99867266 1.1380891 0.083423518 100
-1.0200958 1.1431808 0.1411923 91
-0.9798916 1.1389893 0.027470088 37
-0.99938506 1.1436908 0.083528183 100
-1.0033548 1.1446483 0.13979781 86
-0.97859424 1.1443274 0.027470088 35
-0.98449165 1.1457715 0.082795486 97
-0.99429673 1.1481726 0.13910057 91
-0.99287027 1.1532509 0.027749326 23
-0.97160703 1.1479691 0.082167454 80
-1.0007687 1.1552129 0.13979781 86
-0.97199875 1.1542771 0.027400278 27
-0.97982687 1.1562536 0.082690813 39
-1.0089369 1.1636033 0.14066938 68
-0.96877891 1.1588261 0.027365373 45
-0.98240739 1.1623151 0.082900152 33
-0.9767409 1.1608645 0.13788038 82
-0.95960206 1.162378 0.027225753 61
-0.98289222 1.1684315 0.083004825 75
-0.97336978 1.1659565 0.13770607 91
-0.95829254 1.1673818 0.027225753 70
-0.97190577 1.1709684 0.082481466 98
-0.97204834 1.171006 0.13770607 92
-0.94916862 1.1705794 0.027086135 81
-0.95698994 1.1726693 0.081748761 92
-0.98026365 1.1788881 0.13857763 100
-0.95941311 1.1786844 0.027295563 92
-0.94600707 1.1750546 0.081225403 100
-0.9788993 1.1839603 0.13857763 100
-0.96176165 1.1852733 0.027365373 88
-0.94836432 1.1815931 0.081434749 100
-0.96392316 1.1858671 0.13735744 99
-0.94111127 1.1849234 0.027016325 92
-0.93737036 1.1838825 0.08091139 92
-0.9586969 1.1898168 0.13700883 92
-0.93958038 1.1903858 0.027016325 93
-0.95122081 1.193671 0.081748761 86
-0.94947809 1.1931791 0.13631158 100
-0.94971448 1.1986202 0.027225753 64
-0.93060392 1.1931584 0.080702044 68
-0.95572931 1.2003392 0.13700883 100
-0.95973378 1.2071899 0.027435184 38
-0.92719942 1.1977686 0.080597371 32
-0.9503904 1.2044842 0.1366602 92
-0.93716758 1.2060055 0.027051231 50
-0.92193955 1.2015409 0.080388032 26
-0.94320565 1.2077757 0.13613728 85
-0.92597526 1.2086052 0.026876707 75
-0.92417699 1.2080708 0.080597371 26
-0.93013197 1.2098404 0.13509139 89
-0.91869074 1.2120258 0.026771991 75
-0.92455143 1.2137896 0.080702044 40
-0.93049544 1.2155786 0.13526571 99
-0.91331321 1.2159837 0.026702182 75
-0.91153032 1.2154404 0.080074012 90
-0.92893106 1.2207437 0.13526571 100
-0.91365832 1.2216786 0.026737086 81
-0.90424126 1.2187725 0.07976 97
-0.93115634 1.2270784 0.13561434 91
-0.91207272 1.2267849 0.026737086 89
-0.91029137 1.2262285 0.080178685 76
-0.91814131 1.228681 0.13456847 64
-0.89902955 1.2282679 0.026527658 85
-0.91059428 1.2319252 0.080283359 66
-0.90513343 1.2301983 0.1335226 46
-0.89361209 1.2321038 0.026457848 83
-0.91087514 1.2376298 0.080388032 76
-0.90921074 1.237097 0.13404553 45
-0.89579505 1.2383728 0.026527658 89
-0.90163368 1.2402642 0.079969339 98
-0.91136223 1.2434158 0.13439415 47
-0.89415127 1.2434167 0.026527658 100
-0.89239174 1.2428398 0.079550654 100
-0.92295355 1.2528585 0.13561434 64
-0.89248997 1.2484548 0.026527658 100
-0.89073247 1.2478719 0.079550654 100
-0.90991265 1.2542337 0.13456847 80
-0.88339561 1.2504421 0.026388038 100
-0.88733035 1.251761 0.07944598 100
-0.88760406 1.2518528 0.13265105 84
-0.87034708 1.25159 0.02617861 99
-0.89131445 1.2586993 0.07976 100
-0.90289527 1.2626259 0.13421984 80
-0.86865729 1.2565449 0.02617861 92
-0.87826437 1.2598398 0.079131968 100
-0.8936283 1.2651091 0.1335226 100
-0.87828594 1.265426 0.026388038 88
-0.86899787 1.2622043 0.078713275 100
-0.89753836 1.272104 0.13404553 87
-0.87277395 1.2690848 0.02631823 81
-0.86538655 1.2664934 0.07860861 76
-0.89389676 1.2764943 0.13387123 50
-0.85971528 1.2700372 0.0261088 85
-0.85046834 1.2667572 0.077875905 44
-0.88836449 1.2801993 0.1335226 41
-0.85043198 1.2722547 0.025969181 89
-0.85812587 1.2750139 0.078399263 19
-0.88094848 1.2831992 0.13299966 37
-0.85619003 1.2798666 0.0261088 96
-0.85823208 1.280607 0.078503937 57
-0.87914842 1.2881911 0.13299966 18
-0.85440165 1.2847719 0.0261088 99
-0.85081536 1.2834575 0.078189917 100
-0.86610681 1.2890624 0.13195379 13
-0.85634655 1.2910607 0.02617861 100
-0.85650593 1.2911197 0.07860861 100
-0.86802286 1.2953868 0.13230242 3
-0.84328288 1.2917588 0.025969181 100
-0.83784455 1.2897222 0.077666558 59
-0.87177783 1.3024297 0.13282534 1
-0.83023173 1.2923722 0.025759751 96
-0.84722966 1.2988052 0.07829459 48
-0.85314006 1.3010421 0.13125655 3
-0.83587092 1.3000443 0.025899371 77
-0.84350985 1.3029659 0.078189917 55
-0.8438341 1.3030899 0.1305593 20
-0.83960801 1.3070412 0.026004085 72
-0.82860011 1.3027871 0.077457212 68
-0.84754008 1.3101068 0.13108224 60
-0.83595663 1.3109193 0.025969181 81
-0.8268258 1.3073556 0.077457212 65
-0.84945339 1.3161869 0.13143086 100
-0.82289833 1.3113527 0.025759751 99
-0.82865769 1.3136237 0.077666558 72
-0.83085686 1.3144908 0.12986206 100
-0.80985385 1.3117015 0.025550323 99
-0.83417362 1.3213893 0.078085244 91
-0.83450061 1.3215196 0.130385 97
-0.811665 1.317938 0.025620133 100
-0.81741744 1.3202529 0.077247873 95
-0.8399604 1.3293241 0.13108224 100
-0.81344908 1.3241937 0.025689943 100
-0.8154884 1.3250227 0.077247873 100
-0.84353679 1.3364233 0.13160518 100
-0.77222949 1.3074394 0.17524812 13
-0.81520599 1.3304685 0.025759751 100
-0.80060941 1.324476 0.076515168 99
-0.81574744 1.3306909 0.12916481 100
-0.79789096 1.32336 0.17890419 17
-0.80225581 1.3303993 0.025550323 100
-0.80429846 1.3312457 0.07682918 100
-0.80467767 1.3314029 0.12829325 100
-0.78321153 1.3225069 0.17719802 18
-0.79660207 1.333572 0.025480513 100
-0.79864627 1.3344276 0.076619841 100
-0.8100614 1.339205 0.1289905 100
-0.77578121 1.3248582 0.17646681 16
-0.79452747 1.3385038 0.025480513 100
-0.7855311 1.3346999 0.075991809 96
-0.81714147 1.3480656 0.12986206 100
-0.775567 1.3304868 0.17671055 20
-0.79805213 1.3455491 0.025585229 75
-0.79273599 1.3432795 0.076515168 51
-0.81328303 1.352052 0.12968774 84
-0.75899726 1.3288748 0.17476064 15
-0.81817383 1.3595119 0.026004085 64
-0.81467265 1.3580033 0.077875905 57
-0.82598346 1.3628769 0.13108224 16
-0.793598 1.3489227 0.17963541 5
-0.79960436 1.3571048 0.025689943 100
-0.81078035 1.3619666 0.077771232 100
-0.80380851 1.3589337 0.12916481 61
-0.77882677 1.3480661 0.17792924 18
-0.78656131 1.3569877 0.025480513 100
-0.81602043 1.3699254 0.078189917 100
-0.81633824 1.370065 0.1305593 100
-0.77680093 1.3527011 0.17792924 35
-0.7954728 1.3665124 0.025689943 100
-0.80296284 1.3698331 0.077561885 100
-0.81787819 1.3764458 0.13090792 100
-0.75661141 1.3492833 0.17549185 28
-0.80615908 1.3769233 0.025934275 100
-0.80268377 1.3753681 0.077666558 100
-0.81575292 1.3812169 0.13090792 100
-0.75820524 1.3554626 0.17597933 22
-0.80403227 1.3816535 0.025934275 100
-0.80238253 1.3809083 0.077771232 100
-0.80634815 1.3826997 0.13021068 100
-0.78328973 1.3722836 0.17963541 21
-0.79279143 1.3822284 0.025759751 100
-0.8111456 1.3905966 0.078399263 100
-0.79694968 1.3841243 0.12951343 100
-0.77937311 1.3761104 0.17939167 15
-0.78701299 1.3852401 0.025689943 100
-0.81078535 1.3961791 0.078503937 100
-0.80565757 1.3938196 0.1305593 100
-0.77544588 1.3799173 0.17914793 14
-0.79211193 1.3932724 0.025829561 100
-0.80315691 1.3984016 0.078189917 100
-0.81069988 1.4019046 0.13125655 100
-0.75530463 1.3761792 0.17671055 11
-0.79717094 1.4013476 0.025969181 100
-0.80095512 1.4031212 0.078189917 100
-0.81389815 1.4091868 0.13177948 100
-0.77475065 1.3908405 0.17963541 5
-0.8039977 1.4103209 0.026143705 100
-0.80054241 1.4086869 0.07829459 100
-0.80265301 1.409685 0.13090792 100
-0.78154808 1.3997042 0.18085411 3
-0.79453522 1.4115984 0.026004085 100
-0.80371243 1.4159777 0.07860861 100
-0.79321927 1.4109704 0.13021068 100
-0.78688234 1.4136853 0.025899371 100
-0.80684787 1.4232985 0.078922622 100
-0.80712992 1.4234343 0.13177948 100
-0.79182202 1.4218432 0.026038991 100
-0.80455917 1.4280307 0.078922622 100
-0.80842501 1.4299088 0.1321281 100
-0.7968362 1.4298081 0.02617861 100
-0.79340166 1.4281256 0.078399263 100
-0.81517535 1.4387925 0.13299966 100
-0.79811019 1.4362776 0.02624842 99
-0.79109627 1.432811 0.078399263 100
-0.80747408 1.4409055 0.13247673 100
-0.79219705 1.4391947 0.02617861 100
-0.80486113 1.4455088 0.079341307 100
-0.80334085 1.4447508 0.13230242 100
-0.78270704 1.4402819 0.026038991 100
-0.80606347 1.4520289 0.079550654 100
-0.80987698 1.4539468 0.13317397 100
-0.79819244 1.4539771 0.026388038 100
-0.80011219 1.454951 0.079341307 100
-0.80925804 1.4595909 0.13334829 100
-0.799357 1.460501 0.026457848 100
-0.79060107 1.4560202 0.078922622 100
-0.81748456 1.4697771 0.13439415 100
-0.79338461 1.4633725 0.026388038 100
-0.79884714 1.4661919 0.079550654 100
-0.80795163 1.4708911 0.13369691 100
-0.79450363 1.4699042 0.026457848 100
-0.79995185 1.4727404 0.07976 100
-0.80726415 1.476547 0.13387123 100
-0.78875643 1.4722669 0.026388038 99
-0.80834967 1.4825447 0.080388032 100
-0.80150896 1.4789565 0.1335226 100
-0.79159969 1.479741 0.026492752 71
-0.78996521 1.4788764 0.07944598 87
-0.81135398 1.4901915 0.13474278 96
0.12786418 1.2946559 0.13089497 11
0.198174 1.2072706 0.12957181 8
0.091019243 1.3404491 0.19618483 5
0.15434769 1.2652705 0.011064826 25
0.15358314 1.2662275 0.03328567 28
0.162011 1.2556776 0.054385185 25
0.13617399 1.2880199 0.081408724 13
0.13326764 1.291658 0.1057497 10
0.14317721 1.2792535 0.12669717 47
0.20091882 1.2069736 0.1291219 16
0.15450752 1.2650703 0.16978529 7
0.16833758 1.2508482 0.010715778 100
0.16383582 1.2565198 0.032552965 88
0.15115213 1.2724998 0.056128297 97
0.14767641 1.2768787 0.07945881 14
0.15947014 1.26202 0.099492319 24
0.16918999 1.2497742 0.11906482 100
0.18169749 1.2340163 0.13677025 30
0.15366274 1.2693367 0.17082056 29
0.16506746 1.2584599 0.010855397 100
0.16430023 1.2594335 0.032657638 100
0.15044221 1.2770185 0.056476921 100
0.17279324 1.2486563 0.074827775 30
0.17097139 1.2509681 0.096989371 25
0.15871534 1.2665205 0.122881 100
0.18693799 1.2307073 0.13542053 45
0.15301669 1.2737517 0.17185585 36
0.16686034 1.2598674 0.010855397 100
0.18209267 1.240392 0.031296901 100
0.14984828 1.2816184 0.056825545 100
0.17332718 1.2515993 0.075071514 30
0.18490654 1.2367942 0.093860678 26
0.16900438 1.2571262 0.12020966 100
0.18742844 1.2335699 0.13587044 30
0.15129521 1.2797685 0.17340876 49
0.16489327 1.2659402 0.010960111 100
0.17516217 1.2527159 0.032029606 60
0.16019043 1.2719965 0.055605363 98
0.1652706 1.2654543 0.077021427 29
0.17684588 1.2505476 0.096363634 37
0.17913583 1.2475986 0.11753834 92
0.1878536 1.2363719 0.13632034 30
0.14952254 1.2857347 0.17496167 35
0.17508847 1.2561301 0.010715778 53
0.16334802 1.2713535 0.033180997 57
0.1655075 1.2685533 0.055082429 50
0.17297715 1.2588677 0.075802729 45
0.1808542 1.2486539 0.095737889 38
0.18107149 1.2483722 0.13946965 14
0.14061698 1.3008277 0.17962041 53
0.17435631 1.2606113 0.010785587 65
0.16145784 1.2774575 0.033495013 28
0.17209503 1.2635646 0.054385185 51
0.19037428 1.239691 0.072634131 63
0.18612993 1.2452343 0.094799288 51
0.18955642 1.2407591 0.11524864 20
0.18985176 1.2403734 0.13677025 30
0.1683099 1.2685083 0.16823238 60
0.17857671 1.2588005 0.010715778 53
0.18023759 1.2566147 0.032029606 30
0.17511201 1.26336 0.054210871 51
0.17768604 1.2599726 0.07555899 90
0.19743529 1.2339822 0.092296332 53
0.19484767 1.2373875 0.11410378 13
0.20572641 1.2230709 0.13137141 47
0.17013958 1.2699039 0.16823238 60
0.17546806 1.2664796 0.010855397 39
0.16991031 1.2738469 0.033076324 29
0.16723737 1.2773902 0.055605363 49
0.19374451 1.2422523 0.072634131 63
0.18953994 1.2478259 0.094799288 51
0.20002833 1.2339225 0.11295892 13
0.21552521 1.2133799 0.12822211 40
0.16839659 1.2758535 0.16978529 66
0.17711651 1.2677188 0.010855397 52
0.17876834 1.265514 0.032448292 29
0.18564647 1.2563331 0.053165004 52
0.18817115 1.2529633 0.07409656 61
0.19941726 1.2379522 0.092609204 53
0.19097447 1.2492214 0.11639348 13
0.20764989 1.2269634 0.13182132 39
0.18397582 1.2585632 0.16357364 69
0.18601647 1.2593901 0.010645968 66
0.19122767 1.2523835 0.031506244 31
0.17783409 1.2703917 0.054559495 50
0.18156648 1.2653732 0.075802729 100
0.1975162 1.2439282 0.093547814 52
0.2055375 1.2331433 0.11219569 14
0.20924708 1.2281556 0.13182132 31
0.18914217 1.2551875 0.16202073 70
0.18882942 1.2589859 0.010611063 81
0.20469543 1.237505 0.030459527 65
0.18186292 1.2684177 0.054210871 76
0.19854325 1.2458345 0.072634131 63
0.1943953 1.2514503 0.094799288 77
0.2024096 1.2405998 0.11372216 13
0.21308383 1.226148 0.13092151 32
0.18157107 1.2688129 0.16616182 68
0.19290337 1.2570183 0.010541254 95
0.21459642 1.2274327 0.029726824 67
0.18242687 1.2713065 0.054385185 76
0.20138016 1.2454574 0.072390392 95
0.20075029 1.2463166 0.093547814 100
0.20753708 1.2370604 0.1125773 13
0.21813506 1.2226067 0.12957181 16
0.1844568 1.268538 0.16564418 68
0.18998471 1.2647917 0.010680873 93
0.21510017 1.230274 0.029831495 66
0.18075004 1.2774835 0.054908119 100
0.2019572 1.2483371 0.072634131 78
0.20830947 1.2396069 0.091983467 100
0.21387157 1.2319626 0.11105084 14
0.23126158 1.2080623 0.12507279 16
0.18742311 1.2683123 0.16512655 68
0.1893723 1.2692876 0.010750682 79
0.2120311 1.2379166 0.030250182 65
0.1883567 1.2706937 0.054036561 100
0.20595369 1.2463307 0.072146654 63
0.21457732 1.2343913 0.090731993 95
0.20858899 1.2426822 0.11334054 13
0.23279265 1.2091722 0.12507279 16
0.19255817 1.2648767 0.16357364 69
0.1980229 1.2607311 0.010541254 81
0.20543614 1.2503954 0.030982886 95
0.19582519 1.2637951 0.053165004 100
0.20290723 1.2539213 0.073121607 62
0.21842176 1.2322907 0.090106249 96
0.20786983 1.2470024 0.11410378 20
0.23538655 1.2086382 0.12462288 16
0.19757906 1.2613499 0.16202073 78
0.20437726 1.2554407 0.010401634 97
0.20479834 1.2548493 0.03119223 94
0.19523987 1.2682745 0.053513627 100
0.21150658 1.2454274 0.071659178 80
0.21316326 1.2431004 0.091983467 100
0.20725963 1.2513924 0.11486702 20
0.22787756 1.2224336 0.12822211 16
0.19145313 1.2735932 0.16564418 68
0.19914919 1.2664424 0.010611063 94
0.21801996 1.2397408 0.030145511 98
0.19238174 1.2760181 0.054210871 100
0.20285702 1.2611959 0.073852822 100
0.21709689 1.241047 0.09135773 100
0.20667592 1.2557924 0.11563025 47
0.23170823 1.2203724 0.1273223 24
0.19990292 1.2653759 0.16253836 70
0.19858742 1.2709382 0.010680873 93
0.22654375 1.2310865 0.029517479 100
0.19415027 1.2772634 0.054210871 100
0.21141383 1.2526541 0.072390392 63
0.22554985 1.2325033 0.089480512 97
0.20160887 1.2666311 0.11791996 91
0.2321631 1.2230761 0.1277722 48
0.1983059 1.2713394 0.16409127 77
0.20262352 1.2688797 0.010611063 94
0.22130746 1.2420471 0.030145511 98
0.20275417 1.268692 0.053165004 100
0.210832 1.2570913 0.072877869 47
0.21926472 1.2449807 0.091670595 100
0.21568504 1.2501216 0.11372216 89
0.2292923 1.2305797 0.12957181 80
0.20778546 1.2614665 0.1604678 72
0.21118876 1.2602191 0.010401634 97
0.21614382 1.2530497 0.030773543 96
0.20223147 1.2731792 0.053513627 100
0.21817759 1.250107 0.071659178 64
0.22541723 1.2396321 0.090419121 100
0.22294417 1.2432103 0.11181407 91
0.2242541 1.2413151 0.13227122 94
0.21060148 1.2610688 0.15995017 72
0.21499404 1.2579839 0.010331824 84
0.23235819 1.2326906 0.029412808 67
0.20381394 1.2742693 0.053513627 100
0.21631697 1.2560568 0.072390392 95
0.22242215 1.2471638 0.091670595 100
0.23109934 1.2345243 0.10952436 85
0.22463346 1.2439427 0.13272113 100
0.21214589 1.2621326 0.15995017 72
0.21669948 1.2591503 0.010331824 84
0.22497806 1.2470007 0.030250182 65
0.20221058 1.2804141 0.054036561 77
0.2291936 1.240814 0.069953002 66
0.22742674 1.243407 0.090731993 95
0.22056231 1.2534811 0.11372216 100
0.2361657 1.2305818 0.128672 97
0.21060237 1.2680984 0.16150309 70
0.21961448 1.2587119 0.010296919 42
0.22449136 1.251498 0.030459527 65
0.2063154 1.2783842 0.053687938 52
0.22980958 1.2436311 0.07019674 99
0.23801467 1.2314941 0.088229038 100
0.22013748 1.2579383 0.1144854 100
0.23785594 1.2317289 0.128672 97
0.21026635 1.2725399 0.16253836 70
0.21018082 1.2764678 0.010645968 40
0.22617409 1.2526313 0.030459527 32
0.2180829 1.2646904 0.052119136 54
0.22925276 1.2480428 0.070684217 81
0.23962748 1.2325803 0.088229038 98
0.22403044 1.2558262 0.11372216 100
0.23621225 1.2376704 0.13002171 96
0.21094626 1.275327 0.163056 70
0.21851408 1.2676064 0.010436539 27
0.23220551 1.2470536 0.03004084 33
0.21972519 1.2657883 0.052119136 54
0.22973922 1.2507559 0.070927955 97
0.24225834 1.2319629 0.087916173 98
0.23217395 1.2471011 0.11143246 91
0.23560402 1.2419519 0.13092151 100
0.22761834 1.2539396 0.15580906 75
0.22466439 1.2620881 0.010296919 42
0.22506076 1.2614886 0.030878214 31
0.22145781 1.2669382 0.052119136 54
0.23470366 1.2469032 0.07019674 66
0.2351574 1.2462169 0.090419121 100
0.23925498 1.2400191 0.10952436 92
0.22758079 1.2576768 0.13497064 91
0.22078624 1.267954 0.15995017 72
0.23735413 1.2465014 0.0099478718 29
0.22239569 1.2692994 0.031296901 31
0.22100848 1.2714137 0.052467756 53
0.23201433 1.2546397 0.071171694 81
0.23573795 1.2489645 0.090731993 95
0.23874351 1.2443838 0.1102876 92
0.2453208 1.2343594 0.12822211 97
0.21828729 1.2755611 0.16202073 70
0.23247236 1.2576444 0.0101573 28
0.22849989 1.2637451 0.030878214 31
0.21841204 1.2792375 0.053165004 52
0.2412903 1.2441021 0.069465525 99
0.244957 1.238471 0.08854191 84
0.23397365 1.2553387 0.1125773 89
0.24694359 1.2354201 0.12822211 97
0.22321647 1.2718592 0.1604678 72
0.23192 1.2620534 0.01022711 42
0.24315029 1.2446806 0.029622151 33
0.22767398 1.2686217 0.051944822 54
0.24178651 1.2467904 0.069709264 66
0.24758458 1.2378211 0.088229038 98
0.24624297 1.2398964 0.10876112 87
0.25166243 1.2315128 0.12687239 90
0.23327261 1.2599609 0.1563267 74
0.24227735 1.2496955 0.0099478718 58
0.25127956 1.2356623 0.028994121 68
0.24232584 1.24962 0.049853086 57
0.24023718 1.2528758 0.070440479 65
0.25028601 1.2372111 0.087916173 84
0.25000519 1.237649 0.10799789 87
0.24485752 1.2456734 0.13047162 96
0.23498484 1.2610636 0.1563267 74
0.24296403 1.2525072 0.0099827768 87
0.24441037 1.2502344 0.029831495 66
0.23552877 1.2641917 0.051247578 55
0.24627194 1.2473089 0.069465525 66
0.25412145 1.2349734 0.087290429 57
0.2517212 1.2387453 0.10799789 79
0.25078779 1.2402122 0.128672 89
0.23574966 1.2638447 0.15684435 66
0.24571782 1.2518852 0.0099478718 87
0.25461939 1.237788 0.028994121 100
0.23619199 1.2669711 0.051421888 82
0.24370047 1.2550801 0.070440479 98
0.25363696 1.2393439 0.087916173 70
0.24182904 1.2580438 0.11219569 100
0.26075456 1.2280719 0.12507279 100
0.23128679 1.2747393 0.15995017 64
0.23775911 1.2681408 0.010262015 84
0.25723302 1.2370727 0.028889447 100
0.2357254 1.2713854 0.051770512 81
0.25163645 1.2460012 0.068978049 50
0.26358801 1.2269341 0.085413218 73
0.25491875 1.2407649 0.10799789 87
0.26641509 1.2224238 0.12327318 85
0.23296234 1.2757936 0.15995017 64
0.23633146 1.2743218 0.010366729 83
0.2504265 1.2516596 0.029726824 100
0.23642522 1.2741711 0.051944822 81
0.25329983 1.2470398 0.068978049 50
0.25683853 1.2413503 0.087916173 56
0.23997378 1.2684658 0.11410378 96
0.26387924 1.2300301 0.12507279 100
0.24187186 1.265414 0.1563267 57
0.24859568 1.2583964 0.010017681 87
0.25210962 1.2527025 0.029726824 100
0.24760419 1.2600031 0.05037602 100
0.25079674 1.2548299 0.069953002 49
0.26471013 1.2322845 0.086038955 72
0.26027456 1.2394719 0.10723466 81
0.26139307 1.2376595 0.12687239 99
0.24867585 1.2582666 0.15373851 68
0.25761205 1.2475078 0.0097733475 89
0.25796828 1.2469261 0.029308135 100
0.24411431 1.2695514 0.051247578 100
0.25456417 1.2524854 0.069465525 49
0.26323092 1.2383314 0.086977564 57
0.25883946 1.2455033 0.10837951 87
0.26200962 1.240326 0.1273223 97
0.24432915 1.2692006 0.15684435 66
0.25305092 1.2587796 0.0099827768 87
0.25859782 1.2496495 0.029412808 100
0.24585995 1.2706161 0.051247578 82
0.26346508 1.2416379 0.067759357 34
0.26179048 1.2443943 0.087916173 56
0.25438488 1.256584 0.11066922 85
0.2697241 1.2313356 0.12462288 92
0.24406746 1.2735665 0.15787962 65
0.25269428 1.2632385 0.010052586 86
0.26749125 1.2386899 0.028680105 100
0.25172344 1.2648492 0.05055033 84
0.25793973 1.2545362 0.069465525 49
0.26752722 1.2386303 0.086664692 57
0.25405818 1.2609758 0.11143246 91
0.2763662 1.2239661 0.12237337 85
0.24582708 1.2746314 0.15787962 65
0.25039998 1.2711905 0.010192205 85
0.26306233 1.2500081 0.029308135 100
0.2555837 1.2625189 0.050201707 85
0.25666198 1.260715 0.07019674 49
0.27330092 1.2328804 0.085413218 73
0.26492566 1.246891 0.10799789 72
0.27703202 1.2266387 0.12282328 85
0.25860819 1.2574593 -0.0099129668 87
0.25362599 1.2657938 0.15477379 67
0.26337162 1.2533135 0.0098082526 89
0.26677719 1.247571 0.029098792 100
0.25120687 1.2738256 0.051247578 82
0.25736412 1.2634434 0.070440479 49
0.27391073 1.2355424 0.08572609 58
0.26358771 1.2529491 0.10914274 85
0.28061572 1.2242365 0.12192347 76
0.25732929 1.2635021 0.15373851 68
0.27207616 1.2421979 0.0095639192 91
0.26836243 1.2485076 0.029098792 100
0.26702788 1.250775 0.048807215 88
0.26907116 1.2473035 0.068003096 51
0.27044612 1.2449673 0.087290429 57
0.27017 1.2454365 0.10723466 81
0.27520418 1.2368833 0.12507279 83
0.25896743 1.2644699 0.15373851 68
0.26557475 1.2569306 0.0098431576 88
0.2719655 1.2459897 0.028889447 100
0.26259425 1.2620331 0.049853086 85
0.26665059 1.2550888 0.068978049 50
0.27899706 1.2339518 0.085100345 58
0.26778725 1.2531428 0.10876112 87
0.28068554 1.2310612 0.12327318 85
0.25671121 1.2721047 0.15580906 67
0.26426849 1.2631111 0.0099478718 73
0.27362871 1.2469573 0.028889447 100
0.25832009 1.2733767 0.050898954 100
0.27431706 1.2457694 0.067515619 51
0.27863744 1.2383133 0.08572609 58
0.27734983 1.2405355 0.10570818 66
0.28718168 1.2235678 0.12102367 86
0.26326594 1.2648413 -0.0099827768 86
0.25652856 1.2764685 0.15684435 66
0.26889575 1.2588553 0.0098431576 88
0.27521187 1.2478712 0.028889447 100
0.26595005 1.263978 0.049853086 85
0.27193809 1.2535645 0.068490572 50
0.28511542 1.2306484 0.084161744 59
0.2642318 1.2669661 0.11143246 91
0.29063004 1.2210581 0.12012386 77
0.26590526 1.2640558 -0.0099478718 75
0.26206172 1.27074 0.15477379 67
0.27275521 1.2564564 0.0097733475 89
0.27309299 1.2558637 0.029308135 100
0.26587579 1.268527 0.050201707 85
0.26986519 1.2615272 0.069465525 49
0.28101742 1.2419593 0.086038955 58
0.28072387 1.2424744 0.10570818 81
0.28271461 1.2389815 0.12462288 83
0.26681423 1.2668804 -0.0099827768 86
0.27163905 1.2584147 0.15063268 70
0.27633867 1.2538918 0.0097035384 90
0.28257123 1.2428713 0.02847076 100
0.27047291 1.2642636 0.049678773 86
0.27345109 1.2589977 0.068978049 50
0.28258398 1.2428488 0.086038955 58
0.27842632 1.2502004 0.10723466 81
0.28618988 1.2364727 0.12372308 75
0.26945627 1.2660614 0.15270324 68
0.28007007 1.2514031 0.0096337283 90
0.28235257 1.2473325 0.028680105 100
0.26643977 1.275712 0.05072464 84
0.28592473 1.2409618 0.06629692 52
0.28238663 1.2472718 0.086664692 71
0.2782678 1.2546175 0.10799789 79
0.29171371 1.2306374 0.12192347 85
0.2712763 1.2670863 0.15270324 76
0.28166795 1.2522956 0.0096337283 90
0.28587899 1.2447268 0.02847076 100
0.27102432 1.2714263 0.050201707 85
0.27494141 1.2643857 0.069465525 49
0.28685197 1.242978 0.08572609 58
0.28178534 1.2520846 0.10723466 81
0.29513755 1.2280855 0.12102367 86
0.2738902 1.2662752 -0.0099129668 87
0.27292621 1.2680079 0.15270324 76
0.27465808 1.2689868 0.0099478718 73
0.28560784 1.2491432 0.028680105 100
0.27758923 1.2636749 0.049330149 87
0.28242317 1.2549146 0.068003096 51
0.29423076 1.2335165 0.083848871 59
0.27967572 1.2598937 0.10876112 79
0.29485515 1.2323848 0.12192347 85
0.28213295 1.2554405 0.14856213 79
0.2868776 1.2506028 0.0095639192 91
0.28336167 1.2570249 0.029098792 100
0.28305498 1.257585 0.048632905 88
0.28784582 1.2488344 0.067028143 51
0.29292336 1.2395601 0.084787481 73
0.28507295 1.2538991 0.10723466 81
0.29826152 1.2298098 0.12102367 77
0.27817789 1.2664933 0.15166797 69
0.29054862 1.248049 0.0094941091 92
0.28705391 1.2544881 0.028889447 100
0.28864539 1.2515557 0.047935657 89
0.285815 1.2567708 0.068003096 51
0.29558837 1.238763 0.084474608 59
0.29246721 1.2445139 0.10494494 82
0.29715982 1.2358675 0.12237337 76
0.27999946 1.2674862 0.15166797 69
0.29308334 1.247146 0.009459204 77
0.29434323 1.2448062 0.028261416 100
0.28268719 1.2664537 0.049330149 87
0.29119506 1.2506529 0.067028143 51
0.29527125 1.2430826 0.085100345 58
0.2912499 1.2505511 0.1060898 81
0.29870608 1.2367034 0.12237337 76
0.27981892 1.2717807 0.15270324 68
0.29115227 1.2551863 0.0095988233 91
0.29804847 1.24226 0.028052073 100
0.27709278 1.2815394 0.05072464 84
0.29117379 1.255146 0.067515619 51
0.28940055 1.2584697 0.10761628 79
0.2826809 1.271065 -0.0099129668 87
0.28174761 1.2728145 0.15270324 68
0.28715017 1.2666465 0.0098082526 74
0.29370248 1.2542661 0.047935657 89
0.29092684 1.2595106 0.068003096 51
0.29285854 1.2558608 0.10685304 66
0.28621477 1.2684139 -0.0098431576 87
0.28883851 1.2634565 0.14959741 78
0.29755646 1.2510381 0.02847076 100
0.29539442 1.2551578 0.047935657 89
0.28894734 1.2674429 0.068978049 50
0.28423923 1.2764144 -0.0099827768 86
0.29864195 1.2489696 0.14493866 82
0.29792467 1.2542322 0.047761347 60
0.29976448 1.250698 0.066540658 52
0.2922034 1.2652227 0.14959741 70
0.29878333 1.2569319 0.0095639192 91
0.29696065 1.2604648 0.048284281 59
0.29402021 1.2661642 0.14959741 70
0.29857752 1.2613226 0.0096337283 100
0.29950929 1.2595018 0.067515619 68
0.29402277 1.2702234 -0.0098082526 100
0.28422636 1.2893672 0.1563267 74
0.29857117 1.2658077 0.0097035384 100
0.29404905 1.2747252 -0.0098780617 100
0.29662269 1.2737846 -0.0098431576 100
0.29848278 1.2836374 -0.0099827768 100
