# .PCD v0.7 - Point Cloud Data file format
VERSION 0.7
FIELDS x y z intensity
SIZE 4 4 4 4
TYPE F F F F
COUNT 1 1 1 1
WIDTH 751
HEIGHT 1
VIEWPOINT 0 0 0 1 0 0 0
POINTS 751
DATA ascii
0.055012226 0.00075042248 0.047939736 58
0.053898871 0.0049023628 0.015916595 45
0.051243454 0.00080710649 0.04804441 54
0.048561513 0.0025528073 0.04804441 33
0.044808686 0.0084730387 0.015951499 4
0.044992089 0.014487684 0.047625721 77
0.044458389 0.019656479 0.047416378 39
0.033989906 0.0098583698 0.048149079 26
0.029217601 0.0082762241 0.048358422 17
0.032226741 0.018322766 0.047835063 9
0.029736936 0.02004385 0.047835063 9
0.01568079 0.0054939389 0.048881784 7
0.0082817078 0.00092601776 0.049300469 7
-0.70468885 0.57464254 0.022164555 4
-0.69946545 0.58014375 0.022059841 29
-0.70800012 0.58311278 0.022199461 43
-0.72051889 0.58578348 0.02240889 39
-0.71518296 0.59083885 0.022304175 45
-0.69803244 0.59815305 0.021990033 66
-0.68868595 0.60362363 0.021815509 74
-0.7051217 0.60587424 0.022094747 71
-0.70565909 0.61003727 0.022094747 73
-0.71615976 0.61341339 0.022269271 47
-0.74248201 0.61450791 0.022723034 25
-0.80067176 0.61276627 0.023735274 18
-0.85483569 0.6111809 0.024677703 12
-0.89513773 0.61173165 0.025375798 6
-1.0486836 1.1346794 0.028621947 2
-1.0097384 1.1257956 0.083842203 5
-1.0331304 1.1311315 0.14206386 6
-1.0279844 1.1354669 0.028272899 8
-1.0046585 1.1300646 0.083632857 13
-1.0125141 1.131884 0.14032075 19
-0.9896515 1.1325397 0.027609708 20
-1.014993 1.1385069 0.084260888 82
-1.0208738 1.1398916 0.1411923 68
-0.98844081 1.1376435 0.027609708 37
-0.99433666 1.1390524 0.083214171 100
-1.0196388 1.1450989 0.1411923 100
-0.98513967 1.1428077 0.027574802 43
-0.97550601 1.1404682 0.08227212 100
-1.0105088 1.1489686 0.14049506 86
-0.99360317 1.1502881 0.027749326 26
-0.98396546 1.1479137 0.082795486 100
-0.99570173 1.1508051 0.13927488 94
-0.97092682 1.1503377 0.027365373 26
-0.9845745 1.1537505 0.082900152 61
-0.98663157 1.1542649 0.13857763 85
-0.9677189 1.1548876 0.027330469 37
-0.98329359 1.1588373 0.082900152 33
-1.0007989 1.1632766 0.13997212 71
-0.96629804 1.1604477 0.027330469 59
-0.97605556 1.1629603 0.082586139 46
-0.98584098 1.16548 0.13875194 89
-0.9611252 1.1644636 0.027260659 67
-0.95348662 1.1624696 0.081434749 94
-0.99030441 1.1720805 0.13927488 89
-0.96740121 1.1720482 0.027400278 75
-0.95976061 1.1700237 0.081853434 96
-0.96956104 1.1726204 0.13753176 98
-0.94867808 1.1724107 0.027086135 81
-0.95649678 1.1745101 0.081748761 96
-0.96244484 1.1761073 0.13700883 100
-0.9394756 1.1757984 0.026946515 93
-0.95307702 1.179504 0.081644088 100
-0.96094626 1.1816479 0.13700883 100
-0.94576007 1.1831247 0.027086135 93
-0.94201261 1.1820896 0.081120729 100
-0.9671821 1.1890414 0.13770607 91
-0.94430894 1.1883433 0.027086135 96
-0.93864173 1.1867567 0.081016064 94
-0.9657101 1.1943347 0.13770607 92
-0.9582296 1.1979234 0.027365373 81
-0.93717796 1.1919506 0.081016064 84
-0.95271927 1.19636 0.1366602 100
-0.96064621 1.2040269 0.027435184 48
-0.93001169 1.1952252 0.080702044 50
-0.94938225 1.2007906 0.13648589 100
-0.93992192 1.2037084 0.027086135 44
-0.92851835 1.2003889 0.080702044 22
-0.95552129 1.2082493 0.13718314 87
-0.9288848 1.2058204 0.026911611 63
-0.91941983 1.2030312 0.080283359 26
-0.95214862 1.2126762 0.13700883 82
-0.92543834 1.2104081 0.026876707 78
-0.91024405 1.2058728 0.079864666 31
-0.94295758 1.2156374 0.13631158 91
-0.92389208 1.2155557 0.026876707 78
-0.92209631 1.2150128 0.080597371 68
-0.92613572 1.216234 0.1349171 100
-0.91085511 1.2171859 0.026667276 81
-0.91671437 1.2189795 0.080388032 100
-0.92266399 1.2208006 0.13474278 100
-0.90920621 1.2225372 0.026667276 85
-0.91696662 1.2249439 0.080492698 88
-0.92290479 1.2267854 0.1349171 84
-0.89998621 1.225232 0.026527658 88
-0.90203077 1.2258739 0.07976 80
-0.91749948 1.2307304 0.13456847 54
-0.91363448 1.2351358 0.026806897 85
-0.89472026 1.229125 0.07944598 74
-0.92157871 1.2376604 0.13509139 45
-0.90819472 1.2390175 0.026737086 88
-0.90261549 1.2372229 0.079969339 80
-0.9066605 1.238524 0.13387123 43
-0.89133662 1.2391531 0.026457848 96
-0.90477401 1.2435269 0.080178685 100
-0.90880519 1.2448392 0.13421984 57
-0.88209289 1.2416792 0.02631823 100
-0.89742118 1.2467278 0.079864666 100
-0.90524644 1.2493051 0.13404553 78
-0.88052088 1.2464256 0.02631823 99
-0.89014763 1.2496318 0.079550654 100
-0.90931994 1.256017 0.13456847 85
-0.88263911 1.2526932 0.026388038 99
-0.87521559 1.2501919 0.078817949 100
-0.91327888 1.2630165 0.13509139 73
-0.88464576 1.2592316 0.026457848 99
-0.87722677 1.2567017 0.079027295 100
-0.89637595 1.2632318 0.13369691 87
-0.86780602 1.2590203 0.02617861 96
-0.87929529 1.2629831 0.079236634 100
-0.88522798 1.2650293 0.13282534 100
-0.86626273 1.2634721 0.02617861 81
-0.87962562 1.268128 0.079341307 97
-0.90059882 1.2754358 0.13439415 68
-0.86264545 1.2677481 0.026143705 75
-0.85904068 1.2664779 0.07829459 70
-0.89882559 1.2804964 0.13439415 38
-0.86457878 1.2742653 0.026213514 88
-0.85721153 1.2716391 0.07829459 25
-0.88943797 1.2831271 0.13369691 31
-0.86845368 1.2812341 0.02631823 99
-0.85545188 1.276548 0.07829459 29
-0.87639183 1.2840952 0.13265105 30
-0.85923475 1.283198 0.02617861 92
-0.85751778 1.2825727 0.078503937 74
-0.85783023 1.2826865 0.13108224 16
-0.83866888 1.2812059 0.025829561 99
-0.86134285 1.2895527 0.078817949 100
-0.86538059 1.2910392 0.13195379 13
-0.84437269 1.2888396 0.025969181 100
-0.84080189 1.2875109 0.077771232 100
-0.88035899 1.3022299 0.1335226 1
-0.84255308 1.2937037 0.025969181 100
-0.83711761 1.2916596 0.077666558 46
-0.87103301 1.3044143 0.13282534 1
-0.84445494 1.2999823 0.026038991 89
-0.8390221 1.2979174 0.077875905 51
-0.84494752 1.3001695 0.1305593 7
-0.82952923 1.2998279 0.025794657 72
-0.84276432 1.304911 0.078189917 57
-0.85982782 1.3114645 0.1321281 45
-0.82767135 1.3046402 0.025794657 72
-0.84088868 1.3097694 0.078189917 68
-0.84306973 1.3106158 0.13073361 90
-0.82579678 1.3094459 0.025794657 88
-0.81482345 1.3051432 0.07682918 63
-0.85601324 1.3212936 0.1321281 100
-0.82214111 1.3132691 0.025759751 99
-0.82418329 1.3140776 0.077457212 80
-0.83935755 1.3200855 0.13073361 97
-0.82394975 1.3195407 0.025829561 100
-0.82227582 1.3188711 0.077457212 95
-0.83372921 1.3234522 0.130385 97
-0.81460673 1.321337 0.025689943 100
-0.82590693 1.3259025 0.077771232 97
-0.82624692 1.3260398 0.12986206 100
-0.80156511 1.3215635 0.025480513 100
-0.8239581 1.3307018 0.077771232 97
-0.8279869 1.332346 0.13021068 100
-0.79353303 1.3182857 0.17817298 22
-0.81072444 1.3308501 0.025689943 100
-0.79798728 1.3256003 0.076410495 100
-0.82417351 1.3363935 0.13003637 100
-0.76775199 1.3131382 0.17500438 16
-0.80875844 1.3355966 0.025689943 100
-0.79050797 1.3279996 0.076096483 100
-0.82218808 1.3411868 0.13003637 100
-0.78600734 1.3261261 0.1776855 22
-0.80308896 1.3387862 0.025620133 100
-0.79407567 1.3349974 0.076410495 100
-0.80549222 1.3397965 0.12864187 100
-0.79320782 1.3346326 0.17890419 22
-0.79373235 1.3403805 0.025480513 99
-0.7976107 1.3420267 0.076724514 81
-0.80166107 1.3437461 0.12846756 100
-0.78757411 1.3377665 0.17841671 15
-0.80643708 1.3513696 0.025759751 61
-0.808456 1.352235 0.077457212 40
-0.80148131 1.3492455 0.12864187 43
-0.77098757 1.3361759 0.17646681 9
-0.80990523 1.3584836 0.025864467 74
-0.8100813 1.3585597 0.077666558 82
-0.8159079 1.3610811 0.13021068 35
-0.77629048 1.3439372 0.17744176 7
-0.80417782 1.3616257 0.025794657 100
-0.80252796 1.3609049 0.077352546 100
-0.81566197 1.3666431 0.130385 93
-0.77791721 1.3501527 0.17792924 20
-0.80027479 1.3655422 0.025759751 100
-0.80228454 1.3664285 0.077457212 100
-0.82268578 1.3754265 0.13125655 100
-0.79041415 1.3611931 0.17987914 31
-0.79281157 1.3675774 0.025655037 100
-0.80942291 1.3749697 0.077980578 100
-0.79882723 1.3702545 0.12916481 100
-0.78663272 1.3648276 0.17963541 38
-0.79618984 1.3747193 0.025759751 100
-0.81094664 1.3813481 0.078189917 100
-0.80399352 1.3782248 0.12986206 100
-0.77006203 1.3629825 0.1776855 30
-0.78871292 1.3767037 0.025655037 100
-0.80163521 1.38256 0.077771232 100
-0.809228 1.3860011 0.1305593 100
-0.77170449 1.3689954 0.17817298 24
-0.79931635 1.3871956 0.025899371 100
-0.80312127 1.388936 0.077980578 100
-0.8106932 1.3923995 0.13090792 100
-0.76238471 1.3703026 0.17719802 15
-0.80260044 1.3944163 0.026004085 100
-0.8045792 1.3953297 0.078189917 100
-0.80489439 1.3954753 0.1305593 100
-0.7783044 1.3832002 0.17963541 12
-0.79134947 1.3949115 0.025829561 100
-0.81144029 1.4042716 0.078713275 100
-0.7990908 1.3985181 0.13021068 100
-0.78155404 1.3903481 0.18036664 8
-0.79096955 1.4004407 0.025864467 100
-0.80921799 1.4090199 0.078713275 100
-0.80410093 1.4066143 0.13090792 100
-0.75961941 1.3857019 0.1776855 5
-0.79237419 1.406832 0.025934275 100
-0.80337018 1.4120486 0.078503937 100
-0.80547065 1.413045 0.13125655 100
-0.77719074 1.3996289 0.18036664 3
-0.7955541 1.4141041 0.026038991 100
-0.8011207 1.4167688 0.078503937 100
-0.81400043 1.4229341 0.13230242 100
-0.80410153 1.4240153 0.02624842 100
-0.80245179 1.4232185 0.078713275 100
-0.80812472 1.4259584 0.13195379 100
-0.79461986 1.4252341 0.0261088 100
-0.8091405 1.4323099 0.079236634 100
-0.79866248 1.427204 0.13125655 100
-0.79232448 1.4299235 0.0261088 100
-0.79965097 1.4335256 0.078817949 100
-0.8070882 1.4371818 0.13230242 100
-0.79012877 1.4343712 0.0261088 100
-0.80460089 1.441546 0.079236634 100
-0.81200856 1.4452183 0.13299966 100
-0.79853255 1.4444119 0.02631823 100
-0.79153055 1.4409101 0.07860861 100
-0.81677121 1.4535332 0.13369691 100
-0.79974085 1.4509163 0.026388038 100
-0.79453009 1.4482876 0.078922622 100
-0.80726153 1.4547104 0.13299966 100
-0.79735583 1.4556236 0.026388038 100
-0.80283445 1.4584116 0.079550654 100
-0.80131179 1.4576367 0.13265105 100
-0.78416055 1.4550767 0.02617861 100
-0.80030221 1.4633653 0.079550654 100
-0.8040995 1.4653151 0.13317397 100
-0.7924152 1.4652475 0.026388038 100
-0.79432672 1.4662375 0.079341307 100
-0.81404847 1.4764516 0.13439415 100
-0.79719275 1.4733975 0.026527658 100
-0.79555136 1.4725404 0.079550654 100
-0.81876284 1.4846597 0.13509139 100
-0.80180675 1.4818225 0.026667276 99
-0.79309088 1.4772329 0.079550654 100
-0.80744535 1.4847916 0.13421984 100
-0.79224926 1.4827853 0.026527658 41
-0.78355819 1.47817 0.079131968 34
-0.789105 1.4811156 0.13265105 78
0.10825753 1.3166761 0.13661924 5
0.16332233 1.2519627 0.010785587 13
0.13879624 1.2825325 0.03443706 27
0.12359029 1.3014855 0.059614528 21
0.1000357 1.3308444 0.11388429 9
0.14088297 1.2799315 0.12707879 17
0.19024843 1.2184014 0.13272113 7
0.12808403 1.2958844 0.18065569 6
0.15246066 1.2688812 0.011134636 37
0.1716153 1.2448436 0.03182026 61
0.16012135 1.2592676 0.054733805 50
0.15412664 1.2667905 0.077996381 14
0.15852627 1.2612693 0.099492319 12
0.14747018 1.2751439 0.12555231 66
0.19780961 1.2119718 0.13047162 16
0.14909303 1.2731073 0.17237349 14
0.15420449 1.2702658 0.011134636 100
0.17575356 1.2430289 0.031610917 92
0.15812296 1.2653131 0.055256739 99
0.15709487 1.2666125 0.077752642 28
0.17985389 1.2378463 0.094486415 39
0.15654469 1.267308 0.12326261 100
0.19089067 1.2238964 0.13362093 38
0.14725572 1.2790487 0.1739264 42
0.1658352 1.259064 0.010855397 100
0.17123827 1.2521856 0.032134276 100
0.16108507 1.2651112 0.055082429 100
0.15637827 1.2711031 0.078240119 28
0.17172736 1.251563 0.096989371 25
0.16798499 1.2563272 0.12020966 100
0.19006968 1.2282121 0.13452072 38
0.14664841 1.2834899 0.17496167 49
0.16754472 1.260402 0.010855397 100
0.17906502 1.24563 0.031610917 92
0.15791464 1.2727501 0.055779677 100
0.16179219 1.2677782 0.077508904 29
0.17584023 1.249765 0.096363634 37
0.1817584 1.2421765 0.11639348 100
0.18208393 1.2417591 0.13811995 37
0.15319541 1.2788012 0.17289113 35
0.17774472 1.2506011 0.010611063 94
0.18553644 1.2405415 0.03119223 63
0.16812432 1.2630215 0.054559495 76
0.18046317 1.2470914 0.07409656 30
0.17017546 1.2603734 0.098240845 24
0.17851737 1.2496035 0.11791996 39
0.19200364 1.232192 0.13497064 30
0.145421 1.2923326 0.17703223 27
0.17089161 1.2629938 0.010855397 78
0.18352863 1.2465607 0.031506244 31
0.16256034 1.2738278 0.055605363 49
0.18092069 1.2499521 0.074340299 46
0.19356462 1.2335098 0.092609204 40
0.17780021 1.25401 0.1186832 13
0.19718295 1.2288045 0.13362093 23
0.14371383 1.298336 0.17858514 54
0.16412058 1.2754402 0.011099731 75
0.15610686 1.285937 0.034018371 27
0.17278457 1.2640918 0.054385185 51
0.1765753 1.2591265 0.07555899 75
0.19398606 1.2363212 0.092922069 53
0.19617081 1.2334596 0.11334054 13
0.19878665 1.2300333 0.13362093 31
0.17017859 1.2675052 0.16771474 67
0.18158996 1.2560666 0.010645968 53
0.16032308 1.2841253 0.033809029 28
0.17090109 1.270169 0.054908119 50
0.18547943 1.250935 0.07409656 61
0.20038882 1.231264 0.091670595 54
0.19779074 1.2346919 0.11334054 13
0.21216583 1.2157259 0.1291219 40
0.17891905 1.2595904 0.16460891 69
0.1832889 1.2573496 0.010645968 53
0.16692355 1.2790987 0.033390339 28
0.17504519 1.2683053 0.054559495 50
0.18238622 1.2585492 0.075071514 100
0.19012398 1.248266 0.094799288 51
0.19587368 1.2406247 0.1144854 13
0.20669359 1.2262454 0.13182132 31
0.17830724 1.2639701 0.16564418 68
0.18977928 1.2522185 0.010506349 54
0.18065587 1.2644317 0.032343622 30
0.1767869 1.2696111 0.054559495 50
0.20072591 1.2375644 0.071659178 80
0.18706685 1.2558495 0.096050762 76
0.20574319 1.230848 0.11181407 14
0.21062079 1.2243185 0.13092151 32
0.17656535 1.2699077 0.16719711 67
0.18304038 1.2646525 0.010750682 79
0.19657719 1.2464051 0.031087559 31
0.1653879 1.2884476 0.056476921 48
0.19991288 1.2419088 0.072146654 79
0.1980955 1.2443585 0.093547814 65
0.20727333 1.231987 0.11181407 14
0.21677348 1.2191811 0.1291219 32
0.18167815 1.2664887 0.16564418 68
0.18476927 1.2659304 0.010750682 79
0.20179543 1.2428113 0.030773543 64
0.18728516 1.2625141 0.053513627 100
0.18979073 1.2591119 0.074584037 76
0.20912459 1.2328594 0.091044858 95
0.20190281 1.2426655 0.11410378 13
0.21718785 1.2219106 0.12957181 32
0.18799579 1.2615492 0.16357364 69
0.19602865 1.2543497 0.010471444 82
0.21177998 1.2327967 0.03004084 66
0.1949707 1.2557973 0.05264207 100
0.20329872 1.2444018 0.072146654 63
0.20732668 1.2388902 0.091983467 93
0.21522158 1.2280874 0.1102876 14
0.2303448 1.2073938 0.12507279 16
0.19321948 1.2581935 0.16202073 70
0.19537297 1.2588196 0.010541254 95
0.20401484 1.2469075 0.030878214 95
0.18730885 1.2699351 0.054036561 100
0.19563133 1.2584634 0.07409656 92
0.21128547 1.2368857 0.09135773 100
0.21566978 1.2308424 0.11066922 14
0.2272962 1.2148163 0.12687239 16
0.19152251 1.264127 0.16357364 69
0.19941863 1.256809 0.010471444 82
0.21268475 1.2383881 0.030250182 65
0.19138482 1.2679646 0.053687938 78
0.20081875 1.2548649 0.073365346 100
0.20368212 1.2508888 0.093860678 100
0.21039662 1.2415652 0.11295892 13
0.24137795 1.1985453 0.12192347 8
0.19099158 1.2685106 0.16460891 69
0.19646832 1.2645369 0.010611063 94
0.21896785 1.2330635 0.029831495 66
0.18964916 1.2740757 0.054210871 100
0.20713112 1.2496213 0.072390392 47
0.2122556 1.2424529 0.091983467 100
0.20861953 1.2475392 0.11410378 13
0.24514234 1.1964494 0.12102367 17
0.19835129 1.2619028 0.16202073 70
0.19811019 1.2657065 0.010611063 81
0.21588075 1.2406732 0.030250182 65
0.19132274 1.2752681 0.054210871 100
0.20527625 1.2556117 0.073121607 78
0.21611106 1.2403487 0.09135773 94
0.19997704 1.2630767 0.11753834 26
0.22738156 1.224472 0.128672 16
0.19774792 1.2662169 0.163056 70
0.20214635 1.2636626 0.010541254 95
0.21522489 1.2451019 0.030459527 65
0.20226964 1.2634876 0.05281638 100
0.20697346 1.2568121 0.073121607 93
0.21889275 1.2398965 0.091044858 100
0.20170033 1.2642956 0.11753834 53
0.2289699 1.2255955 0.128672 32
0.20393321 1.2611268 0.16098544 72
0.21533287 1.2484872 0.010192205 99
0.21459588 1.2495409 0.03066887 96
0.20399433 1.2646984 0.05281638 100
0.21777683 1.244993 0.071171694 65
0.21940285 1.2426683 0.09135773 100
0.20342788 1.2655083 0.11753834 99
0.22721145 1.231504 0.13002171 64
0.20786414 1.2591655 0.15995017 72
0.20788202 1.2627937 0.010471444 96
0.21968886 1.2457869 0.030354854 97
0.19663346 1.2789962 0.054210871 100
0.22170103 1.2428885 0.070684217 65
0.21992823 1.245442 0.091670595 100
0.21523613 1.2522006 0.11410378 96
0.22993571 1.2310271 0.12957181 96
0.20516691 1.2667046 0.16202073 70
0.20960426 1.2639849 0.010471444 96
0.22588477 1.2403585 0.029936166 99
0.20519537 1.2703831 0.053165004 100
0.22785917 1.2374932 0.069709264 66
0.228315 1.2368317 0.089793384 100
0.22137725 1.2468998 0.1125773 100
0.2359699 1.2257229 0.1277722 97
0.20690283 1.2679052 0.16202073 70
0.21133065 1.2651701 0.010471444 96
0.23316622 1.2332442 0.029412808 67
0.20919368 1.2682946 0.05281638 100
0.21828645 1.255 0.072146654 79
0.23217684 1.2346908 0.089167647 100
0.22193563 1.2496645 0.11295892 82
0.22986165 1.2380759 0.13092151 96
0.21082413 1.2659106 0.16098544 72
0.21418431 1.2646947 0.010436539 82
0.2246893 1.2492197 0.030354854 65
0.21429223 1.2645358 0.052293446 80
0.2222113 1.2528701 0.071659178 64
0.23380083 1.2357974 0.089167647 100
0.22691995 1.2459337 0.11181407 98
0.2314975 1.2391905 0.13092151 96
0.21689734 1.2606981 0.15891489 73
0.22485197 1.2525966 0.0101573 42
0.22301611 1.2553215 0.03066887 32
0.21713379 1.2640523 0.052119136 54
0.22389883 1.2540114 0.071659178 100
0.22770238 1.248366 0.09135773 100
0.2318742 1.242174 0.11066922 100
0.23313722 1.2402993 0.13092151 96
0.2207711 1.2586536 0.15787962 73
0.20653057 1.2836502 0.010785587 39
0.22471219 1.25646 0.03066887 32
0.21664539 1.2685237 0.052467756 53
0.23221093 1.2452457 0.07019674 66
0.23486432 1.2412777 0.089793384 83
0.23570693 1.2400175 0.10990598 85
0.24236339 1.230063 0.1277722 97
0.20959276 1.2790706 0.16409127 69
0.22159454 1.2648518 0.010366729 41
0.22641224 1.2575924 0.03066887 32
0.21067569 1.2813048 0.053687938 52
0.23167646 1.2496601 0.070684217 98
0.24088049 1.2357912 0.08854191 100
0.23409274 1.2460192 0.11105084 84
0.24504876 1.2295103 0.1273223 97
0.22205409 1.2641594 0.15891489 73
0.21663609 1.2759571 0.010576159 40
0.20385578 1.2953541 0.032971654 29
0.21127689 1.284091 0.053862248 51
0.22671577 1.2606589 0.072146654 79
0.24786097 1.2285662 0.086977564 100
0.23675317 1.2454247 0.11066922 85
0.24442986 1.2337736 0.12822211 89
0.22582036 1.2620178 0.15787962 73
0.229348 1.2603811 0.01022711 28
0.21662214 1.2798431 0.031924933 30
0.22288686 1.2702622 0.052293446 53
0.23929429 1.24517 0.069709264 66
0.24513924 1.2362312 0.088229038 98
0.24056348 1.243229 0.10990598 92
0.24178463 1.2413615 0.13002171 96
0.23071155 1.2582958 0.1563267 82
0.2310617 1.2614975 0.01022711 42
0.22057825 1.2776529 0.031715591 30
0.2289733 1.2647157 0.051596198 54
0.24311599 1.2429212 0.069221787 67
0.24569327 1.2389495 0.08854191 84
0.24542332 1.2393656 0.10876112 87
0.24343187 1.2424345 0.13002171 96
0.23346955 1.2577868 0.15580906 75
0.23494461 1.2592453 0.0101573 57
0.24830461 1.2384987 0.029203463 68
0.22099376 1.2809093 0.053165004 52
0.2415444 1.2489965 0.069953002 49
0.24519306 1.2433306 0.089167647 84
0.24387476 1.2453778 0.10990598 85
0.25141332 1.2336712 0.1273223 97
0.2299445 1.2670099 0.15839726 73
0.23872292 1.2569176 0.010087491 43
0.2487841 1.2411793 0.029308135 68
0.22590923 1.2769616 0.05264207 53
0.23351154 1.2650696 0.072146654 79
0.25102028 1.2376814 0.087916173 70
0.24439541 1.2480444 0.1102876 78
0.2571511 1.2280912 0.12552269 82
0.23159441 1.2680684 0.15839726 73
0.23613968 1.2647556 0.01022711 70
0.24829087 1.2456009 0.029517479 100
0.23408455 1.2679952 0.051596198 54
0.23843169 1.2611425 0.071415432 48
0.25477096 1.235386 0.087290429 71
0.23765254 1.2623708 0.11334054 96
0.25770801 1.2307562 0.12597258 82
0.23023039 1.2740707 0.15995017 64
0.24115017 1.2608252 0.010122396 85
0.24790865 1.2500845 0.029726824 100
0.23909524 1.2640908 0.051073264 83
0.24657723 1.2522004 0.069953002 49
0.25227049 1.2431526 0.08854191 84
0.2509608 1.245234 0.10914274 85
0.26251233 1.2268763 0.12462288 83
0.24648419 1.2523482 0.15270324 68
0.24816075 1.2534192 0.0099478718 73
0.25170189 1.2477478 0.029517479 100
0.24504268 1.2584131 0.05037602 84
0.24615958 1.2566242 0.070440479 49
0.25810874 1.2374867 0.087290429 57
0.24846235 1.2529361 0.11066922 92
0.25894839 1.2361419 0.12687239 99
0.23589191 1.2730687 0.15891489 65
0.24660513 1.2595166 0.010052586 86
0.26170516 1.2351532 0.028680105 100
0.23616794 1.2763566 0.052119136 81
0.24986649 1.2542545 0.069953002 49
0.25133541 1.2518845 0.089793384 69
0.25523674 1.2455897 0.10876112 72
0.26460221 1.230479 0.12507279 92
0.23959729 1.2708235 0.15787962 65
0.24412566 1.2673862 0.010192205 85
0.25705317 1.2463646 0.029308135 100
0.24315581 1.2689632 0.051247578 100
0.25779787 1.2451535 0.068490572 50
0.25922799 1.242828 0.087916173 70
0.24764284 1.2616668 0.11219569 84
0.27029461 1.2248325 0.12327318 85
0.23932344 1.2751951 0.15891489 65
0.25002998 1.2616227 0.010052586 100
0.25871778 1.2473842 0.029308135 100
0.24593714 1.2683305 0.051073264 100
0.2532545 1.256338 0.069953002 49
0.27219811 1.2252913 0.084474608 59
0.25242865 1.2576915 0.11105084 77
0.27086896 1.2274696 0.12372308 83
0.2521131 1.2582086 -0.0099827768 86
0.24511367 1.26968 0.15684435 66
0.25796148 1.2524029 0.0098431576 88
0.25624859 1.2552323 0.029726824 100
0.24974212 1.26598 0.05072464 100
0.25701001 1.2539746 0.069465525 49
0.26458201 1.2414668 0.087290429 57
0.25921646 1.2503299 0.10914274 85
0.26540306 1.2401106 0.12687239 82
0.24685976 1.2707412 0.15684435 66
0.26479524 1.2448481 0.0096686333 90
0.26205763 1.2494061 0.029308135 100
0.25147524 1.2670251 0.05072464 100
0.26687801 1.2413805 0.067515619 51
0.27131498 1.2339932 0.08572609 58
0.26291662 1.2479759 0.10837951 94
0.26905254 1.2377599 0.12597258 90
0.24860951 1.2717963 0.15684435 66
0.25928912 1.2578657 0.0099129668 87
0.26577759 1.2469769 0.029098792 100
0.25219211 1.2697756 0.050898954 83
0.26649284 1.2457764 0.068003096 51
0.26383567 1.2502357 0.08854191 70
0.26961169 1.2405424 0.10647142 73
0.27966496 1.2236712 0.12192347 85
0.24838513 1.2761645 0.15787962 65
0.26099384 1.2588774 0.0099129668 87
0.27354261 1.2376502 0.02847076 100
0.24988282 1.2776726 0.051596198 100
0.26613495 1.2501808 0.068490572 67
0.27456102 1.2359275 0.08572609 58
0.26326323 1.2550385 0.10952436 78
0.27827513 1.2296448 0.12327318 85
0.25015381 1.2772143 0.15787962 65
0.26674855 1.2529836 0.0097733475 89
0.27315593 1.242058 0.028680105 100
0.26475969 1.2563748 0.049330149 87
0.25977901 1.2648675 0.070440479 49
0.27718839 1.235182 0.085413218 58
0.26396492 1.25773 0.10990598 85
0.28086707 1.2289095 0.12282328 85
0.26067889 1.2633332 -0.0099827768 86
0.26169908 1.2615936 0.15270324 68
0.26633996 1.2573767 0.0098431576 88
0.26869488 1.2533306 0.029308135 100
0.26537192 1.25904 0.049504463 100
0.26940998 1.2521019 0.068490572 50
0.27475789 1.2429132 0.086664692 57
0.27249676 1.2467983 0.10723466 81
0.28239036 1.2297994 0.12282328 93
0.26332232 1.2625616 -0.0099478718 75
0.26527435 1.2592076 0.15166797 69
0.2730422 1.249705 0.0096686333 75
0.27138236 1.2525799 0.029203463 100
0.26110354 1.2703834 0.05055033 100
0.27506474 1.2462019 0.067515619 51
0.27739802 1.2421604 0.086351827 58
0.27710766 1.2426634 0.1060898 81
0.27912512 1.239169 0.12507279 83
0.27084744 1.2535064 0.14959741 70
0.27380878 1.2524524 0.0097035384 90
0.27612984 1.2483978 0.028889447 100
0.26590908 1.2662516 0.050027397 85
0.27681193 1.2472063 0.067515619 51
0.27913043 1.2431564 0.086351827 58
0.27689111 1.247068 0.10685304 81
0.29149652 1.2215552 0.12012386 94
0.25918445 1.2779982 0.15684435 66
0.27253225 1.2586302 0.0098082526 74
0.28371879 1.2389302 0.028261416 100
0.26469159 1.2724378 0.05055033 84
0.27259806 1.2585143 0.068978049 50
0.28761163 1.2320747 0.084161744 59
0.27564976 1.2531401 0.10799789 79
0.29114977 1.225844 0.12102367 86
0.26759508 1.2673247 -0.0099827768 86
0.2628673 1.2756504 0.15580906 67
0.27415413 1.2595476 0.0098082526 89
0.27939251 1.2502509 0.028889447 100
0.27711809 1.2542874 0.048632905 88
0.26837263 1.2698081 0.070440479 49
0.29011509 1.2312214 0.083848871 59
0.27243456 1.2625993 0.10990598 85
0.2897929 1.2317932 0.12237337 76
0.26924583 1.2682583 -0.0099827768 86
0.27023581 1.2665014 0.15270324 68
0.27976692 1.2535251 0.0096686333 75
0.2830193 1.2477057 0.028680105 100
0.27589419 1.2604545 0.049155839 87
0.27592966 1.2603911 0.068978049 50
0.28979924 1.2355745 0.084474608 59
0.28181809 1.249855 0.10685304 81
0.29235715 1.2309976 0.12192347 85
0.27293792 1.2657442 -0.0099129668 87
0.28139535 1.2506114 0.14752686 71
0.28339532 1.2509675 0.0095988233 76
0.27887869 1.2591158 0.029308135 100
0.27664196 1.2631509 0.049330149 87
0.28245509 1.2526639 0.067759357 68
0.28855294 1.241663 0.085413218 58
0.28254291 1.2525053 0.10723466 81
0.29207835 1.2353029 0.12282328 85
0.27558199 1.2650632 0.15166797 69
0.28314912 1.2553999 0.0096686333 75
0.29020956 1.242557 0.028261416 100
0.27548552 1.26934 0.049853086 85
0.28892314 1.244897 0.066540658 52
0.29115257 1.2408417 0.085100345 58
0.28895783 1.2448339 0.10532656 82
0.2983982 1.227662 0.12057377 86
0.27833232 1.2641617 -0.0098431576 87
0.27545041 1.2694039 0.15270324 68
0.28388786 1.2580842 0.0097035384 90
0.29186067 1.243461 0.028261416 100
0.27818394 1.2685459 0.049678773 86
0.28488097 1.2562628 0.068003096 51
0.29847127 1.2313364 0.083223134 60
0.28591794 1.2543608 0.10723466 81
0.28484511 1.2563285 -0.0096686333 89
0.27904484 1.2669669 0.15166797 69
0.28083771 1.2678052 0.0098780617 73
0.28971514 1.2513868 0.028680105 100
0.2818211 1.2659864 0.049330149 87
0.28846827 1.2536929 0.067515619 51
0.2866765 1.2570066 0.10761628 79
0.29974565 1.2328358 0.12147357 77
0.28369102 1.2625282 -0.0097733475 88
0.28445658 1.2611123 0.14959741 78
0.29108164 1.2528807 0.0095639192 91
0.29328468 1.248772 0.02847076 100
0.29296911 1.2493606 0.047587037 90
0.28452992 1.2650996 0.068978049 50
0.29672772 1.2423508 0.10418171 75
0.27974215 1.2740288 -0.0099827768 86
0.28617251 1.2620362 0.14959741 70
0.29464638 1.2502503 0.0094941091 92
0.29495749 1.2496653 0.02847076 100
0.29183784 1.2555324 0.048109971 89
0.2937153 1.2520014 0.067028143 51
0.29775178 1.2444099 0.085100345 58
0.29561299 1.2484324 0.10532656 82
0.29333332 1.2527199 0.14649157 72
0.29818958 1.2476009 0.0094242999 93
0.29849637 1.2470191 0.028261416 100
0.28888813 1.2652428 0.048981529 87
0.29539937 1.2528931 0.067028143 51
0.29756674 1.2487823 0.08572609 58
0.29636896 1.251054 0.10570818 73
0.28601 1.2707016 0.15166797 69
0.29707891 1.2537935 0.0095290141 76
0.29831237 1.2514341 0.02847076 100
0.28784925 1.2714481 0.049504463 57
0.29616684 1.255538 0.067271881 34
0.29623055 1.2554162 0.10647142 73
0.28596148 1.2750591 -0.0099478718 96
0.29044443 1.266484 0.15011504 78
0.29140714 1.2688762 0.0098082526 74
0.29815614 1.255856 0.028680105 100
0.29969031 1.2528963 0.066784397 52
0.29792652 1.256299 0.10647142 66
0.29324764 1.2653255 -0.0097384425 99
0.29484618 1.2622416 0.14856213 71
0.29985362 1.2567322 0.028680105 100
0.29593316 1.2643605 0.068246834 68
0.29215077 1.2717204 0.15115032 77
0.29763728 1.2652897 0.048632905 59
0.29035699 1.2795781 -0.0099827768 100
0.29653478 1.2674534 0.14959741 70
0.29846939 1.267946 0.048807215 58
0.29653072 1.2717838 0.15063268 70
0.29914883 1.2709383 0.15011504 78
0.29749712 1.2831535 -0.0099827768 100
0.29928991 1.2840319 -0.0099827768 100
