# .PCD v0.7 - Point Cloud Data file format
VERSION 0.7
FIELDS x y z intensity
SIZE 4 4 4 4
TYPE F F F F
COUNT 1 1 1 1
WIDTH 748
HEIGHT 1
VIEWPOINT 0 0 0 1 0 0 0
POINTS 748
DATA ascii
0.057271928 0.0074831843 0.015846785 123
0.05208081 0.0050265789 0.047835063 40
0.049280405 0.0068566799 0.047835063 30
0.047721028 0.010275245 0.047730394 100
0.038562417 0.0019706488 0.048358422 77
0.044529498 0.022017956 0.047311705 30
0.037425339 0.017183244 0.047730394 19
0.02928406 0.01065129 0.048253752 8
0.021962166 0.0059927702 0.048672438 8
0.019431531 0.0077480078 0.048672438 8
0.0095132589 0.0049456358 0.049091127 7
-1.1647604 0.47627452 0.030367186 7
-1.1420102 0.48564011 0.02994833 7
-1.117389 0.49605805 0.029494567 6
-1.1024938 0.50413001 0.029215328 6
-1.0777762 0.51422375 0.028761566 7
-1.0765953 0.51964307 0.028726662 10
-1.0537295 0.52889001 0.028307803 11
-1.0327981 0.5376839 0.02792385 11
-1.0157838 0.5457617 0.027609708 12
-1.0125961 0.55178183 0.027539898 25
-1.0093853 0.55777693 0.027470088 21
-0.9962402 0.56506073 0.027225753 17
-0.98702973 0.57173848 0.027051231 24
-0.99171454 0.57687616 0.027121039 27
-0.99634928 0.58177567 0.027190849 22
-1.0148375 0.58478928 0.027504992 11
-1.0055413 0.59139323 0.027330469 4
-1.0358064 1.1282494 0.08520294 3
-1.0455437 1.1304493 0.14310972 4
-1.0462239 1.1364639 0.028587041 6
-0.98782736 1.123057 0.082690813 5
-1.0384502 1.1346791 0.1425868 9
-1.0235136 1.1370367 0.028203089 10
-1.0079811 1.1334136 0.083842203 41
-1.0235856 1.1370535 0.14136662 43
-0.99108952 1.1351502 0.027644612 32
-0.99115545 1.1351658 0.083004825 91
-1.0164785 1.141166 0.14084367 91
-0.97619611 1.1372526 0.027400278 42
-1.0092897 1.145216 0.084051549 100
-1.0074248 1.1447672 0.14014643 86
-0.97490495 1.1425778 0.027400278 41
-0.97498721 1.1425979 0.08227212 100
-1.0119135 1.15162 0.14066938 87
-0.9853068 1.1505188 0.027609708 22
-0.9698661 1.1466919 0.082062781 92
-1.004838 1.1553595 0.14014643 86
-0.98009068 1.1549001 0.027539898 25
-0.97628957 1.1539439 0.082481466 46
-0.99961895 1.1598125 0.13979781 74
-0.96711236 1.1572711 0.027330469 42
-0.97106963 1.1582813 0.08227212 32
-0.96929151 1.1578274 0.13718314 77
-0.95800799 1.1605591 0.027190849 63
-0.99290663 1.1695974 0.083528183 73
-0.97564346 1.1651264 0.13788038 91
-0.95856959 1.1663287 0.027225753 67
-0.96639019 1.1683834 0.082167454 98
-0.98003596 1.1719682 0.13840333 92
-0.95331246 1.1705625 0.027155945 81
-0.95148081 1.1700745 0.081434749 94
-0.98439914 1.1788456 0.13892625 100
-0.96734875 1.1799804 0.027435184 81
-0.94429082 1.1737502 0.081120729 100
-0.9598816 1.1779628 0.13683452 100
-0.95047933 1.1810477 0.027155945 92
-0.94865125 1.1805469 0.081434749 100
-0.95652682 1.1827043 0.1366602 99
-0.93362111 1.1820023 0.026876707 92
-0.94143575 1.1841724 0.081120729 98
-0.97043496 1.1922255 0.1380547 91
-0.94372338 1.1904293 0.027086135 93
-0.93229073 1.1872115 0.080702044 88
-0.95744461 1.1942914 0.13700883 99
-0.95378464 1.1989319 0.027295563 64
-0.93082529 1.1923831 0.080702044 70
-0.95595437 1.1995507 0.13700883 100
-0.97533113 1.2108411 0.027714422 45
-0.93893558 1.2003223 0.081225403 36
-0.94870371 1.2031454 0.13648589 98
-0.92964321 1.2032386 0.026911611 52
-0.93359083 1.2043946 0.081016064 22
-0.94527048 1.2078143 0.13631158 84
-0.91853613 1.2055578 0.026737086 75
-0.92632109 1.2078668 0.080702044 26
-0.94182295 1.2124646 0.13613728 87
-0.92091423 1.2115753 0.026806897 78
-0.91720921 1.210463 0.080283359 36
-0.92889792 1.213972 0.13509139 98
-0.91553742 1.2155437 0.026737086 78
-0.90801913 1.213258 0.079864666 93
-0.94068295 1.2231883 0.13631158 99
-0.92161804 1.2230099 0.026876707 81
-0.90837187 1.2189324 0.079969339 96
-0.92576247 1.2242857 0.13509139 98
-0.90857297 1.2245741 0.026667276 85
-0.91442317 1.2263974 0.080388032 80
-0.91465694 1.2264702 0.13421984 66
-0.89553505 1.2260529 0.026457848 81
-0.91663057 1.2327082 0.080597371 66
-0.91305465 1.23158 0.13421984 47
-0.90536398 1.2347457 0.026667276 83
-0.90168816 1.233572 0.079864666 82
-0.91143447 1.2366843 0.13421984 43
-0.89604002 1.2376157 0.026527658 85
-0.89237791 1.2364314 0.07944598 97
-0.9154014 1.2438767 0.13474278 45
-0.89439899 1.2426605 0.026527658 99
-0.89453739 1.2427058 0.079655327 100
-0.91373831 1.248989 0.13474278 63
-0.88522977 1.2449348 0.026388038 100
-0.89675421 1.2487483 0.079864666 100
-0.90268427 1.2507107 0.13387123 80
-0.87597829 1.2474024 0.02624842 99
-0.89128631 1.2525274 0.079655327 100
-0.89721876 1.2545135 0.1335226 88
-0.87809116 1.25366 0.02631823 99
-0.88013464 1.2543521 0.079131968 100
-0.8974058 1.2602015 0.13369691 77
-0.88017768 1.2599381 0.026388038 93
-0.86898798 1.2561048 0.07860861 100
-0.89945561 1.2665422 0.13404553 91
-0.8784588 1.2649274 0.026388038 88
-0.87294406 1.2630167 0.078922622 100
-0.89018315 1.2689896 0.13334829 91
-0.8672865 1.2666044 0.026213514 74
-0.8749842 1.2693017 0.079131968 82
-0.89407355 1.2759902 0.13387123 50
-0.85988969 1.2695451 0.0261088 78
-0.86381978 1.2709374 0.07860861 48
-0.89605445 1.2823588 0.13421984 38
-0.86190242 1.2758123 0.02617861 93
-0.84326011 1.2691337 0.077561885 14
-0.89050585 1.2860594 0.13387123 40
-0.86012822 1.2807376 0.02617861 96
-0.85465449 1.2787552 0.07829459 55
-0.87932914 1.2876921 0.13299966 22
-0.86593848 1.2881598 0.02631823 96
-0.85858649 1.2854694 0.07860861 97
-0.86824936 1.2890055 0.1321281 15
-0.84536618 1.2861617 0.025969181 100
-0.85303217 1.2889974 0.078399263 100
-0.85521728 1.2898057 0.13108224 5
-0.83240777 1.286586 0.025759751 100
-0.84756154 1.2922488 0.078189917 74
-0.87214917 1.3014369 0.13282534 1
-0.83789593 1.294719 0.025899371 100
-0.83060044 1.2919607 0.077352546 44
-0.84773439 1.2984385 0.13073361 3
-0.83428019 1.2986052 0.025864467 72
-0.83632535 1.2993861 0.077771232 53
-0.84597427 1.3030708 0.13073361 15
-0.83988899 1.3063135 0.026004085 72
-0.83446902 1.3042221 0.077771232 68
-0.8459639 1.3086576 0.13090792 56
-0.82878679 1.3072894 0.025829561 81
-0.83827263 1.3109858 0.078085244 68
-0.84416991 1.3132838 0.13090792 100
-0.81564492 1.3079419 0.025620133 99
-0.83256394 1.3146064 0.077875905 70
-0.83660799 1.3161994 0.130385 97
-0.81756979 1.3139457 0.025689943 100
-0.82147115 1.3154974 0.077352546 89
-0.83478922 1.3207946 0.130385 99
-0.81946975 1.3199681 0.025759751 100
-0.82150811 1.3207867 0.077457212 95
-0.84035057 1.3283536 0.13108224 100
-0.81763846 1.3245064 0.025759751 100
-0.81782311 1.3245813 0.077352546 97
-0.82925934 1.329218 0.13021068 100
-0.78741509 1.3122524 0.17719802 13
-0.81189615 1.327999 0.025689943 100
-0.8157813 1.3295908 0.077352546 97
-0.81060761 1.327471 0.12864187 100
-0.80746132 1.326182 0.18012288 21
-0.79895097 1.3279264 0.025480513 100
-0.80838126 1.3318268 0.077038527 100
-0.81243378 1.333503 0.1289905 100
-0.78910011 1.3238521 0.17792924 18
-0.79679877 1.333102 0.025480513 100
-0.79147249 1.330875 0.076201156 100
-0.81393641 1.3402672 0.12933913 100
-0.77048045 1.3220981 0.17573559 15
-0.79860872 1.3391199 0.025550323 100
-0.78224474 1.3322142 0.075782463 96
-0.81203789 1.3447871 0.12933913 100
-0.78327364 1.3326485 0.1776855 22
-0.80387181 1.347196 0.025689943 85
-0.79303604 1.3425764 0.076515168 58
-0.79892534 1.3450872 0.12829325 90
-0.77937633 1.3367529 0.17744176 16
-0.81297165 1.3564243 0.025899371 60
-0.81498033 1.3572886 0.077875905 53
-0.818973 1.3590064 0.130385 22
-0.81031221 1.3552802 0.18182907 5
-0.79247326 1.3534454 0.025550323 99
-0.81648213 1.3638797 0.078085244 100
-0.81680495 1.3640201 0.130385 58
-0.8008756 1.3570971 0.18085411 19
-0.79236251 1.3586972 0.025585229 100
-0.80535978 1.3643972 0.077561885 100
-0.81665224 1.3693495 0.1305593 100
-0.78255969 1.354398 0.17866045 36
-0.801166 1.3684722 0.025794657 100
-0.79769367 1.3669343 0.077247873 100
-0.81626803 1.3751614 0.13073361 100
-0.77496368 1.3568665 0.17792924 28
-0.80282527 1.3745813 0.025864467 100
-0.79753023 1.372215 0.077352546 100
-0.80697769 1.3764371 0.13003637 100
-0.77301031 1.361257 0.17792924 22
-0.79330963 1.3762453 0.025724847 100
-0.80987757 1.3837225 0.078189917 100
-0.79929787 1.3789479 0.12951343 100
-0.78892797 1.3742678 0.18036664 19
-0.78765196 1.3790393 0.025655037 100
-0.80965263 1.3890562 0.07829459 100
-0.80452424 1.3867214 0.13021068 100
-0.76704377 1.3696563 0.1776855 16
-0.78904456 1.3856086 0.025724847 100
-0.80737454 1.3940356 0.07829459 100
-0.80949575 1.3950107 0.13090792 100
-0.77205151 1.3777962 0.17866045 14
-0.80150861 1.3967761 0.026004085 100
-0.79986197 1.3960124 0.077980578 100
-0.81826049 1.4045449 0.13195379 100
-0.77363044 1.3838472 0.17914793 12
-0.80666798 1.4046437 0.026143705 100
-0.80501503 1.4038705 0.078399263 100
-0.80171126 1.4023249 0.1305593 100
-0.7643953 1.3848686 0.17817298 5
-0.79370505 1.4040191 0.025934275 100
-0.8083244 1.4109173 0.078713275 100
-0.79600316 1.4051034 0.13021068 100
-0.78748292 1.4010832 0.18158533 3
-0.78776151 1.4072199 0.025864467 100
-0.80416304 1.4150325 0.07860861 100
-0.80805641 1.416887 0.13160518 100
-0.78924602 1.4133844 0.025934275 100
-0.80021638 1.4186547 0.078503937 100
-0.80949563 1.4231124 0.13195379 100
-0.79935974 1.4246318 0.02617861 100
-0.79771572 1.4238343 0.078503937 100
-0.81056291 1.4300671 0.13230242 100
-0.80077392 1.4308605 0.02624842 100
-0.79912823 1.4300554 0.078713275 100
-0.80120784 1.4310728 0.13160518 100
-0.79487258 1.4338014 0.02617861 100
-0.79681605 1.4347607 0.078713275 100
-0.79889208 1.4357854 0.13160518 100
-0.78550309 1.4346936 0.026038991 100
-0.80890852 1.4463427 0.079550654 100
-0.79667681 1.4402548 0.13160518 100
-0.79008812 1.443408 0.02617861 100
-0.79916304 1.4479684 0.079131968 100
-0.81367618 1.4552612 0.1335226 100
-0.79855043 1.4532712 0.026388038 100
-0.80047065 1.454244 0.079341307 100
-0.81317347 1.4606801 0.13369691 100
-0.79971844 1.4597943 0.026457848 100
-0.80163091 1.4607717 0.079550654 100
-0.80720598 1.4636209 0.13334829 100
-0.79031318 1.4606026 0.02631823 100
-0.80110818 1.4661648 0.079655327 100
-0.79781395 1.4644675 0.13265105 100
-0.78434557 1.4634328 0.02624842 99
-0.80221444 1.4727188 0.079864666 100
-0.80952495 1.4765179 0.13404553 100
-0.79266661 1.4734218 0.026457848 99
-0.79456919 1.4744184 0.079550654 100
-0.81246918 1.4837962 0.13456847 100
-0.79007941 1.4783382 0.026457848 79
-0.78314954 1.4746752 0.079027295 100
-0.81160527 1.4897163 0.13474278 98
-0.80921108 1.4942275 0.13474278 31
-0.19486856 1.4399768 0.017487312 10
-0.20574468 1.4547868 0.017801454 3
-0.18721837 1.4424653 0.017417502 16
-0.18463087 1.445291 0.017417502 22
-0.18385518 1.4490817 0.017452406 24
-0.20049876 1.4693618 0.017906168 14
-0.19525862 1.4691105 0.01783636 5
-0.19850487 1.4773312 0.017975979 3
-0.19615513 1.4798093 0.017975979 5
-0.18934083 1.4782596 0.017871264 10
-0.20125592 1.4947196 0.018220313 3
-0.20002872 1.4988618 0.018255217 5
-0.18318778 1.4874893 0.017906168 7
0.12731501 1.2942135 0.13089497 5
0.1564146 1.2618024 0.010995016 12
0.12694317 1.2986282 0.035483778 25
0.15411782 1.2646723 0.055431053 24
0.1357221 1.2876586 0.081408724 13
0.15009251 1.2697021 0.10136953 11
0.14763981 1.2727668 0.12517071 36
0.18349069 1.2279696 0.13542053 7
0.14200479 1.279808 0.17496167 7
0.15929192 1.2615395 0.010960111 90
0.1622535 1.2578136 0.032657638 88
0.14708218 1.2769003 0.056651235 71
0.16338032 1.2563959 0.076290213 29
0.17756417 1.2385516 0.094799288 25
0.16274706 1.2571926 0.1209729 95
0.19713724 1.2139273 0.13092151 24
0.14249554 1.2826705 0.17547931 21
0.16101009 1.2629004 0.010960111 100
0.1800437 1.2387823 0.031296901 100
0.14515114 1.2829956 0.057174169 100
0.16508052 1.2577425 0.076290213 29
0.1706357 1.2507033 0.096989371 37
0.15715256 1.2677883 0.12326261 100
0.18903095 1.2273942 0.13452072 46
0.14548436 1.2825735 0.17496167 49
0.1552451 1.2736306 0.01116954 100
0.17667183 1.2462943 0.031715591 100
0.15914556 1.2686543 0.055431053 100
0.15322945 1.2762022 0.078971334 28
0.1819807 1.2395211 0.094486415 39
0.16849446 1.256727 0.12020966 100
0.19295406 1.2255213 0.13362093 31
0.15314513 1.2763097 0.17237349 42
0.16446063 1.2656039 0.010960111 100
0.17719373 1.2492357 0.03182026 91
0.15975249 1.2716562 0.055605363 98
0.15996289 1.2713857 0.077996381 28
0.18370408 1.2408669 0.094486415 26
0.17751372 1.2488244 0.11791996 100
0.17787439 1.2483608 0.13991955 29
0.15381733 1.2792857 0.17289113 42
0.17955476 1.2494731 0.010576159 67
0.17634276 1.2536304 0.032029606 60
0.16263631 1.2713709 0.055431053 49
0.17497799 1.2553968 0.075315252 45
0.1683594 1.2639633 0.098866582 24
0.17946273 1.2495922 0.13991955 22
0.14842167 1.2897692 0.17599694 41
0.17888102 1.2540014 0.010645968 53
0.16961077 1.2660913 0.032762308 29
0.16932589 1.2664629 0.054733805 75
0.19004646 1.2394397 0.072634131 63
0.18339428 1.2481153 0.095425025 51
0.18683863 1.2436233 0.11601187 19
0.19426659 1.2339361 0.13497064 30
0.15385595 1.2866383 0.17444403 56
0.16837293 1.2711385 0.010995016 38
0.17125794 1.2673501 0.032762308 29
0.1625247 1.2788182 0.055953987 48
0.18559182 1.2485273 0.073852822 46
0.19814637 1.2320411 0.091983467 53
0.19197953 1.2401392 0.11486702 13
0.20761344 1.2196094 0.13047162 48
0.16610506 1.2741166 0.16978529 66
0.17503494 1.2661525 0.010855397 39
0.1779002 1.2623613 0.032343622 30
0.18241125 1.2563922 0.053339314 52
0.18854502 1.248276 0.073609084 62
0.19269612 1.2427833 0.093860678 52
0.19133767 1.2445809 0.11563025 13
0.20691374 1.2239707 0.13137141 47
0.17727348 1.2631905 0.16564418 76
0.18628535 1.2545986 0.010576159 40
0.17953497 1.2635925 0.032343622 30
0.17804626 1.265576 0.054210871 51
0.18060014 1.2621733 0.07555899 60
0.19189432 1.2471254 0.094486415 52
0.20351994 1.2316358 0.11219569 14
0.20959082 1.2235472 0.13092151 32
0.18354961 1.2582436 0.16357364 69
0.18209139 1.263947 0.010750682 79
0.18611878 1.2585399 0.031924933 30
0.1822454 1.2637402 0.053862248 51
0.19782174 1.2428278 0.072390392 63
0.19246551 1.250019 0.094799288 64
0.21811441 1.2155832 0.10799789 14
0.20427102 1.234169 0.13362093 38
0.18072563 1.2657807 0.16564418 68
0.18144003 1.2684441 0.010820492 91
0.20088834 1.242142 0.030773543 64
0.17804834 1.273031 0.054733805 75
0.2006546 1.2424581 0.072146654 63
0.19766662 1.2464991 0.093860678 100
0.20566496 1.235682 0.1125773 13
0.21979669 1.2165701 0.12822211 32
0.18130994 1.26862 0.16616182 68
0.19264844 1.2568313 0.010541254 81
0.20372039 1.2417476 0.03066887 64
0.17862755 1.2759323 0.054908119 75
0.19995663 1.2468752 0.072634131 78
0.20283872 1.2429488 0.092922069 100
0.20148399 1.2447944 0.1144854 13
0.22712317 1.2098652 0.12597258 16
0.18762523 1.2636745 0.16409127 69
0.18963936 1.2645403 0.010680873 80
0.21242648 1.2332685 0.03004084 66
0.19095597 1.2627335 0.053339314 78
0.20162335 1.2480941 0.072634131 78
0.21263504 1.2329823 0.090731993 95
0.20892438 1.2380745 0.1125773 13
0.24013698 1.19524 0.12147357 17
0.19390148 1.2586912 0.16202073 70
0.19597045 1.2592524 0.010541254 95
0.2163063 1.2311492 0.029831495 66
0.1949279 1.2606931 0.05299069 79
0.20553812 1.2460303 0.072146654 79
0.20954007 1.2404997 0.091983467 93
0.21508214 1.2328409 0.11105084 14
0.2289823 1.2136316 0.12642249 16
0.19439149 1.2614344 0.16253836 70
0.20701337 1.2474922 0.010262015 84
0.20743126 1.2469105 0.030773543 96
0.18850639 1.2732569 0.054210871 100
0.19909516 1.2585156 0.073852822 93
0.2111845 1.2416854 0.091983467 100
0.22128126 1.2276291 0.10952436 14
0.24076486 1.2005048 0.12237337 17
0.19610906 1.2626728 0.16253836 70
0.19939467 1.2617121 0.010541254 81
0.21605524 1.2383461 0.030145511 98
0.19489211 1.2680267 0.053513627 100
0.21117476 1.2451909 0.071659178 64
0.20595211 1.2525154 0.093860678 100
0.20236447 1.257547 0.11639348 19
0.23208722 1.2158618 0.12642249 16
0.19446629 1.2686239 0.16409127 69
0.20342371 1.2596685 0.010471444 96
0.21769211 1.239509 0.030145511 98
0.19663271 1.2692633 0.053513627 100
0.2105419 1.2496114 0.072146654 63
0.21562693 1.2424269 0.091670595 100
0.20860526 1.2523476 0.11486702 40
0.22914225 1.2233315 0.12822211 24
0.19620898 1.2698619 0.16409127 69
0.20283598 1.2641478 0.010541254 81
0.22392562 1.2341291 0.029726824 100
0.19837761 1.2704937 0.053513627 100
0.20651236 1.2589148 0.073365346 93
0.22068474 1.2387421 0.090731993 95
0.20464805 1.2615685 0.1167751 79
0.22512534 1.2324214 0.13047162 48
0.20461929 1.2616094 0.16098544 72
0.21142599 1.2555151 0.010331824 98
0.2095536 1.2582 0.03119223 94
0.20240611 1.2684495 0.053165004 100
0.21389845 1.2519695 0.072146654 79
0.2234529 1.2382685 0.090419121 100
0.20412007 1.2659917 0.11753834 100
0.22562677 1.2351511 0.13092151 80
0.21296757 1.2533044 0.15787962 73
0.20629421 1.2665594 0.010541254 95
0.22262692 1.2429631 0.030145511 98
0.20414814 1.2696598 0.053165004 100
0.22462121 1.2400819 0.07019674 66
0.2239652 1.2410297 0.090731993 95
0.22037917 1.2462105 0.1125773 96
0.22392514 1.2410876 0.13227122 78
0.20805976 1.2640086 0.16098544 72
0.21482372 1.2578669 0.010331824 98
0.22767279 1.2391644 0.029831495 99
0.20138153 1.2774327 0.053862248 100
0.22176775 1.2477596 0.071171694 81
0.22337422 1.2454212 0.09135773 100
0.2253786 1.2425036 0.11143246 100
0.22888201 1.2374043 0.13092151 96
0.21197411 1.2620146 0.15995017 72
0.21990854 1.2540774 0.01022711 84
0.22706202 1.2435869 0.03004084 66
0.20203245 1.2802926 0.054036561 77
0.22791091 1.242342 0.07019674 82
0.23171309 1.2367661 0.089480512 100
0.22371176 1.2485001 0.1125773 100
0.23600495 1.2304721 0.128672 97
0.20498666 1.2759603 0.16409127 69
0.21263373 1.2684753 0.010506349 40
0.22759765 1.2463653 0.030145511 65
0.20716599 1.2765541 0.053513627 78
0.21843532 1.2599032 0.072634131 78
0.23777309 1.2313306 0.088229038 100
0.22538403 1.2496362 0.1125773 96
0.23433745 1.236407 0.13002171 96
0.21974841 1.2579629 0.15787962 73
0.2098273 1.2762303 0.010645968 40
0.22806513 1.2490896 0.030250182 32
0.21551514 1.267766 0.052467756 53
0.22670475 1.2511141 0.071171694 81
0.23710111 1.2356427 0.088854775 98
0.23026133 1.2458214 0.11143246 100
0.23153824 1.243921 0.13182132 100
0.22136837 1.2590555 0.15787962 73
0.22491071 1.2574508 0.01022711 42
0.21865776 1.2668267 0.031296901 31
0.22167656 1.2623003 0.051770512 54
0.23169038 1.2472851 0.070440479 65
0.2299602 1.2498794 0.09135773 94
0.23519209 1.2420346 0.1102876 85
0.23319447 1.2450299 0.13182132 94
0.22307748 1.2601997 0.15787962 73
0.22219938 1.2652527 0.010366729 41
0.2181893 1.2713113 0.031506244 31
0.20690191 1.2883646 0.054385185 51
0.23664528 1.2434273 0.069709264 83
0.23817894 1.2411102 0.089480512 97
0.23792532 1.2414935 0.10990598 92
0.23808131 1.2412578 0.13047162 100
0.22159183 1.2661706 0.15943253 73
0.22393012 1.2663939 0.010366729 27
0.21116892 1.285821 0.032343622 30
0.21746436 1.2762371 0.05299069 52
0.24156937 1.2395408 0.068978049 50
0.24416342 1.2355917 0.088229038 98
0.23418367 1.2507844 0.11181407 98
0.24935731 1.2276847 0.12642249 90
0.22120452 1.2705433 0.1604678 72
0.23112503 1.2591531 0.010192205 28
0.22824141 1.2635766 0.030878214 31
0.22793788 1.2640423 0.051596198 54
0.23995805 1.2456033 0.069709264 83
0.24794802 1.2333468 0.087603301 99
0.24015239 1.2453053 0.1102876 100
0.2435073 1.2401588 0.12957181 96
0.22717369 1.2652146 0.15839726 73
0.23609298 1.2552264 0.010087491 43
0.25166348 1.231158 0.028784776 34
0.23182881 1.2618178 0.051247578 55
0.24054185 1.2483494 0.069953002 49
0.24849427 1.2360569 0.087916173 84
0.24501258 1.2414387 0.10914274 85
0.24515033 1.2412258 0.12957181 88
0.23310161 1.2598503 0.1563267 82
0.24427056 1.2462225 0.0098780617 59
0.24032706 1.2523652 0.03004084 66
0.22601292 1.2746618 0.052467756 53
0.24114105 1.2510972 0.07019674 66
0.24585426 1.2437557 0.089167647 84
0.25196323 1.2342401 0.10723466 81
0.24995545 1.2373674 0.12822211 97
0.2275078 1.2723333 0.15995017 72
0.24378589 1.2506599 0.0099478718 58
0.25059772 1.2399675 0.029203463 100
0.24383414 1.2505841 0.049853086 85
0.24282229 1.2521725 0.07019674 82
0.24750981 1.2448145 0.089167647 84
0.24092725 1.255147 0.11181407 100
0.25368279 1.2351248 0.1273223 81
0.22407332 1.2816024 0.16253836 70
0.23798576 1.2635577 0.010192205 85
0.25330728 1.2393215 0.029098792 100
0.23167327 1.2735431 0.052119136 81
0.24556801 1.2515638 0.069953002 49
0.25550234 1.2358491 0.087290429 71
0.24891704 1.2462661 0.10952436 78
0.26259738 1.2246259 0.12417299 83
0.22895798 1.2778382 0.16098544 64
0.23652261 1.2697258 0.010296919 84
0.24857926 1.2505058 0.029726824 100
0.24296167 1.259461 0.05055033 84
0.24936056 1.2492603 0.069465525 49
0.25503084 1.2402211 0.087916173 56
0.24536499 1.2556298 0.11143246 91
0.26418608 1.2256265 0.12417299 83
0.23483896 1.2724097 0.15891489 65
0.24566588 1.2589332 0.010052586 86
0.25448009 1.2447726 0.029308135 100
0.24467209 1.2605298 0.05055033 56
0.24893734 1.2536774 0.069953002 49
0.25876173 1.2378938 0.087290429 85
0.25639915 1.2416894 0.10799789 79
0.26268888 1.2315845 0.12552269 90
0.2427198 1.2636663 0.15580906 67
0.25359541 1.2497326 0.0098431576 88
0.25080714 1.2542455 0.029831495 100
0.24839491 1.2581496 0.050201707 85
0.25262973 1.2512956 0.069465525 49
0.26031494 1.238857 0.087290429 57
0.2559011 1.2460009 0.10876112 87
0.25602674 1.2457975 0.1291219 96
0.24435854 1.2646825 0.15580906 67
0.25109124 1.2575837 0.0099827768 87
0.25980631 1.2433676 0.029098792 100
0.23448095 1.2846787 0.05281638 79
0.26053661 1.2421763 0.068003096 51
0.25988847 1.2432336 0.087916173 70
0.25346008 1.2537197 0.1102876 85
0.26685593 1.2318681 0.12507279 92
0.23901942 1.2772753 0.15943253 73
0.2558282 1.2534473 0.0098780617 88
0.2644923 1.2392087 0.028784776 100
0.24240348 1.2755098 0.051770512 81
0.25797644 1.2499169 0.068978049 50
0.26351303 1.240818 0.087290429 57
0.25608632 1.2530231 0.10990598 78
0.27041507 1.229475 0.12417299 83
0.24371597 1.2733529 0.15787962 65
0.25338352 1.2613189 0.010017681 87
0.25890613 1.2521712 0.029517479 100
0.25343749 1.2612295 0.050201707 100
0.26067939 1.249234 0.068734311 50
0.27332574 1.2282864 0.084787481 59
0.25473017 1.2590883 0.11105084 84
0.27504215 1.2254434 0.12282328 85
0.25648403 1.2561831 -0.0099129668 87
0.25146553 1.2644958 0.15477379 75
0.26015353 1.2537231 0.0098431576 88
0.25948009 1.254847 0.029622151 100
0.25301996 1.2656283 0.05055033 100
0.252067 1.2672188 0.071171694 97
0.2626631 1.249535 0.08854191 70
0.26846278 1.239856 0.10647142 81
0.27054417 1.2363824 0.12552269 90
0.25310698 1.2654831 0.15477379 67
0.26601455 1.247906 0.0097035384 90
0.26227939 1.2541916 0.029517479 100
0.25687411 1.2632879 0.050201707 85
0.26707432 1.2461225 0.068003096 51
0.26845905 1.2437922 0.087290429 57
0.26818094 1.2442602 0.10723466 88
0.27125993 1.2390788 0.12597258 82
0.25097752 1.273211 0.15684435 66
0.25744265 1.2660697 0.010052586 86
0.27301788 1.2396598 0.028575432 100
0.25243884 1.2745543 0.051247578 82
0.26865476 1.247058 0.068003096 51
0.27705604 1.2328126 0.085100345 58
0.26676327 1.2502654 0.10837951 94
0.27974656 1.2282505 0.12282328 85
0.25264785 1.2742 0.15684435 66
0.26136798 1.2637366 0.0099827768 87
0.27381533 1.2424442 0.028680105 100
0.25437841 1.2756932 0.051247578 82
0.2764996 1.2378523 0.066540658 52
0.27385047 1.242384 0.086664692 57
0.27158186 1.2462647 0.10723466 73
0.28347507 1.2259201 0.12192347 85
0.26136798 1.2637366 -0.0099827768 86
0.25653595 1.2720023 0.15580906 67
0.26501381 1.2612317 0.0099129668 87
0.27538353 1.2433574 0.028680105 100
0.26205578 1.2663305 0.050201707 85
0.2700834 1.2524933 0.068490572 50
0.28136608 1.2330452 0.084787481 59
0.26528126 1.2607707 0.1102876 78
0.28107682 1.2335439 0.12372308 83
0.26401883 1.2629467 0.15270324 68
0.27279893 1.2518728 0.0097035384 90
0.27313668 1.2512857 0.029098792 100
0.27182475 1.2535663 0.048807215 88
0.27185372 1.253516 0.068490572 50
0.28503504 1.2306021 0.084161744 59
0.27197671 1.2533021 0.10837951 94
0.28666446 1.2277696 0.12192347 85
0.26968068 1.2572935 0.15063268 70
0.27737254 1.2475795 0.0095988233 76
0.27275386 1.2556703 0.029308135 100
0.26552781 1.2683285 0.050201707 85
0.27542689 1.2509878 0.068003096 51
0.28460526 1.2349093 0.084787481 59
0.28136739 1.2405814 0.10532656 75
0.28528559 1.2337176 0.12327318 76
0.26555172 1.2682867 0.15373851 68
0.27321476 1.2590171 0.0098082526 74
0.28240618 1.2427779 0.02847076 100
0.2634306 1.2763035 0.050898954 83
0.28110287 1.2450806 0.067028143 51
0.28631103 1.2358789 0.084787481 73
0.28019279 1.2466885 0.10647142 81
0.28986669 1.2295969 0.12192347 76
0.26737994 1.2693259 0.15373851 68
0.26994181 1.2686499 0.0099827768 87
0.28593153 1.2401799 0.028261416 100
0.26608679 1.2755139 0.05072464 84
0.28656808 1.2390465 0.066053182 70
0.28882471 1.2350285 0.084474608 59
0.27696815 1.2561393 0.10837951 87
0.29425502 1.2253597 0.12057377 77
0.27092934 1.2668916 0.15270324 68
0.27177134 1.269673 0.0099827768 87
0.28571332 1.2446345 0.02847076 100
0.27860349 1.2574031 0.048807215 88
0.27670032 1.260821 0.068978049 50
0.29533586 1.2273533 0.082910269 75
0.27684158 1.2605673 0.10914274 85
0.29592571 1.226294 0.12057377 77
0.27177134 1.269673 -0.0099827768 86
0.27463204 1.2645354 0.15166797 69
0.28116608 1.2565904 0.0097035384 90
0.2834253 1.2525011 0.028889447 100
0.28407526 1.2513247 0.048109971 89
0.27832943 1.2617246 0.068978049 50
0.28921175 1.2420275 0.085413218 58
0.28511569 1.2494415 0.10647142 81
0.29367068 1.2339569 0.12237337 76
0.27342984 1.2705929 -0.0099827768 86
0.28374726 1.2519183 0.14752686 71
0.29063615 1.2435415 0.0094242999 93
0.29095218 1.2429645 0.028261416 100
0.28009859 1.2627808 0.049155839 87
0.28776225 1.2487886 0.067028143 51
0.29379034 1.2377827 0.084474608 59
0.28970402 1.2452434 0.10532656 82
0.29069224 1.2434391 0.12462288 83
0.27910888 1.2645878 -0.0098431576 87
0.2808753 1.2613628 0.15011504 78
0.29029834 1.2479131 0.0094941091 92
0.29061475 1.2473308 0.02847076 100
0.2788803 1.268925 0.049678773 86
0.29124704 1.2461672 0.066540658 52
0.29157028 1.2455723 0.08572609 58
0.2912814 1.246104 0.10532656 82
0.27789423 1.2707396 0.15270324 68
0.29015505 1.2523828 0.0095639192 91
0.29615474 1.2412448 0.028052073 100
0.27787617 1.2751776 0.050201707 100
0.28922835 1.2541031 0.067515619 51
0.28837287 1.2556912 0.10723466 81
0.28162 1.2682275 -0.0098780617 97
0.27606669 1.2785368 0.15477379 67
0.28892863 1.2585328 0.0096686333 75
0.28237003 1.2708056 0.049678773 86
0.28896391 1.2584667 0.068003096 51
0.29183558 1.2530931 0.10647142 81
0.28515863 1.2655873 -0.0098082526 99
0.2832177 1.2692194 0.15166797 69
0.28978491 1.2612534 0.0097035384 90
0.29758102 1.2465353 0.028261416 100
0.28607261 1.2682618 0.049330149 87
0.2888976 1.2629285 0.068490572 50
0.29360792 1.2540361 0.10647142 73
0.28604081 1.2683218 -0.0098431576 87
0.28685775 1.2667795 0.15063268 78
0.29916266 1.2473698 0.028261416 100
0.29236016 1.2603157 0.048458595 59
0.29792058 1.2497336 0.066540658 52
0.28955507 1.2656541 -0.0097733475 88
0.29030377 1.2642292 0.14959741 78
0.29683068 1.2559196 0.0095639192 91
0.28854963 1.2718136 0.049504463 57
0.29959673 1.2506106 0.066540658 52
0.29560107 1.2582796 0.14752686 71
0.29477108 1.2638624 0.0097035384 90
0.29021516 1.2726779 0.049504463 57
0.2993691 1.2549653 0.067028143 51
0.29942217 1.2548625 0.1060898 73
0.29367387 1.2659854 0.14959741 70
0.29860181 1.2610638 0.10723466 66
0.29393548 1.2701787 -0.0098082526 100
0.29910159 1.2600875 0.14752686 79
0.29992419 1.2670043 0.14907977 78
0.29828504 1.2790828 -0.0099129668 100
