# .PCD v0.7 - Point Cloud Data file format
VERSION 0.7
FIELDS x y z intensity
SIZE 4 4 4 4
TYPE F F F F
COUNT 1 1 1 1
WIDTH 790
HEIGHT 1
VIEWPOINT 0 0 0 1 0 0 0
POINTS 790
DATA ascii
0.054700375 0.004383266 0.015916595 122
0.054818988 0.010393858 0.047521047 40
0.047784328 0.0054496527 0.047939736 25
0.042913854 0.0038763881 0.048149079 100
0.038026392 0.0023278594 0.048358422 77
0.040919602 0.012408435 0.047835063 56
0.043876946 0.022459328 0.047311705 30
0.030015528 0.0077312589 0.048358422 17
0.028489172 0.011196971 0.048253752 8
0.037213624 0.02944237 0.047207031 10
0.023204446 0.014856279 0.048253752 8
0.018274844 0.013431609 0.048463095 8
0.0087124109 0.0055120587 0.049091127 7
-1.1968195 0.43993503 0.031030379 11
-1.1802092 0.44901231 0.030716235 11
-1.1813738 0.455356 0.030716235 13
-1.1745331 0.46250328 0.030576617 12
-1.1657991 0.47054511 0.030402092 12
-1.1588984 0.47758564 0.030262472 13
-1.1402361 0.48715147 0.029913425 18
-1.1431382 0.49243456 0.02994833 16
-1.1361516 0.49931854 0.029808709 18
-1.129184 0.50644624 0.029669091 15
-1.1301389 0.51260251 0.029669091 15
-1.1231163 0.51965249 0.029529471 20
-1.1338305 0.52375537 0.029703995 25
-1.1425984 0.52850473 0.029843615 10
-1.1949272 0.52725047 0.030751141 1
-1.0179632 1.125657 0.084260888 3
-1.0393996 1.1305193 0.1425868 4
-1.044019 1.1371293 0.028552137 7
-1.0050972 1.1281649 0.083632857 7
-1.0304291 1.1339992 0.14188954 9
-1.0174794 1.1364946 0.028098375 11
-1.0155697 1.1360481 0.084260888 54
-1.0136926 1.1356093 0.14049506 50
-0.98512501 1.134303 0.027539898 33
-1.0065742 1.1393931 0.083842203 100
-1.0182874 1.1421728 0.14101799 95
-0.9798916 1.1389893 0.027470088 37
-0.98967713 1.1413494 0.083004825 100
-1.014976 1.1474512 0.14084367 86
-0.99419862 1.147863 0.027749326 36
-0.97873718 1.1440796 0.082481466 100
-1.0040393 1.1502709 0.13997212 87
-1.0005658 1.1554499 0.027888946 23
-0.97347921 1.1487164 0.08227212 78
-0.99876791 1.155003 0.13962349 87
-0.96631581 1.1522791 0.027295563 28
-0.98189837 1.1562078 0.082795486 39
-0.98975486 1.1581885 0.13892625 78
-0.96490449 1.1578343 0.027295563 48
-0.97853762 1.1613245 0.082690813 31
-0.98060125 1.1618528 0.13822901 82
-0.96360999 1.1628556 0.027295563 61
-0.97529835 1.1658894 0.082586139 84
-0.98507887 1.1684279 0.13875194 91
-0.96602744 1.1694196 0.027365373 70
-0.95645493 1.1668977 0.081644088 96
-0.98938817 1.1755743 0.13927488 89
-0.95689625 1.1726443 0.027225753 81
-0.95120114 1.1711226 0.081434749 94
-0.97063929 1.1763165 0.13770607 100
-0.94776112 1.1758101 0.027086135 93
-0.95171958 1.1768826 0.081539422 100
-0.95767337 1.1784958 0.1366602 100
-0.94633549 1.1810358 0.027086135 93
-0.95221609 1.1826512 0.081644088 100
-0.96392316 1.1858671 0.13735744 99
-0.94103879 1.1851836 0.027016325 93
-0.93345004 1.1830705 0.080702044 96
-0.96246237 1.191149 0.13735744 92
-0.94727856 1.1925583 0.027155945 89
-0.93392128 1.1887887 0.080806717 86
-0.96865302 1.1985905 0.1380547 99
-0.9650206 1.2032807 0.027504992 58
-0.93053013 1.1934168 0.080702044 70
-0.95373851 1.2000542 0.13683452 100
-0.95581609 1.2063403 0.027365373 44
-0.93863481 1.2013617 0.081225403 26
-0.94840091 1.2041916 0.13648589 94
-0.92934042 1.2042716 0.026911611 59
-0.93520361 1.2059927 0.081120729 24
-0.95261127 1.211103 0.13700883 84
-0.92398196 1.2082928 0.026841801 74
-0.92410058 1.2083281 0.080597371 26
-0.94724292 1.2152095 0.1366602 91
-0.91869074 1.2120258 0.026771991 75
-0.92072636 1.2126384 0.080492698 42
-0.94194263 1.2190237 0.13631158 99
-0.91713887 1.2171497 0.026771991 75
-0.91535133 1.2166049 0.080283359 94
-0.92893106 1.2207437 0.13526571 100
-0.90983671 1.2204993 0.026667276 81
-0.91950887 1.223484 0.080597371 92
-0.91211826 1.2212033 0.13387123 92
-0.9006204 1.223207 0.026527658 88
-0.92363614 1.2303977 0.08091139 74
-0.91814131 1.228681 0.13456847 59
-0.90665609 1.2306798 0.026667276 83
-0.90678567 1.2307208 0.080074012 64
-0.92033058 1.2350045 0.1349171 45
-0.90123016 1.2345424 0.026597468 81
-0.90326637 1.2351942 0.079969339 78
-0.91869849 1.2401341 0.1349171 43
-0.90340441 1.2408378 0.026667276 92
-0.89783365 1.2390332 0.07976 97
-0.90757138 1.2421877 0.13404553 49
-0.88655049 1.2409251 0.026388038 100
-0.89808542 1.2447064 0.079864666 100
-0.90780753 1.2478935 0.13421984 64
-0.87730581 1.2434185 0.02624842 99
-0.89831525 1.250387 0.079969339 100
-0.91180378 1.2548609 0.13474278 82
-0.87943619 1.2496701 0.02631823 99
-0.88526863 1.2516273 0.079341307 100
-0.90821344 1.2593268 0.13456847 78
-0.88170987 1.2554427 0.026388038 96
-0.88185698 1.2554926 0.079236634 100
-0.90100843 1.2619861 0.13404553 78
-0.88000661 1.2604374 0.026388038 93
-0.88204283 1.2611357 0.079341307 100
-0.89174372 1.2644627 0.13334829 100
-0.86695033 1.261494 0.02617861 88
-0.88409358 1.2674406 0.079550654 100
-0.89000887 1.2694924 0.13334829 91
-0.86522609 1.2664372 0.02617861 79
-0.87292522 1.2691379 0.079027295 80
-0.90141708 1.2791324 0.13456847 49
-0.86725384 1.2727112 0.02624842 81
-0.8561154 1.2687602 0.078189917 40
-0.89963108 1.2841957 0.13456847 35
-0.86172587 1.2763051 0.02617861 96
-0.85436577 1.2736654 0.078189917 19
-0.89595193 1.2885801 0.13439415 33
-0.85994989 1.2812299 0.02617861 93
-0.85823208 1.280607 0.078503937 59
-0.87165612 1.2854744 0.13230242 18
-0.85064656 1.2833955 0.026038991 96
-0.85456592 1.2848322 0.078399263 100
-0.85488266 1.2849483 0.13090792 13
-0.83384496 1.2827237 0.025759751 100
-0.85650593 1.2911197 0.07860861 100
-0.87736422 1.2988479 0.13317397 3
-0.83953756 1.2903562 0.025899371 100
-0.83971506 1.2904227 0.077771232 63
-0.87177783 1.3024297 0.13282534 1
-0.84519368 1.2980347 0.026038991 99
-0.83602196 1.2945635 0.077666558 51
-0.83823282 1.2954003 0.12986206 3
-0.84147424 1.3021872 0.026004085 74
-0.83604795 1.300112 0.077771232 55
-0.84569496 1.3038015 0.13073361 22
-0.83224028 1.3039165 0.025864467 74
-0.8398717 1.3068643 0.078085244 68
-0.83648294 1.3055553 0.13003637 60
-0.82105392 1.3051031 0.025689943 81
-0.84543151 1.3146172 0.078503937 63
-0.84945339 1.3161869 0.13143086 100
-0.82661885 1.3128197 0.025829561 93
-0.82122558 1.310693 0.077247873 65
-0.84012431 1.3181452 0.13073361 97
-0.82100028 1.3161416 0.025759751 100
-0.82118529 1.3162154 0.077352546 95
-0.84560615 1.3259435 0.13143086 97
-0.82650596 1.32391 0.025899371 100
-0.82853466 1.3247263 0.077875905 97
-0.82887024 1.3248615 0.13003637 100
-0.81344908 1.3241937 0.025689943 100
-0.82844025 1.3302871 0.077980578 95
-0.82877082 1.3304214 0.13021068 100
-0.77222949 1.3074394 0.17524812 15
-0.80410677 1.3259119 0.025550323 100
-0.82647604 1.3350954 0.077980578 100
-0.81390435 1.3299341 0.1289905 100
-0.78687268 1.3188367 0.17744176 18
-0.80585247 1.332167 0.025620133 100
-0.80051059 1.3299522 0.076619841 99
-0.80826062 1.3331654 0.12864187 100
-0.77394646 1.318938 0.17597933 18
-0.80757087 1.3384411 0.025689943 100
-0.7930209 1.3323487 0.076305822 100
-0.81731325 1.3425204 0.12968774 100
-0.78117746 1.3273897 0.17719802 20
-0.80557841 1.3431764 0.025689943 100
-0.79288942 1.3378112 0.076410495 99
-0.80429584 1.3426342 0.12864187 100
-0.78288049 1.3335791 0.1776855 22
-0.79815251 1.3453139 0.025585229 74
-0.79834706 1.3453969 0.07682918 47
-0.79689199 1.3447759 0.12811895 80
-0.75179154 1.3255297 0.17378569 16
-0.80715495 1.354764 0.025794657 63
-0.8238439 1.3619549 0.078399263 55
-0.81683463 1.3589349 0.13021068 16
-0.80089027 1.3520648 0.18061037 5
-0.795937 1.3555094 0.025620133 100
-0.80345446 1.3587797 0.077352546 100
-0.80746251 1.3605232 0.12951343 61
-0.75880343 1.3393555 0.17524812 15
-0.80303949 1.3642244 0.025794657 100
-0.80687708 1.3659098 0.077666558 100
-0.81998664 1.3716674 0.13090792 100
-0.78588861 1.3566922 0.17914793 36
-0.80461317 1.3705648 0.025864467 100
-0.80296284 1.3698331 0.077561885 100
-0.81059247 1.3732157 0.13021068 100
-0.77657348 1.3581336 0.17817298 28
-0.79520756 1.3720222 0.025724847 100
-0.80450684 1.3761839 0.077771232 100
-0.80120426 1.3747059 0.12951343 100
-0.78176016 1.366004 0.17914793 24
-0.79309791 1.3767142 0.025724847 100
-0.81694394 1.387486 0.07860861 100
-0.80816382 1.3835199 0.130385 100
-0.77605349 1.3690147 0.17866045 19
-0.79279143 1.3822284 0.025759751 100
-0.81296283 1.3914253 0.078503937 100
-0.80963975 1.3899101 0.13073361 100
-0.76672953 1.3703458 0.1776855 15
-0.79972917 1.3910915 0.025934275 100
-0.79808468 1.3903348 0.077771232 100
-0.81289738 1.397151 0.13125655 100
-0.75741261 1.3716191 0.17671055 15
-0.80118018 1.3974836 0.026004085 100
-0.80859131 1.4009253 0.078503937 100
-0.79985768 1.3968694 0.13021068 100
-0.7823109 1.3887208 0.18036664 10
-0.78811735 1.3971047 0.025794657 100
-0.80999774 1.4073589 0.078713275 100
-0.79766124 1.4015775 0.13021068 100
-0.78194052 1.3942101 0.18061037 5
-0.7895357 1.4034817 0.025864467 100
-0.81137568 1.41381 0.078922622 100
-0.79905075 1.4079814 0.1305593 100
-0.78334266 1.4005529 0.18109785 3
-0.78551155 1.4072925 0.025829561 100
-0.80371243 1.4159777 0.07860861 100
-0.8147971 1.4212673 0.13230242 100
-0.7904858 1.4154204 0.025969181 100
-0.80144936 1.4206991 0.07860861 100
-0.81251544 1.4260273 0.13230242 100
-0.80272883 1.4268498 0.02624842 100
-0.80108076 1.4260495 0.078713275 100
-0.80674785 1.4288013 0.13195379 100
-0.79324466 1.4280487 0.0261088 100
-0.8059569 1.4342763 0.079131968 100
-0.79191548 1.4273976 0.13073361 100
-0.78735405 1.4309615 0.026038991 99
-0.80542034 1.4398904 0.079236634 100
-0.80568784 1.4400227 0.13230242 100
-0.79219705 1.4391947 0.02617861 100
-0.79771143 1.4419441 0.078922622 100
-0.81403917 1.4500848 0.13334829 100
-0.7969988 1.4474698 0.02631823 100
-0.79535776 1.4466444 0.078922622 100
-0.81165689 1.4548421 0.13334829 100
-0.80175918 1.4557865 0.026457848 100
-0.80367452 1.4567583 0.079550654 100
-0.80215079 1.4559853 0.13265105 100
-0.79223639 1.4568571 0.02631823 96
-0.80482501 1.463299 0.07976 100
-0.80152172 1.4616086 0.13282534 100
-0.78272277 1.4578695 0.02617861 100
-0.80594629 1.469856 0.079969339 100
-0.80618125 1.4699774 0.1335226 100
-0.79095608 1.4680576 0.026388038 100
-0.79286557 1.4690516 0.079341307 100
-0.81610042 1.4811468 0.13474278 100
-0.78851122 1.4727341 0.026388038 99
-0.79395396 1.4755917 0.079550654 100
-0.81184572 1.484985 0.13456847 100
-0.79159969 1.479741 0.026492752 71
-0.78819972 1.4779423 0.079341307 85
-0.80430943 1.4864647 0.13404553 94
-0.80180019 1.4911878 0.13404553 21
-0.21044278 1.2804186 0.015986403 30
-0.20037419 1.2774687 0.015811881 13
-0.2068609 1.285715 0.015986403 35
-0.1885702 1.277036 0.015637357 34
-0.19839853 1.2874432 0.015881689 36
-0.20643288 1.2969102 0.016091119 37
-0.18658364 1.2869117 0.015707165 33
-0.18477482 1.2894797 0.015707165 38
-0.19272977 1.2990019 0.015916595 35
-0.17950553 1.293431 0.015672261 19
-0.20369953 1.3145857 0.016230738 15
-0.18239284 1.3030916 0.015811881 13
-0.18375283 1.3080099 0.015881689 22
-0.18991286 1.3165081 0.016056214 25
-0.19923115 1.3274432 0.016300548 11
-0.20368141 1.3348522 0.016440166 14
-0.17776549 1.319407 0.015916595 26
-0.18061852 1.3255752 0.016021309 12
-0.18829858 1.335289 0.016230738 19
-0.19265479 1.3427476 0.016370358 10
-0.1969679 1.3502433 0.016509976 10
-0.19336295 1.351615 0.016475072 24
-0.17562211 1.3418291 0.016126024 33
-0.18928444 1.3567904 0.016475072 28
-0.19347942 1.364362 0.01661469 22
-0.18838876 1.3643167 0.016544882 20
-0.18786311 1.3681498 0.016579786 13
-0.18587554 1.3705933 0.016579786 13
-0.18974137 1.3784958 0.016719405 9
-0.20620096 1.396251 0.017138263 7
-0.20104831 1.3961941 0.017068453 7
-0.18977785 1.3909674 0.016859025 8
-0.19055074 1.3962572 0.016928835 5
-0.20065087 1.4090799 0.017208073 6
-0.18908566 1.4041445 0.016998643 7
-0.19605851 1.414435 0.017208073 6
-0.19670856 1.4197905 0.017277882 10
-0.17950827 1.4090861 0.016928835 8
-0.20126551 1.4327958 0.017487312 3
-0.19009262 1.427316 0.017277882 6
-0.20246357 1.4434893 0.01762693 8
-0.19131243 1.4379494 0.017417502 9
-0.18464994 1.4363735 0.017312787 12
-0.18243611 1.4388061 0.017312787 14
-0.18427718 1.4456756 0.017417502 16
-0.19083452 1.4562604 0.01762693 15
-0.18112326 1.4520221 0.017452406 18
-0.18468845 1.4599184 0.017592026 12
-0.20091575 1.4806025 0.018045789 5
-0.18697214 1.4720544 0.01776655 3
0.13990471 1.2791452 0.12707879 11
0.20161235 1.2025334 0.12822211 8
0.1641641 1.2526368 0.010785587 26
0.15839848 1.259849 0.032866981 29
0.15437689 1.2648795 0.055431053 24
0.14048642 1.2822549 0.10387249 11
0.14790311 1.2729775 0.12517071 48
0.21293473 1.1916304 0.12462288 16
0.14227179 1.2800217 0.17496167 7
0.15581891 1.2664422 0.011064826 100
0.17120266 1.2470675 0.031924933 91
0.14486977 1.2802317 0.056999855 94
0.16610384 1.253489 0.075802729 30
0.17166781 1.2464817 0.096363634 25
0.15689814 1.265083 0.122881 98
0.19252259 1.2202165 0.13272113 31
0.14636788 1.2783451 0.1739264 28
0.15516567 1.2710247 0.011134636 100
0.16924509 1.2531587 0.032238949 100
0.1479758 1.2801484 0.056825545 100
0.15313426 1.2736025 0.078727596 28
0.17341673 1.2478651 0.096363634 37
0.15750018 1.2680625 0.12326261 100
0.18935037 1.2276461 0.13452072 46
0.15182096 1.275269 0.17237349 42
0.16175935 1.2660325 0.010995016 100
0.17331141 1.2512732 0.032029606 100
0.15703776 1.272065 0.055779677 100
0.16581804 1.260847 0.076533951 29
0.18961373 1.2304447 0.092609204 40
0.17367455 1.2508092 0.1186832 100
0.18486443 1.2365124 0.13677025 45
0.14873591 1.2826718 0.17444403 42
0.1696282 1.2594898 0.010820492 100
0.16396409 1.2667787 0.032971654 87
0.16246027 1.268714 0.055256739 99
0.16996986 1.2590501 0.076046467 29
0.174254 1.2535369 0.096989371 25
0.18619701 1.2381678 0.11524864 100
0.18529937 1.2393229 0.13722014 30
0.15052792 1.2840693 0.17444403 42
0.17003176 1.2623315 0.010855397 65
0.17293522 1.2585694 0.032343622 60
0.16898537 1.2636873 0.054559495 50
0.18736061 1.2398782 0.072877869 47
0.16620427 1.2672908 0.099492319 24
0.1904296 1.2359016 0.13587044 15
0.14515296 1.2945673 0.17754987 40
0.17192495 1.2637868 0.010855397 65
0.17845654 1.2552562 0.032029606 30
0.16361642 1.2746382 0.055605363 49
0.17830631 1.2554524 0.075071514 60
0.18973261 1.2405291 0.093860678 52
0.18597585 1.2454355 0.11639348 19
0.19459057 1.2341843 0.13497064 30
0.15656558 1.283847 0.17340876 57
0.17114368 1.2682214 0.010925206 52
0.18732134 1.2469466 0.031401575 31
0.16770393 1.2727449 0.055256739 49
0.19193381 1.240881 0.072634131 63
0.19966471 1.2307143 0.091670595 54
0.17567101 1.2622676 0.12020966 19
0.20085004 1.2291555 0.13317102 46
0.17815048 1.259007 0.16460891 69
0.18493351 1.253581 0.010576159 40
0.15288725 1.2960308 0.03454173 27
0.18386641 1.2549945 0.053165004 52
0.18640342 1.2516339 0.07409656 61
0.19413391 1.2413938 0.093547814 52
0.19631776 1.238501 0.11410378 13
0.20245492 1.2303715 0.13317102 46
0.17753175 1.2633857 0.16564418 68
0.18902227 1.251652 0.010506349 40
0.18347305 1.2590563 0.032029606 30
0.17480767 1.2706184 0.054733805 50
0.19522989 1.2433692 0.072634131 78
0.1981509 1.2394717 0.092922069 66
0.19206825 1.2475878 0.11601187 13
0.20990756 1.2237848 0.13092151 40
0.18157342 1.261591 0.16460891 69
0.1883184 1.2561178 0.010576159 67
0.1923357 1.2507184 0.031401575 31
0.1706109 1.2799176 0.055605363 49
0.20873392 1.2286783 0.07019674 33
0.1974335 1.2438667 0.093547814 52
0.19959709 1.2409587 0.11410378 13
0.21847314 1.2155883 0.12822211 32
0.1809853 1.2659739 0.16564418 68
0.18645331 1.2622029 0.010680873 80
0.20825526 1.2326853 0.030145511 32
0.17120945 1.2828414 0.055779677 73
0.20444018 1.2378507 0.071415432 64
0.20847866 1.232383 0.091044858 81
0.2024096 1.2405998 0.11372216 13
0.2165572 1.2214454 0.12957181 32
0.17927554 1.2719208 0.16719711 67
0.18580875 1.2666942 0.010750682 92
0.20632944 1.2387075 0.030459527 65
0.18242687 1.2713065 0.054385185 76
0.20020634 1.2470584 0.072634131 63
0.20659059 1.2383513 0.091983467 93
0.19941086 1.2481432 0.11524864 13
0.22504893 1.2131773 0.12687239 16
0.19131073 1.2591904 0.16253836 70
0.19225195 1.2614954 0.010611063 94
0.20796761 1.2399043 0.030459527 65
0.18066147 1.2774191 0.054908119 100
0.19720089 1.2546962 0.073609084 100
0.21287748 1.2331588 0.090731993 95
0.21263561 1.2334912 0.11143246 14
0.24150649 1.1938267 0.12102367 17
0.19415739 1.2588776 0.16202073 70
0.19631207 1.2594994 0.010541254 81
0.19674301 1.258903 0.031610917 61
0.1894362 1.2690156 0.053862248 100
0.19075674 1.267188 0.075315252 100
0.20292717 1.2503443 0.093860678 100
0.22000459 1.2267094 0.10952436 14
0.22929209 1.2138555 0.12642249 16
0.1924718 1.2648144 0.16357364 69
0.19336095 1.2672307 0.010680873 80
0.21474868 1.2374117 0.030145511 98
0.18653536 1.2767472 0.054559495 100
0.20984909 1.2442429 0.071659178 64
0.20575732 1.2499477 0.093547814 100
0.20786983 1.2470024 0.11410378 13
0.23084339 1.2149724 0.12642249 8
0.1942012 1.2660594 0.16357364 69
0.19492483 1.2683488 0.010680873 93
0.21042395 1.2465957 0.03066887 96
0.19044143 1.2746413 0.054210871 100
0.21364444 1.2420757 0.071171694 81
0.21414441 1.241374 0.091670595 100
0.20937008 1.2480748 0.11410378 20
0.2367661 1.2096244 0.12462288 16
0.19239837 1.2718947 0.16512655 68
0.19897592 1.26632 0.010611063 81
0.21785602 1.239625 0.030145511 65
0.20140886 1.26288 0.05281638 100
0.21070933 1.2497299 0.072146654 63
0.22263572 1.2328669 0.089793384 100
0.1997045 1.2652898 0.11791996 45
0.23605207 1.2138972 0.12552269 24
0.20530757 1.2573675 0.15995017 72
0.20071054 1.2675422 0.010611063 81
0.21146429 1.2522241 0.030878214 95
0.2008419 1.2673551 0.053165004 100
0.20782363 1.25741 0.073121607 93
0.21971339 1.2404737 0.091044858 95
0.20481965 1.2616889 0.1167751 99
0.22528675 1.2325348 0.13047162 48
0.21145087 1.2522432 0.15787962 81
0.20702243 1.2621958 0.010471444 96
0.21543336 1.2501255 0.03066887 96
0.20713645 1.2620323 0.052467756 100
0.21860635 1.2455721 0.071171694 81
0.222487 1.2400031 0.090731993 95
0.22337443 1.2387296 0.11105084 84
0.2224468 1.2400608 0.13227122 78
0.20650947 1.2629319 0.16098544 72
0.21101767 1.2601007 0.010401634 97
0.22620046 1.2381494 0.029831495 99
0.20205584 1.2730577 0.053513627 100
0.2247853 1.2401955 0.07019674 82
0.21401641 1.2557652 0.093547814 100
0.22389582 1.2414815 0.11143246 91
0.23517498 1.2251741 0.1277722 97
0.20823222 1.264128 0.16098544 72
0.21725762 1.2546866 0.010262015 84
0.2244454 1.2442167 0.030145511 65
0.20155868 1.2775544 0.053862248 100
0.22418156 1.244601 0.070684217 32
0.22689423 1.2406496 0.090419121 100
0.22109896 1.2490911 0.11295892 89
0.23235402 1.2326965 0.12957181 96
0.20995912 1.2653179 0.16098544 72
0.20543933 1.2756755 0.010680873 80
0.22047949 1.2536027 0.03066887 64
0.2100639 1.2688886 0.05281638 100
0.22025123 1.2539377 0.071902916 48
0.2307637 1.2385097 0.089793384 100
0.22277331 1.2502363 0.11295892 82
0.23067909 1.2386339 0.13092151 96
0.21386582 1.263309 0.15995017 72
0.2172887 1.2619672 0.010366729 41
0.22105071 1.2564045 0.030773543 32
0.22073659 1.256869 0.051421888 82
0.22305456 1.2534415 0.071659178 80
0.23793414 1.2314396 0.088229038 100
0.22225198 1.2546282 0.11372216 100
0.22904179 1.2445884 0.13227122 94
0.22208321 1.2548777 0.15684435 74
0.214463 1.2697084 0.010506349 40
0.20707813 1.2807066 0.032238949 30
0.21346757 1.2711909 0.05281638 53
0.22576612 1.252875 0.071415432 96
0.22955537 1.2472317 0.091044858 95
0.236994 1.2361535 0.10914274 92
0.23170367 1.2440323 0.13182132 94
0.21938527 1.2623779 0.15891489 73
0.21842724 1.2675486 0.010436539 41
0.23101467 1.2486602 0.030145511 32
0.21742889 1.2690467 0.052467756 53
0.23295784 1.2457443 0.07019674 66
0.23231864 1.2467035 0.090731993 95
0.23426816 1.2437781 0.11066922 85
0.24308643 1.2305456 0.1277722 97
0.21682072 1.2699592 0.16098544 72
0.22016603 1.268703 0.010436539 41
0.23268744 1.2497708 0.030145511 32
0.21367744 1.2785136 0.053339314 52
0.23024017 1.253471 0.071171694 81
0.23834342 1.241219 0.089480512 97
0.23375782 1.2481524 0.11143246 84
0.2446959 1.2316141 0.1277722 97
0.22069934 1.2678965 0.15995017 72
0.22081155 1.271523 0.010471444 27
0.20367727 1.2976272 0.033076324 29
0.22420081 1.2663593 0.051944822 54
0.22648335 1.2628819 0.072390392 47
0.24866179 1.2290927 0.086977564 100
0.23758343 1.2459707 0.11066922 92
0.24737844 1.2310479 0.1273223 97
0.22349939 1.2674279 0.15943253 73
0.23675308 1.2508867 0.010017681 43
0.22078288 1.2754036 0.031610917 30
0.22158557 1.2741714 0.05264207 53
0.23795712 1.2490382 0.07019674 82
0.2470316 1.2351074 0.087916173 100
0.2413899 1.2437683 0.10990598 85
0.2426078 1.2418987 0.13002171 96
0.22945541 1.2620897 0.15736198 74
0.23409119 1.2586946 0.0101573 42
0.2464031 1.2396487 0.029308135 34
0.22875559 1.2669485 0.051770512 54
0.23100981 1.2634614 0.072146654 95
0.2465122 1.23948 0.08854191 84
0.25050622 1.2333014 0.10723466 88
0.24743071 1.238059 0.128672 97
0.22802877 1.2680728 0.15891489 73
0.2444368 1.2463292 0.0098780617 44
0.25343639 1.2323002 0.028784776 69
0.22618911 1.2747748 0.052467756 53
0.24774009 1.2411799 0.068734311 67
0.24601963 1.2438619 0.089167647 84
0.24788508 1.2409539 0.10876112 87
0.25327525 1.2325513 0.12687239 99
0.22872624 1.2708197 0.15943253 73
0.2396583 1.2575144 0.010087491 71
0.25290686 1.2367022 0.028994121 68
0.22795308 1.275902 0.052467756 80
0.24618864 1.2472558 0.069465525 99
0.2540403 1.2349217 0.087290429 71
0.24742231 1.2453179 0.10952436 78
0.25698462 1.2302965 0.12597258 82
0.23358864 1.2670491 0.15787962 65
0.23388627 1.2704291 0.010331824 84
0.24173796 1.2579994 0.030250182 98
0.23397714 1.2702852 0.051770512 81
0.23831505 1.2634181 0.071659178 80
0.25566497 1.235952 0.087290429 85
0.24279237 1.2563303 0.11181407 100
0.25859314 1.2313166 0.12597258 99
0.2353256 1.2681506 0.15787962 65
0.24519342 1.2562803 0.010017681 87
0.25086853 1.2472265 0.029517479 100
0.23784173 1.2680089 0.051421888 82
0.23582214 1.2712309 0.072634131 94
0.25939152 1.2336291 0.086664692 86
0.26117489 1.2307839 0.10570818 88
0.26020521 1.2323309 0.12597258 99
0.24322245 1.2594247 0.15477379 67
0.25956619 1.2369647 0.0095988233 91
0.24831682 1.2550516 0.029936166 99
0.23642522 1.2741711 0.051944822 81
0.24700937 1.2571537 0.070440479 49
0.25892508 1.2379954 0.087290429 57
0.24826881 1.2551289 0.11105084 98
0.25873318 1.238304 0.1273223 89
0.24085155 1.2670543 0.15684435 66
0.25594702 1.2464843 0.0097733475 89
0.25945199 1.2408048 0.028994121 100
0.23818702 1.2752626 0.051944822 100
0.25600934 1.2463833 0.068734311 50
0.25952306 1.2406898 0.087603301 57
0.26233667 1.2361305 0.10647142 73
0.26446337 1.2326844 0.12552269 90
0.24258849 1.2681305 0.15684435 66
0.25543964 1.2508672 0.0098431576 88
0.25788504 1.246875 0.029308135 100
0.24714929 1.2644011 0.05072464 84
0.25447997 1.2524339 0.069465525 49
0.26418102 1.2365969 0.086664692 57
0.25362894 1.2538232 0.1102876 85
0.27108887 1.22532 0.12327318 85
0.24020565 1.2757366 0.15891489 65
0.2488113 1.2655632 0.010122396 85
0.26473799 1.2393581 0.028784776 100
0.24680737 1.2688605 0.051073264 83
0.25410378 1.2568552 0.069953002 49
0.26786339 1.2342157 0.086038955 58
0.26143754 1.2447885 0.10799789 72
0.27166781 1.2279561 0.12372308 92
0.25504279 1.2553102 -0.0099129668 87
0.24397957 1.2735131 0.15787962 65
0.25777125 1.2546244 0.0098780617 73
0.25915864 1.2523235 0.029517479 100
0.25472358 1.2596786 0.050027397 100
0.25477996 1.259585 0.07019674 33
0.26846549 1.2368894 0.086351827 58
0.25802767 1.2541991 0.10990598 92
0.26723027 1.2389377 0.12642249 82
0.25371963 1.2613435 0.15373851 68
0.26459783 1.2470613 0.0097035384 90
0.25674254 1.2601917 0.029936166 99
0.26052618 1.2538671 0.049330149 100
0.27177766 1.2350599 0.066540658 52
0.27212521 1.2344788 0.08572609 58
0.27483839 1.2299438 0.10418171 75
0.26786843 1.2415943 0.12687239 90
0.25146937 1.269006 0.15580906 67
0.26320294 1.2532134 0.0098082526 74
0.26966867 1.2423196 0.028784776 100
0.25001413 1.2754347 0.051421888 82
0.27137637 1.2394423 0.067028143 51
0.26669073 1.247337 0.087916173 70
0.26241714 1.2545373 0.10952436 85
0.28045717 1.2241424 0.12192347 85
0.24926901 1.2766901 0.15787962 65
0.25880367 1.2645507 0.010017681 87
0.27841276 1.2312477 0.028052073 100
0.25279117 1.2747619 0.051247578 82
0.26395181 1.2558073 0.069221787 83
0.27637693 1.2347052 0.085413218 58
0.26709864 1.250463 0.10837951 65
0.28006655 1.2284391 0.12282328 93
0.25103953 1.2777368 0.15787962 65
0.26154035 1.2638373 0.0099827768 87
0.26793602 1.2528881 0.029308135 100
0.25957951 1.2671943 0.05037602 84
0.27265799 1.2448041 0.067515619 51
0.27800071 1.2356576 0.085413218 73
0.26679704 1.254838 0.10914274 85
0.28363425 1.2260131 0.12192347 85
0.25865999 1.2687685 0.15477379 67
0.2672762 1.2579204 0.0098431576 88
0.26962334 1.2538698 0.029308135 100
0.26631132 1.2595856 0.049504463 100
0.27033606 1.2526398 0.068490572 50
0.28061819 1.234895 0.085100345 58
0.27636555 1.2422342 0.1060898 81
0.28131956 1.2336845 0.12372308 83
0.26330844 1.2647679 0.15322088 76
0.27695325 1.2450347 0.0095639192 91
0.26733282 1.2617719 0.029726824 100
0.27100068 1.2553908 0.048981529 87
0.27202252 1.253613 0.068490572 50
0.27732062 1.2443956 0.086664692 71
0.27508053 1.2482928 0.10723466 88
0.28585315 1.2295511 0.12237337 85
0.26792538 1.260741 0.15166797 69
0.2726703 1.256408 0.0097733475 89
0.28092223 1.2419349 0.02847076 100
0.26677564 1.2667466 0.050027397 85
0.27961171 1.2442335 0.067028143 51
0.27995664 1.2436285 0.086351827 58
0.28064141 1.2424275 0.10570818 81
0.2874589 1.2304703 0.12237337 76
0.26772639 1.265079 0.15270324 68
0.27830744 1.2504106 0.0096337283 90
0.28847042 1.2324402 0.027842728 100
0.26360735 1.2764034 0.050898954 83
0.27931431 1.2486303 0.067515619 51
0.28939092 1.2308125 0.083848871 59
0.27262759 1.2604538 0.10952436 85
0.29002714 1.2296877 0.12192347 93
0.26755425 1.2694246 0.15373851 68
0.27411619 1.2618203 0.0098431576 88
0.28031501 1.2507696 0.028889447 100
0.26927572 1.2704494 0.050201707 85
0.27904436 1.2530348 0.068003096 51
0.28906822 1.2351651 0.084474608 59
0.27530175 1.2597067 0.10914274 85
0.29544684 1.223794 0.12012386 77
0.27313787 1.2635643 -0.0098780617 87
0.2692993 1.2704074 0.15373851 68
0.28369594 1.2488472 0.0095639192 91
0.28013748 1.2552458 0.029098792 100
0.27692202 1.2610276 0.049155839 87
0.27695733 1.260964 0.068978049 50
0.29173499 1.234392 0.084161744 74
0.28377786 1.2486999 0.10647142 81
0.29237607 1.2332393 0.12237337 76
0.27300492 1.2680711 -0.0099478718 96
0.27676889 1.2613029 0.15063268 70
0.28343746 1.2532759 0.0096337283 90
0.27990368 1.2596825 0.029308135 100
0.27863768 1.2619778 0.049155839 87
0.28346655 1.2532231 0.067759357 34
0.29049543 1.2404798 0.085100345 58
0.28639868 1.2479072 0.1060898 81
0.29775944 1.2273102 0.12057377 77
0.27377939 1.2707858 -0.0099827768 86
0.28035161 1.2588705 0.14959741 70
0.28312153 1.2576655 0.0097035384 90
0.29111728 1.243055 0.028261416 100
0.27166224 1.278605 0.05072464 84
0.28602344 1.252363 0.067515619 51
0.29300532 1.2396049 0.084787481 59
0.28704244 1.2505009 0.10647142 81
0.29834178 1.2298536 0.12102367 86
0.28011939 1.2631513 0.15063268 78
0.2857793 1.2568367 0.0096686333 90
0.29086471 1.2474666 0.02847076 100
0.27724081 1.2725691 0.050027397 85
0.28960261 1.2497921 0.067028143 51
0.29841518 1.2335545 0.083536007 60
0.29059425 1.2479649 0.10570818 73
0.27910224 1.2691393 -0.0099129668 87
0.27631342 1.2742778 0.15373851 68
0.27989846 1.2718427 0.0099478718 73
0.29631925 1.2413334 0.028052073 100
0.28088531 1.2700093 0.049678773 86
0.28751576 1.2576901 0.068003096 51
0.29816243 1.2379087 0.084161744 59
0.28947288 1.2540537 0.10685304 81
0.28463709 1.2630385 -0.0097733475 88
0.2835688 1.2650235 0.15063268 70
0.2873013 1.2621977 0.0097384425 75
0.29044265 1.256312 0.028889447 100
0.28732297 1.2621571 0.048807215 88
0.28735033 1.2621058 0.068490572 50
0.29979727 1.238785 0.084161744 59
0.29486179 1.2480322 0.10532656 67
0.28541815 1.265726 -0.0098082526 77
0.29075614 1.2557247 0.14752686 79
0.28849098 1.2643218 0.029308135 100
0.28819689 1.2648777 0.048981529 87
0.29658192 1.2490277 0.066540658 52
0.29505104 1.2519215 0.086351827 58
0.29569751 1.2506995 0.10570818 81
0.28443158 1.2719951 -0.0099129668 97
0.29253814 1.2566715 0.14752686 71
0.29826149 1.2498982 0.009459204 77
0.28900039 1.2675529 0.049155839 58
0.28618547 1.2729191 -0.0099129668 87
0.28705925 1.2712533 0.15166797 69
0.29800817 1.2542782 0.0095290141 76
0.29923713 1.2519164 0.02847076 100
0.28789276 1.2737179 0.049678773 86
0.29526687 1.2595464 0.067759357 85
0.29625672 1.2576441 0.10685304 73
0.29062381 1.2684695 -0.0098082526 99
0.28693944 1.2755501 0.15270324 68
0.2950297 1.2639959 0.0097035384 90
0.29870266 1.2568797 0.047935657 59
0.2959812 1.2621524 0.068003096 51
0.29411253 1.2657728 -0.0097384425 100
0.2939336 1.2661195 0.14959741 70
0.29950929 1.2595018 0.067515619 51
0.28946802 1.2791241 -0.0099827768 100
0.29906517 1.2644057 0.14856213 71
0.29650956 1.2782011 -0.0099129668 100
0.2990737 1.2730603 0.15063268 78
