# .PCD v0.7 - Point Cloud Data file format
VERSION 0.7
FIELDS x y z intensity
SIZE 4 4 4 4
TYPE F F F F
COUNT 1 1 1 1
WIDTH 791
HEIGHT 1
VIEWPOINT 0 0 0 1 0 0 0
POINTS 791
DATA ascii
0.063559473 0.020087898 0.015602452 100
0.049520314 0.0043121576 0.047939736 33
0.042668402 0.00029891729 0.016091119 8
0.048782289 0.0095747113 0.047730394 100
0.039501131 0.0013464093 0.048358422 94
0.045574367 0.021312892 0.047311705 40
0.035111666 0.011510849 0.04804441 27
0.030212164 0.010015666 0.048253752 17
0.034492731 0.021612346 0.047625721 9
0.015941441 0.00044459105 0.049091127 7
0.010448337 0.004285872 0.049091127 7
-1.1924555 0.44925639 0.030925665 13
-1.1797347 0.45752478 0.030681331 19
-1.1828375 0.46351838 0.030716235 18
-1.1838443 0.46926636 0.030716235 14
-1.1829634 0.47595775 0.030681331 15
-1.1582849 0.48596981 0.030227568 14
-1.1633105 0.49189043 0.030297378 16
-1.1701481 0.49663195 0.030402092 20
-1.1848767 0.50018656 0.030646427 10
-1.0642164 1.138519 0.028901186 2
-1.0057819 1.1251787 0.083632857 5
-1.0447218 1.1340685 0.14310972 6
-1.0357127 1.1375484 0.028412517 8
-0.99097592 1.127179 0.082900152 15
-1.0299191 1.1362056 0.14188954 24
-1.0032766 1.1357481 0.02785404 22
-0.99944013 1.1348448 0.083423518 82
-1.0208738 1.1398916 0.1411923 78
-0.98837656 1.1379119 0.027609708 37
-1.0059271 1.1421093 0.083842203 100
-1.0098844 1.1430557 0.14032075 95
-0.98125333 1.1418639 0.027504992 43
-0.98326939 1.1423535 0.082690813 100
-1.0027645 1.1470878 0.13979781 86
-0.98382908 1.148164 0.027574802 28
-0.97420353 1.1457909 0.08227212 100
-1.0014386 1.1525058 0.13979781 86
-0.97086042 1.1506031 0.027365373 26
-0.97675747 1.1520789 0.082481466 66
-1.0020268 1.1584027 0.13997212 78
-0.98115164 1.1588629 0.027574802 32
-0.97928613 1.1583892 0.082690813 33
-1.0006616 1.1638179 0.13997212 71
-0.97010273 1.1617103 0.027400278 56
-0.98178917 1.1647217 0.082900152 45
-0.97419578 1.162765 0.13770607 89
-0.95324868 1.1629682 0.027121039 67
-0.97267276 1.1680458 0.082481466 94
-0.98052591 1.1700987 0.13840333 91
-0.9557336 1.169238 0.027190849 74
-0.96548241 1.1718228 0.082167454 98
-0.98104578 1.1759495 0.13857763 94
-0.95433086 1.1744915 0.027190849 83
-0.95249802 1.1739987 0.081539422 98
-0.97961944 1.1812913 0.13857763 100
-0.95483893 1.1802661 0.027225753 89
-0.9472248 1.1781904 0.081330076 100
-0.96856326 1.1840079 0.13770607 99
-0.94576007 1.1831247 0.027086135 93
-0.94778806 1.1836848 0.081434749 100
-0.95950013 1.1869196 0.13700883 92
-0.93660635 1.1861869 0.026946515 96
-0.95210487 1.1905258 0.081748761 86
-0.95611697 1.1916491 0.13683452 98
-0.94668704 1.1946485 0.027155945 81
-0.93909937 1.1924957 0.081120729 78
-0.95271927 1.19636 0.1366602 100
-0.96825773 1.2065008 0.027574802 51
-0.92225939 1.1932762 0.080283359 52
-0.95888108 1.203805 0.13735744 99
-0.94952196 1.2065029 0.027260659 42
-0.91701239 1.1970396 0.080074012 20
-0.95552129 1.2082493 0.13718314 87
-0.92689067 1.205513 0.026876707 66
-0.92125994 1.2038525 0.080388032 26
-0.93678302 1.2084301 0.13561434 84
-0.91585761 1.2075484 0.026702182 75
-0.92364079 1.2098715 0.080597371 28
-0.94295758 1.2156374 0.13631158 91
-0.91623551 1.2132411 0.026737086 78
-0.91636091 1.213279 0.080283359 64
-0.94520718 1.2219992 0.1366602 99
-0.91850358 1.2195271 0.026806897 88
-0.90525573 1.2154719 0.07976 100
-0.92837936 1.2225503 0.13526571 99
-0.92074555 1.2258344 0.026876707 88
-0.90941507 1.2223227 0.080074012 86
-0.91917831 1.2253487 0.13456847 84
-0.90753788 1.2278824 0.026667276 83
-0.90766746 1.2279232 0.080074012 70
-0.90601426 1.2274038 0.1335226 54
-0.89449662 1.2293315 0.026457848 81
-0.91367358 1.2354295 0.080492698 70
-0.91200358 1.2348984 0.13421984 43
-0.90049869 1.2368214 0.026597468 83
-0.89683014 1.2356408 0.079655327 89
-0.90657872 1.2387782 0.13387123 43
-0.89133662 1.2391531 0.026457848 93
-0.89147979 1.2391998 0.07944598 100
-0.91448885 1.2466892 0.13474278 54
-0.89357179 1.2451806 0.026527658 99
-0.89560729 1.2458507 0.07976 100
-0.90533012 1.2490511 0.13404553 78
-0.8768093 1.2449129 0.02624842 100
-0.89402133 1.2506418 0.07976 100
-0.90562397 1.2545038 0.13421984 85
-0.87118536 1.2491102 0.02617861 96
-0.89784294 1.2580971 0.080074012 100
-0.89808887 1.2581799 0.13369691 75
-0.86958879 1.2538204 0.02617861 93
-0.88109261 1.2577412 0.079236634 100
-0.90023381 1.2642648 0.13404553 87
-0.87158686 1.2603244 0.02624842 96
-0.87363106 1.2610294 0.078922622 100
-0.89841253 1.2695768 0.13404553 100
-0.88883537 1.2716187 0.026597468 83
-0.8701089 1.2650901 0.078817949 100
-0.89862925 1.2750331 0.13421984 61
-0.86435741 1.2689064 0.02617861 77
-0.86263424 1.2682986 0.078503937 68
-0.8911317 1.2783508 0.13369691 38
-0.85327727 1.2702365 0.026004085 83
-0.86473674 1.2743216 0.078713275 25
-0.88756126 1.2824581 0.1335226 39
-0.86460227 1.2801249 0.02624842 96
-0.85536343 1.2767934 0.07829459 29
-0.87817639 1.28502 0.13282534 28
-0.85162967 1.2807057 0.026038991 93
-0.84804541 1.2793996 0.077980578 68
-0.88769263 1.2938457 0.13387123 15
-0.8536815 1.2867324 0.0261088 100
-0.85197133 1.2861028 0.07829459 100
-0.86912006 1.2924157 0.13230242 13
-0.84446317 1.2885962 0.025969181 100
-0.8465082 1.2893567 0.078085244 99
-0.8729822 1.2992023 0.13282534 1
-0.8349753 1.2911298 0.025829561 100
-0.8445037 1.2947152 0.078085244 44
-0.87093967 1.3046622 0.13282534 1
-0.83697802 1.2971406 0.025899371 92
-0.83528823 1.2964983 0.077666558 51
-0.85798436 1.3051243 0.13177948 7
-0.83699626 1.3026958 0.025934275 72
-0.82971293 1.2998985 0.077457212 63
-0.86540753 1.3136075 0.13265105 43
-0.83895093 1.3087385 0.026004085 75
-0.83539659 1.3073599 0.077875905 72
-0.84316403 1.3103727 0.13073361 90
-0.8220734 1.3079859 0.025724847 90
-0.82783943 1.3102467 0.077561885 61
-0.84488386 1.3169298 0.13108224 100
-0.8184225 1.3117968 0.025689943 100
-0.82975429 1.3162835 0.077771232 80
-0.83194774 1.3171518 0.13003637 99
-0.81652302 1.3165702 0.025689943 100
-0.8204214 1.3181294 0.077352546 97
-0.83742899 1.324932 0.13073361 99
-0.81841141 1.3225963 0.025759751 100
-0.81304032 1.3204273 0.077038527 96
-0.83373374 1.3287838 0.1305593 100
-0.81267387 1.3260969 0.025689943 100
-0.81471211 1.3269286 0.077247873 100
-0.82983166 1.3330989 0.130385 100
-0.80456072 1.322786 0.17963541 22
-0.80712444 1.3290892 0.025620133 100
-0.805471 1.328408 0.07682918 100
-0.81137711 1.3308412 0.12881619 100
-0.78803664 1.3212256 0.1776855 15
-0.79389173 1.3296833 0.025410704 100
-0.80331689 1.3336086 0.07682918 100
-0.81657058 1.3391283 0.12951343 100
-0.77125007 1.3202538 0.17573559 16
-0.80308896 1.3387862 0.025620133 100
-0.79591686 1.3357713 0.076515168 100
-0.81283909 1.3428848 0.12933913 100
-0.77673799 1.3277092 0.17671055 22
-0.80477673 1.3450686 0.025689943 100
-0.78474134 1.3365641 0.075991809 81
-0.81449908 1.3491955 0.12968774 100
-0.7638194 1.3276832 0.17524812 18
-0.81389111 1.3542826 0.025899371 61
-0.79570645 1.3464925 0.076724514 42
-0.81073946 1.3529326 0.12951343 45
-0.77838522 1.3390722 0.17744176 9
-0.81541091 1.3608661 0.025969181 86
-0.81741327 1.3617325 0.078085244 78
-0.8159079 1.3610811 0.13021068 35
-0.792687 1.3510325 0.17963541 10
-0.78778774 1.354187 0.025480513 100
-0.81910425 1.3678625 0.07829459 100
-0.80481082 1.3616207 0.12933913 93
-0.79075283 1.3554819 0.17963541 26
-0.7947858 1.3631213 0.025655037 100
-0.80776674 1.3688464 0.077771232 100
-0.82633168 1.3770347 0.13160518 100
-0.77588397 1.3547845 0.17792924 33
-0.80377334 1.3724556 0.025864467 100
-0.80212396 1.3717216 0.077561885 100
-0.81703001 1.378355 0.13090792 100
-0.77212387 1.358371 0.1776855 35
-0.79983801 1.376358 0.025829561 100
-0.80730289 1.3797114 0.077980578 100
-0.81126326 1.3814905 0.1305593 100
-0.78454822 1.3694898 0.17963541 29
-0.79599839 1.3800056 0.025794657 100
-0.80709273 1.3850334 0.078085244 100
-0.79471022 1.3794217 0.12916481 100
-0.77351254 1.3698149 0.17841671 17
-0.78658694 1.381373 0.025655037 100
-0.821284 1.397244 0.079027295 100
-0.80344576 1.3890845 0.13021068 100
-0.78765756 1.3818628 0.18061037 19
-0.79544657 1.3908288 0.025864467 100
-0.80831534 1.3967669 0.078399263 100
-0.8086217 1.3969083 0.13090792 100
-0.76399177 1.3763146 0.1776855 13
-0.79656821 1.3979151 0.025934275 100
-0.79854792 1.3988383 0.077980578 100
-0.80970567 1.4040412 0.13125655 100
-0.76874369 1.3849403 0.17866045 10
-0.79809767 1.4040792 0.026004085 100
-0.80368453 1.406707 0.078399263 100
-0.80398983 1.4068506 0.13090792 100
-0.76490086 1.3884652 0.17841671 8
-0.79598755 1.4085462 0.026004085 100
-0.80878359 1.4146168 0.078817949 100
-0.80187052 1.4113371 0.13090792 100
-0.78845114 1.4104168 0.025899371 100
-0.81204349 1.4217052 0.079131968 100
-0.80333084 1.4175365 0.13125655 100
-0.79329759 1.418797 0.026038991 100
-0.80065328 1.4223497 0.07860861 100
-0.81171292 1.4276915 0.13230242 100
-0.79832977 1.4267507 0.02617861 100
-0.80027825 1.4276997 0.078713275 100
-0.81310683 1.4339483 0.13265105 100
-0.80309182 1.4352171 0.02631823 100
-0.79606622 1.4317632 0.07860861 100
-0.80351216 1.4354239 0.13195379 100
-0.79371196 1.4361477 0.02617861 100
-0.79923254 1.4388845 0.078922622 100
-0.8012982 1.4399085 0.13195379 100
-0.78422445 1.4372563 0.026038991 100
-0.80939382 1.4498436 0.079655327 100
-0.80251545 1.4464037 0.13230242 100
-0.79271764 1.4470793 0.02624842 100
-0.8035652 1.4525492 0.07944598 100
-0.80560201 1.4535763 0.13282534 100
-0.79735583 1.4556236 0.026388038 100
-0.79749435 1.4556942 0.079236634 100
-0.811966 1.4630582 0.13369691 100
-0.80219167 1.4637392 0.026527658 100
-0.80232126 1.4638057 0.079655327 100
-0.8114329 1.4684803 0.13387123 100
-0.79229385 1.4654818 0.026388038 100
-0.7995252 1.4692286 0.079655327 100
-0.80154198 1.4702735 0.13317397 100
-0.78289026 1.4662259 0.02624842 100
-0.8060506 1.4783235 0.080178685 100
-0.80274433 1.4765965 0.1335226 100
-0.78411299 1.4725055 0.02631823 93
-0.79309088 1.4772329 0.079550654 100
-0.80744535 1.4847916 0.13421984 100
-0.79590625 1.4844263 0.026597468 37
-0.78368169 1.4779372 0.079131968 38
-0.8050676 1.4892892 0.13421984 66
-0.21594173 1.2150731 0.015462833 15
-0.20410776 1.2115482 0.015253403 16
-0.18870884 1.2061753 0.014974165 24
-0.19928825 1.2157797 0.015218498 33
-0.19936413 1.2195517 0.015253403 16
-0.20813745 1.2282406 0.015462833 26
-0.21328312 1.2351789 0.015602452 70
-0.19639939 1.2282906 0.015288308 27
-0.19309461 1.2298409 0.015253403 45
-0.20853513 1.2428815 0.015602452 45
-0.20510375 1.2445945 0.015567547 35
-0.19161719 1.2397373 0.015323213 22
-0.18660182 1.2401713 0.015253403 22
-0.19168341 1.2470667 0.015393022 16
-0.20343792 1.2583541 0.015672261 14
-0.20172864 1.2609811 0.015672261 14
-0.19332862 1.2592047 0.015532642 25
-0.18828332 1.2595861 0.015462833 15
-0.18989521 1.2643821 0.015532642 15
-0.18484741 1.2647283 0.015462833 15
-0.19966489 1.2785159 0.015811881 18
-0.17807376 1.2675898 0.015393022 16
-0.18968624 1.2789427 0.015672261 24
-0.18790513 1.2815216 0.015672261 19
-0.19576997 1.2912245 0.015881689 13
-0.20702636 1.3030345 0.016160928 12
-0.18087673 1.2880642 0.015637357 34
-0.17906392 1.2906125 0.015637357 34
-0.19022864 1.3024962 0.015916595 35
-0.20779604 1.3191578 0.016335452 33
-0.20102918 1.3182625 0.016230738 31
-0.19266683 1.3161418 0.016091119 33
-0.18924463 1.3174117 0.016056214 38
-0.19374084 1.3247713 0.016195834 36
-0.20139205 1.3345714 0.016405262 29
-0.20101124 1.3383975 0.016440166 28
-0.19107121 1.3349538 0.016265642 27
-0.1890946 1.3375373 0.016265642 27
-0.18710905 1.3401136 0.016265642 23
-0.19457948 1.3500569 0.016475072 24
-0.19894552 1.3574593 0.01661469 22
-0.19375211 1.3575909 0.016544882 23
-0.18230796 1.3527128 0.016335452 22
-0.18807149 1.3615183 0.016509976 16
-0.19222629 1.3691151 0.016649596 9
-0.19013047 1.3717022 0.016649596 9
-0.20349789 1.3869505 0.016998643 7
-0.18282622 1.3743103 0.016579786 9
-0.18071234 1.3768646 0.016579786 9
-0.19392824 1.3922412 0.016928835 11
-0.19328105 1.3961225 0.016963739 18
-0.191091 1.3987132 0.016963739 23
-0.19345289 1.4051932 0.017068453 22
-0.19881016 1.4143058 0.017242977 17
-0.18608916 1.4076204 0.016998643 7
-0.20495552 1.4285896 0.017487312 5
-0.18913132 1.4193428 0.017173167 4
-0.18985552 1.4245689 0.017242977 2
-0.20249665 1.4404501 0.017592026 1
0.16323823 1.2518952 0.010785587 13
0.1387068 1.2824607 0.03443706 27
0.14594501 1.273442 0.056476921 24
0.16175953 1.2537376 0.098240845 12
0.13833627 1.2829224 0.12784202 17
0.18041205 1.230497 0.13632034 7
0.11590034 1.310877 0.18583207 6
0.16483837 1.253175 0.010785587 39
0.14912316 1.2728894 0.033704355 56
0.15879405 1.2607576 0.054908119 50
0.14909044 1.2729304 0.078971334 14
0.15844053 1.261201 0.099492319 12
0.14982954 1.2720032 0.12478908 72
0.18558532 1.2271485 0.13497064 15
0.15141362 1.2700161 0.1713382 14
0.15908125 1.2639247 0.010995016 100
0.17319202 1.2460958 0.03182026 91
0.14196232 1.2855544 0.057522789 100
0.16439989 1.2572045 0.076290213 29
0.17732039 1.2408795 0.095112152 25
0.1601131 1.2626209 0.12211776 100
0.18960205 1.2253617 0.13407083 46
0.1507636 1.274434 0.17237349 42
0.16319293 1.2620741 0.010925206 100
0.17600718 1.2457725 0.031715591 100
0.15106195 1.2775064 0.056476921 100
0.16847119 1.2553594 0.075802729 30
0.16911772 1.2545369 0.097615108 37
0.16296211 1.2623677 0.12173614 100
0.19352269 1.2234902 0.13317102 46
0.14766306 1.2818303 0.17444403 42
0.15884888 1.2713716 0.011099731 100
0.17652494 1.2487148 0.03182026 91
0.16272905 1.2663982 0.055082429 100
0.16781059 1.2598847 0.076290213 29
0.19033742 1.2310102 0.092609204 26
0.16235408 1.2668788 0.12249938 100
0.19159114 1.2294031 0.13452072 31
0.15073001 1.2817783 0.1739264 42
0.16786245 1.2631818 0.010890301 91
0.18545431 1.2404779 0.03119223 63
0.16315699 1.2692546 0.055256739 74
0.16092622 1.2721336 0.077996381 28
0.1725097 1.257184 0.097615108 24
0.17843369 1.2495387 0.11791996 39
0.18237424 1.244453 0.13856985 29
0.15242931 1.2830995 0.1739264 35
0.18064359 1.2503123 0.010576159 67
0.17622355 1.2560602 0.032134276 30
0.16984761 1.2643515 0.054559495 50
0.18818125 1.2405103 0.072877869 47
0.18874794 1.2397735 0.093860678 52
0.17899698 1.2524536 0.11830158 13
0.18055186 1.2504317 0.13991955 22
0.14842439 1.2922103 0.1765146 55
0.17738345 1.2578914 0.010715778 53
0.18511096 1.2477733 0.031506244 31
0.16665182 1.2719431 0.055256739 49
0.18853864 1.2432852 0.073121607 62
0.19150671 1.239399 0.093547814 52
0.202048 1.2255965 0.11143246 21
0.20580319 1.2206795 0.13092151 32
0.16422898 1.2751155 0.17030293 58
0.17434257 1.2656286 0.010855397 39
0.17238739 1.2682081 0.032762308 29
0.16729063 1.2749326 0.055431053 49
0.1878776 1.2477709 0.073609084 62
0.19919562 1.2328383 0.091983467 53
0.19186127 1.242515 0.11524864 13
0.20745733 1.2219381 0.13092151 40
0.17075062 1.2703676 0.16823238 67
0.1759882 1.2668715 0.010855397 52
0.15482324 1.2949889 0.03443706 27
0.1797511 1.2618725 0.053862248 51
0.19185159 1.2457972 0.073121607 62
0.19835639 1.2371556 0.092609204 53
0.18634599 1.2531112 0.11753834 13
0.21130183 1.2199576 0.13002171 32
0.17822102 1.2639053 0.16564418 68
0.18499231 1.2586267 0.010645968 40
0.18543702 1.2580314 0.031924933 30
0.18751827 1.2552452 0.05299069 52
0.1840938 1.2598295 0.075071514 75
0.20125318 1.2368586 0.092296332 53
0.1998685 1.2387123 0.11372216 13
0.20828828 1.227441 0.13182132 47
0.18697062 1.2559783 0.16253836 70
0.18304038 1.2646525 0.010750682 79
0.18943733 1.2560295 0.031715591 30
0.18438107 1.2628452 0.053687938 52
0.19518197 1.2482859 0.073121607 62
0.20280325 1.2380126 0.092296332 66
0.19908533 1.2430242 0.1144854 13
0.20748496 1.2317017 0.13272113 31
0.18398017 1.2633857 0.16460891 69
0.18942711 1.2594268 0.010611063 81
0.20289755 1.2411425 0.03066887 64
0.18010861 1.2720753 0.054559495 76
0.20383456 1.2398707 0.071659178 64
0.20201379 1.2423421 0.092922069 92
0.21113616 1.2299597 0.11105084 14
0.21826485 1.2202836 0.1291219 24
0.1833266 1.2677073 0.16564418 68
0.19459432 1.2557781 0.010506349 81
0.212717 1.2310076 0.029936166 66
0.18295202 1.2716911 0.054385185 76
0.199534 1.2490265 0.072877869 94
0.20708123 1.2387106 0.091983467 93
0.20338947 1.2437568 0.11410378 13
0.2312665 1.2056537 0.12462288 16
0.18726045 1.2658023 0.16460891 69
0.18597886 1.2717683 0.010820492 91
0.20518768 1.2452909 0.030773543 96
0.19081876 1.265097 0.053513627 78
0.2049568 1.245609 0.072146654 95
0.21128547 1.2368857 0.09135773 94
0.21682265 1.2292532 0.1102876 14
0.23759526 1.2006202 0.12282328 17
0.1926569 1.2625633 0.163056 70
0.20050257 1.2551253 0.010436539 82
0.2091006 1.2431906 0.030564198 97
0.19479176 1.2630522 0.053165004 100
0.20189446 1.2531933 0.073121607 78
0.20937157 1.2428145 0.092296332 100
0.2126095 1.2383201 0.11219569 14
0.24813777 1.1890045 0.11922406 17
0.19880921 1.2574759 0.16098544 72
0.20219809 1.2563424 0.010436539 82
0.20959264 1.2460023 0.03066887 96
0.19651499 1.2642891 0.053165004 100
0.20358324 1.2544055 0.073121607 62
0.20987499 1.2456075 0.092609204 100
0.21196225 1.2426889 0.11295892 20
0.24166718 1.2011515 0.12237337 17
0.19826543 1.2618415 0.16202073 70
0.19686589 1.2672756 0.010645968 80
0.21926785 1.2357296 0.029936166 66
0.19584888 1.2687076 0.053513627 100
0.2109383 1.2474591 0.071902916 96
0.21602899 1.2402904 0.09135773 94
0.21012145 1.2486093 0.11410378 20
0.23407212 1.2148825 0.12597258 16
0.19877985 1.2645802 0.16253836 70
0.20329818 1.2620279 0.010506349 95
0.21867618 1.240204 0.030145511 98
0.19308862 1.2765169 0.054210871 100
0.21726424 1.2422078 0.070927955 97
0.22230622 1.2350523 0.090106249 100
0.19830781 1.2691101 0.1186832 58
0.23458233 1.2176304 0.12642249 33
0.19503117 1.2737602 0.16512655 68
0.20034608 1.2697287 0.010645968 93
0.21680224 1.2462094 0.030459527 97
0.19477028 1.2776978 0.054210871 100
0.21541786 1.248188 0.071659178 80
0.22385019 1.2361364 0.090106249 96
0.20334139 1.2654479 0.11753834 99
0.22936529 1.2282542 0.1291219 64
0.20777875 1.2591059 0.15995017 72
0.20314613 1.2692432 0.010611063 100
0.21496451 1.2522326 0.030773543 64
0.20555019 1.265783 0.05281638 100
0.21927071 1.2460344 0.071171694 81
0.22314358 1.2404599 0.090731993 100
0.2206687 1.2440221 0.11219569 84
0.22866291 1.2325157 0.13002171 88
0.20609581 1.2649976 0.16150309 70
0.21502322 1.2555765 0.010296919 98
0.21543133 1.2549849 0.030878214 95
0.20719615 1.2669225 0.05281638 100
0.22085112 1.2471285 0.071171694 65
0.22246206 1.2447933 0.09135773 100
0.21778315 1.2515757 0.11372216 100
0.22466552 1.2415992 0.13227122 94
0.20993316 1.262955 0.1604678 72
0.21689019 1.2568591 0.010296919 98
0.2251907 1.2447274 0.030145511 98
0.20910671 1.2682351 0.05281638 100
0.22268558 1.2483888 0.071171694 81
0.22540301 1.2444171 0.091044858 100
0.22628635 1.243126 0.11143246 91
0.2319808 1.2348033 0.13002171 96
0.20746496 1.2706347 0.16253836 70
0.21738279 1.2596152 0.010331824 70
0.24472412 1.2193685 0.02847076 35
0.20516279 1.2776031 0.053687938 78
0.22427377 1.2494715 0.071171694 81
0.22808805 1.2438569 0.090731993 100
0.22675386 1.2458209 0.11181407 91
0.23899925 1.2277956 0.1277722 97
0.21238375 1.2669737 0.16098544 72
0.21247372 1.2707803 0.010541254 40
0.23074535 1.2436711 0.029936166 33
0.20813912 1.2772114 0.053513627 52
0.22492385 1.2523084 0.071415432 64
0.23865935 1.2319292 0.088229038 100
0.22520819 1.2518864 0.11295892 100
0.23196599 1.24186 0.13137141 94
0.21852639 1.2618001 0.15891489 73
0.22089487 1.2619828 0.010331824 42
0.22573778 1.2547431 0.030564198 32
0.2209895 1.2618413 0.051770512 54
0.22109076 1.2616899 0.072634131 78
0.24137199 1.2313713 0.087916173 84
0.23235017 1.2448581 0.11105084 91
0.23253152 1.2445871 0.13182132 94
0.2245416 1.2565312 0.15684435 74
0.22482631 1.2597966 0.010262015 42
0.20754749 1.285823 0.032448292 29
0.21389243 1.2762659 0.053165004 52
0.23159274 1.2496046 0.070684217 98
0.23752147 1.2406744 0.089480512 100
0.23943904 1.2377861 0.10914274 85
0.23311222 1.2473159 0.13227122 94
0.22837892 1.2544454 0.15580906 75
0.2287384 1.2575891 0.010192205 42
0.21374562 1.280344 0.032029606 30
0.22004643 1.2707812 0.052467756 53
0.23982188 1.2407672 0.069221787 83
0.23590583 1.2467108 0.090419121 96
0.23459285 1.2487036 0.11143246 84
0.24657422 1.2305191 0.1273223 97
0.21838018 1.2733101 0.16150309 70
0.2259784 1.2653456 0.010331824 28
0.23074651 1.2580564 0.030564198 32
0.22170889 1.2718725 0.052467756 53
0.24355805 1.2384708 0.068734311 84
0.2439765 1.2378311 0.08854191 84
0.23403257 1.2530328 0.11219569 91
0.24703625 1.2331536 0.1277722 97
0.22110856 1.2727903 0.16098544 72
0.22117653 1.2765372 0.010541254 40
0.23680207 1.2524669 0.030145511 32
0.22888696 1.2646596 0.051596198 54
0.23114389 1.261183 0.071902916 96
0.246687 1.2372396 0.088229038 100
0.24213448 1.2442526 0.10990598 85
0.24971586 1.2325737 0.1273223 97
0.22391751 1.2723149 0.1604678 72
0.24035794 1.250839 0.0099827768 43
0.24722326 1.2401779 0.029308135 34
0.23393828 1.260808 0.051073264 55
0.24369389 1.2456586 0.069465525 66
0.24947104 1.2366873 0.087916173 84
0.24812651 1.2387753 0.10837951 87
0.24613792 1.2418633 0.12957181 96
0.23412824 1.2605129 0.1563267 74
0.23880789 1.256972 0.010087491 71
0.23488513 1.2631105 0.03066887 64
0.23887199 1.2568717 0.05055033 84
0.23680472 1.2601067 0.071415432 96
0.25110191 1.2377336 0.087916173 70
0.24447885 1.2480977 0.1102876 100
0.24883625 1.241279 0.1291219 88
0.24000341 1.2551012 0.15425615 75
0.23828208 1.2613784 0.0101573 71
0.24401131 1.2523471 0.029936166 66
0.23515183 1.2663128 0.051421888 82
0.25119218 1.2410275 0.068490572 50
0.24630561 1.2487304 0.089793384 69
0.24606594 1.2491083 0.1102876 78
0.25562021 1.2340473 0.12687239 99
0.23540464 1.2659142 0.15736198 74
0.23680332 1.2675405 0.010262015 84
0.24782488 1.2500317 0.029726824 100
0.23794758 1.2657226 0.051247578 55
0.24437806 1.2555072 0.070440479 49
0.25639725 1.2364137 0.087290429 57
0.24460256 1.2551507 0.11143246 91
0.26139444 1.2284753 0.12507279 100
0.2289044 1.2800885 0.16150309 70
0.24489826 1.2584546 0.010052586 86
0.25479278 1.2426138 0.029203463 100
0.24495745 1.2583598 0.05037602 84
0.24397138 1.2599385 0.070927955 48
0.25802714 1.2374358 0.087290429 57
0.25357842 1.244558 0.10876112 79
0.26299658 1.2294799 0.12507279 100
0.24194473 1.263183 0.15580906 67
0.24976549 1.2544174 0.0099478718 73
0.25433996 1.2470367 0.029412808 100
0.24666399 1.2594216 0.05037602 84
0.2550953 1.245818 0.068734311 84
0.2575793 1.2418102 0.087916173 84
0.25420251 1.2472585 0.10914274 85
0.26152238 1.2354481 0.12642249 90
0.24366814 1.2642553 0.15580906 67
0.2482301 1.26052 0.010052586 86
0.24859777 1.2599224 0.030145511 100
0.24515671 1.2655157 0.050898954 83
0.25459448 1.2501749 0.069221787 33
0.25914547 1.2427773 0.087916173 56
0.25578678 1.2482368 0.10914274 85
0.2600041 1.2413816 0.1277722 97
0.24530885 1.2652684 0.15580906 67
0.25411162 1.254743 0.0099129668 87
0.25551268 1.2524476 0.029622151 100
0.24273601 1.2733792 0.051596198 82
0.26144364 1.2427312 0.068003096 51
0.26079753 1.2437897 0.087916173 70
0.25745791 1.2492609 0.10914274 92
0.26977378 1.2290843 0.12417299 83
0.24401996 1.2712758 0.15736198 74
0.25373369 1.2591938 0.0099827768 87
0.26340637 1.2432224 0.028994121 100
0.24862346 1.2676318 0.050898954 83
0.26103887 1.2471316 0.068490572 50
0.26859292 1.2346582 0.086038955 58
0.2621837 1.2452412 0.10799789 72
0.27642551 1.2217252 0.12192347 85
0.23676485 1.2872127 0.16202073 63
0.25338325 1.2636532 0.010052586 86
0.26094529 1.2510679 0.029412808 100
0.24420542 1.2789277 0.051944822 81
0.26066133 1.2515404 0.068978049 50
0.2722514 1.2322513 0.085413218 73
0.25878859 1.2546571 0.10990598 78
0.27800399 1.2226774 0.12192347 85
0.24852192 1.2717438 0.15684435 66
0.26329967 1.2509443 0.0097733475 89
0.26058093 1.255505 0.029622151 100
0.26230678 1.2526098 0.049155839 87
0.26132753 1.2542526 0.069221787 50
0.27487811 1.2315212 0.085100345 58
0.26450321 1.2489253 0.10837951 79
0.27260092 1.2353413 0.12507279 83
0.25818872 1.259518 0.15270324 68
0.26701608 1.2484996 0.0097035384 90
0.26431081 1.253074 0.029412808 100
0.24776581 1.2810501 0.051944822 81
0.26807213 1.246714 0.068003096 51
0.27447972 1.2358794 0.08572609 58
0.26717609 1.248229 0.10799789 79
0.27025899 1.2430162 0.12687239 90
0.25399888 1.2705106 0.15580906 67
0.26464045 1.2563837 0.0098431576 88
0.26599878 1.2540684 0.029412808 100
0.25560084 1.2717912 0.050898954 83
0.2657198 1.2545439 0.068978049 50
0.27110958 1.2453573 0.087290429 57
0.26884717 1.2492135 0.10799789 79
0.27980086 1.2305433 0.12327318 85
0.2557478 1.2715408 0.15580906 67
0.26231644 1.2642899 0.0099827768 87
0.27572751 1.2412473 0.028575432 100
0.25835642 1.2710938 0.05072464 84
0.27240559 1.2469549 0.067759357 34
0.27873251 1.2360842 0.085413218 73
0.26755896 1.2552823 0.10914274 92
0.2814101 1.2314837 0.12327318 85
0.25555676 1.2759042 0.15684435 66
0.26004419 1.2722182 0.010122396 99
0.27038375 1.2543095 0.029308135 100
0.26508832 1.2634815 0.049853086 100
0.26613182 1.2616742 0.069709264 49
0.27641034 1.2438712 0.086664692 71
0.2751444 1.2460638 0.10685304 66
0.28789446 1.2239801 0.12102367 86
0.2650519 1.2635446 0.15270324 68
0.27372459 1.2524041 0.0097035384 90
0.26909825 1.2604821 0.029622151 100
0.26681262 1.264473 0.049853086 85
0.26883635 1.2609394 0.069465525 49
0.2849381 1.2328242 0.084474608 59
0.27290511 1.253835 0.10837951 94
0.28560686 1.2316564 0.12282328 76
0.27061674 1.2578306 0.15063268 70
0.27639788 1.2516268 0.0096686333 75
0.27475819 1.2545133 0.029203463 100
0.26755628 1.2671909 0.050027397 85
0.27251279 1.2584658 0.068978049 50
0.28850672 1.2303114 0.083848871 59
0.28526276 1.2360218 0.10418171 82
0.28529483 1.2359654 0.12372308 83
0.26850441 1.2655219 0.15270324 68
0.27808076 1.252579 0.0096686333 75
0.27841204 1.251991 0.028994121 100
0.26831543 1.2699096 0.050201707 85
0.28006649 1.2490548 0.067515619 51
0.28623623 1.2381053 0.085100345 58
0.28014472 1.248916 0.10685304 88
0.29457611 1.2233044 0.12012386 86
0.2683391 1.2698675 0.15373851 68
0.27488908 1.262253 0.0098431576 88
0.28399369 1.2459623 0.028575432 100
0.27103418 1.2691506 0.050027397 85
0.28464568 1.2447957 0.066784397 34
0.2859444 1.2424718 0.08572609 58
0.27798691 1.2567101 0.10837951 79
0.29520929 1.2258943 0.12057377 86
0.27008569 1.2708477 0.15373851 68
0.27370062 1.2684573 0.0099478718 87
0.28856161 1.2416474 0.028261416 100
0.27374417 1.2683787 0.049853086 57
0.27860552 1.2596086 0.068734311 50
0.29142597 1.2364799 0.084474608 59
0.27968749 1.2576567 0.10837951 79
0.29774696 1.2250766 0.12012386 77
0.27558199 1.2650632 0.15166797 77
0.28700256 1.2483906 0.0095290141 76
0.2863608 1.249558 0.028680105 100
0.28604376 1.2501346 0.047935657 89
0.28318518 1.2553344 0.068003096 51
0.29305586 1.2373797 0.084474608 59
0.28612041 1.2499952 0.10647142 81
0.29933703 1.2259543 0.12012386 86
0.27544224 1.2694187 -0.0099478718 86
0.28103447 1.2592465 0.14959741 70
0.28484511 1.2563285 0.0096686333 90
0.28421208 1.2574894 0.029098792 100
0.28009143 1.2650473 0.049330149 87
0.29248294 1.2423197 0.066053182 52
0.29090652 1.2452111 0.08572609 58
0.2924965 1.2422948 0.10456333 82
0.29719874 1.2336704 0.12192347 85
0.2827439 1.2601824 0.14959741 70
0.28161567 1.2659526 0.0098431576 88
0.29525048 1.2407565 0.028052073 100
0.28164798 1.2658929 0.049330149 87
0.28829944 1.2536016 0.067515619 51
0.29052043 1.2494973 0.086351827 58
0.29211277 1.2465549 0.10532656 75
0.29865664 1.2344623 0.12192347 85
0.27780882 1.2729874 -0.0099827768 96
0.27968803 1.2695147 0.1521856 77
0.29374981 1.2475042 0.009459204 77
0.29311758 1.2486824 0.02847076 100
0.28055426 1.2720933 0.049853086 85
0.28623444 1.2615087 0.068490572 50
0.29499796 1.2451785 0.085413218 58
0.2909928 1.2526418 0.10647142 73
0.27956623 1.2739344 -0.0099827768 96
0.28051981 1.2721574 0.15270324 76
0.28978166 1.2589877 0.0096686333 60
0.29666662 1.2460499 0.028261416 100
0.28698847 1.2642365 0.048981529 87
0.28795174 1.2624264 0.068490572 50
0.28991222 1.2587423 0.10761628 72
0.28790283 1.2625182 -0.0097384425 88
0.28862712 1.2611573 0.14907977 78
0.29895613 1.2457445 0.0093893949 77
0.29832989 1.2469313 0.028261416 100
0.29336447 1.256341 0.048109971 59
0.29523081 1.2528042 0.067028143 51
0.29620105 1.2509656 0.10570818 81
0.28402415 1.2740415 -0.0099478718 86
0.29124475 1.2603581 0.14856213 71
0.29707891 1.2537935 0.0095290141 76
0.2946111 1.2585139 0.028889447 100
0.29338762 1.2608542 0.048458595 59
0.29708654 1.2537788 0.067028143 51
0.29133946 1.2647719 0.14959741 70
0.29508817 1.2617748 0.0096686333 75
0.291435 1.2688224 0.049155839 58
0.29306811 1.2656718 0.14959741 78
0.29754904 1.2607949 0.0096337283 100
0.28662404 1.2820345 0.05037602 56
0.29576063 1.2642719 0.068246834 68
0.29206097 1.2714643 -0.0098431576 100
0.29462656 1.2664766 0.14959741 70
0.29744685 1.265236 0.0097035384 90
0.29290453 1.2741432 -0.0098780617 100
0.29109529 1.2776909 0.15270324 76
0.29214129 1.2802522 0.07019674 82
0.29900464 1.275184 0.15115032 77
