# .PCD v0.7 - Point Cloud Data file format
VERSION 0.7
FIELDS x y z intensity
SIZE 4 4 4 4
TYPE F F F F
COUNT 1 1 1 1
WIDTH 787
HEIGHT 1
VIEWPOINT 0 0 0 1 0 0 0
POINTS 787
DATA ascii
0.057040095 0.0041956306 0.047730394 66
0.059206516 0.013377249 0.015742071 39
0.055456847 0.0075966716 0.047625721 49
0.042772293 0.011166751 0.047835063 75
0.035530508 0.0064054132 0.048253752 35
0.035111666 0.011510849 0.04804441 18
0.026963115 0.0049787164 0.048567768 16
0.023162901 0.0051642656 0.048672438 8
0.025051177 0.013571322 0.048253752 8
0.022413969 0.015408337 0.048253752 8
-0.67171544 0.57103097 0.021606078 1
-0.68030173 0.57403862 0.021745699 14
-0.66714698 0.58048791 0.021501364 42
-0.65396243 0.58684295 0.021257032 40
-0.66646236 0.58928359 0.02146646 39
-0.6650452 0.59339374 0.021431556 47
-0.66367441 0.59791684 0.02139665 60
-0.65838331 0.60339761 0.021291936 73
-0.64904803 0.60894769 0.021117412 78
-0.67141384 0.61028206 0.021501364 60
-0.68188244 0.61328471 0.021675888 27
-0.71219069 0.61390424 0.022199461 19
-0.75243622 0.61354101 0.022897556 13
-0.78475434 0.6143831 0.023456035 15
-0.83297831 0.61365193 0.024293751 15
-0.8672542 0.61428475 0.024887132 6
-1.0292737 1.1299617 0.08488892 5
-1.0448489 1.1335118 0.14310972 6
-1.028048 1.1351914 0.028272899 8
-0.99304634 1.1270914 0.083004825 11
-1.0086949 1.1307127 0.13997212 17
-0.99561781 1.1333753 0.027714422 16
-1.0170658 1.1384177 0.084365562 75
-1.0151844 1.1379755 0.14066938 65
-0.98662394 1.1366423 0.027574802 36
-0.99446541 1.1385133 0.083214171 100
-1.0197694 1.1445509 0.1411923 100
-0.99310857 1.1438875 0.027714422 42
-0.97181755 1.1387287 0.082062781 100
-1.0126433 1.1486206 0.14066938 91
-0.99186021 1.1490026 0.027714422 30
-0.98610264 1.1475873 0.082900152 100
-1.0017054 1.1514225 0.13979781 84
-0.97493976 1.1507757 0.027435184 25
-0.98083287 1.1522472 0.082690813 61
-0.98289961 1.1527631 0.13822901 89
-0.97173017 1.1553395 0.027400278 34
-0.9911738 1.1602631 0.083318844 35
-0.99707323 1.161757 0.13962349 71
-0.96442956 1.1596847 0.027295563 53
-0.97032136 1.1612008 0.08227212 42
-0.98976904 1.1662049 0.13910057 89
-0.96506387 1.1652093 0.027330469 63
-0.96128541 1.1642237 0.081853434 90
-0.98073512 1.1692972 0.13840333 92
-0.96360523 1.1707597 0.027330469 72
-0.96369177 1.1707826 0.082062781 100
-0.97733539 1.1743951 0.13822901 98
-0.95647377 1.1742221 0.027225753 81
-0.95656735 1.1742473 0.081748761 96
-0.96636432 1.1768759 0.13735744 100
-0.94340533 1.176589 0.027016325 88
-0.94736713 1.1776676 0.081330076 100
-0.96870774 1.1834778 0.13770607 99
-0.9459042 1.1826025 0.027086135 93
-0.93830556 1.1805067 0.08091139 100
-0.96348685 1.1874522 0.13735744 92
-0.94445485 1.1878216 0.027086135 93
-0.93494016 1.1851616 0.080806717 92
-0.96777695 1.1943421 0.13788038 94
-0.95845348 1.1971337 0.027365373 88
-0.93355519 1.1900835 0.080806717 80
-0.95102531 1.1950302 0.13648589 100
-0.95687789 1.2026596 0.027365373 56
-0.93200558 1.1955181 0.080806717 54
-0.94562727 1.1994293 0.13613728 100
-0.94583386 1.2048631 0.027190849 41
-0.93250424 1.2009878 0.08091139 24
-0.95567411 1.2077237 0.13718314 87
-0.92504853 1.20469 0.026841801 64
-0.92516726 1.2047249 0.080597371 26
-0.94832629 1.2115498 0.1366602 84
-0.9274314 1.2107222 0.026911611 75
-0.91606182 1.2073306 0.080178685 28
-0.9430353 1.2153769 0.13631158 91
-0.93154866 1.2178702 0.027016325 78
-0.92591995 1.2161686 0.080806717 60
-0.92995006 1.217387 0.13526571 100
-0.91475755 1.2181009 0.026737086 81
-0.91679269 1.2187235 0.080388032 100
-0.92083734 1.2199608 0.13456847 100
-0.90172344 1.2196611 0.026527658 89
-0.92094094 1.2256136 0.080702044 88
-0.91735452 1.2245028 0.13439415 84
-0.90404075 1.2256687 0.026597468 83
-0.90036339 1.2245163 0.079655327 76
-0.92534536 1.2323452 0.13526571 56
-0.90617281 1.2322049 0.026667276 85
-0.89868778 1.2298291 0.079655327 74
-0.91794389 1.2359412 0.13474278 42
-0.90844005 1.2382538 0.026737086 83
-0.89715487 1.2346306 0.079655327 89
-0.91259664 1.2395884 0.13439415 45
-0.89918941 1.2408701 0.026597468 96
-0.90122277 1.2415309 0.079969339 100
-0.90715879 1.2434596 0.13404553 54
-0.88622135 1.2419279 0.026388038 100
-0.89965111 1.2463408 0.079969339 100
-0.9055807 1.2482891 0.13404553 73
-0.88439876 1.247439 0.026388038 100
-0.88644117 1.2481189 0.079341307 100
-0.91129524 1.2563915 0.13474278 82
-0.88280755 1.252193 0.026388038 93
-0.88674074 1.2535167 0.07944598 100
-0.89834434 1.2574217 0.13369691 77
-0.8849017 1.2584803 0.026457848 96
-0.88126284 1.2572416 0.079236634 100
-0.89852017 1.2631165 0.13387123 85
-0.87192875 1.2593317 0.02624842 99
-0.87963921 1.2619852 0.079236634 100
-0.88745719 1.2646756 0.13299966 100
-0.86626273 1.2634721 0.02617861 83
-0.87773949 1.267471 0.079236634 100
-0.89683586 1.2741246 0.13404553 73
-0.87216312 1.2708228 0.02631823 77
-0.86289495 1.2675588 0.078503937 74
-0.89891475 1.2802434 0.13439415 42
-0.86852247 1.2751131 0.026283324 83
-0.84797889 1.2677978 0.077771232 27
-0.89712483 1.2852979 0.13439415 35
-0.86495799 1.2791373 0.02624842 100
-0.86511344 1.2791932 0.078817949 23
-0.88603443 1.2867211 0.1335226 30
-0.8480497 1.2788484 0.025969181 96
-0.86323768 1.2843764 0.078817949 72
-0.87476975 1.2885737 0.13265105 18
-0.84260088 1.2821014 0.025899371 100
-0.85777503 1.2876813 0.07860861 100
-0.85808259 1.2877945 0.13125655 13
-0.84267932 1.2876561 0.025934275 100
-0.83723825 1.2856337 0.077561885 100
-0.88054472 1.3017306 0.1335226 1
-0.84282702 1.2929745 0.025969181 100
-0.83178109 1.2888269 0.077352546 48
-0.87131268 1.3036702 0.13282534 1
-0.84090096 1.2980759 0.025969181 92
-0.8373391 1.2967236 0.077771232 53
-0.83768183 1.2968538 0.12986206 7
-0.83354074 1.3005375 0.025864467 74
-0.84490901 1.3048968 0.07829459 57
-0.8582508 1.3100128 0.13195379 37
-0.82785791 1.3041592 0.025794657 74
-0.84852582 1.3121717 0.07860861 72
-0.84325832 1.3101295 0.13073361 90
-0.82607907 1.3087254 0.025794657 88
-0.82254273 1.307341 0.077247873 63
-0.85444647 1.3198311 0.13195379 97
-0.82595462 1.3145013 0.025829561 99
-0.82056397 1.3123679 0.077247873 80
-0.85056919 1.3242419 0.13177948 99
-0.82785541 1.320545 0.025899371 100
-0.82432193 1.3191332 0.077561885 95
-0.82652158 1.3200121 0.12968774 99
-0.81470293 1.3210988 0.025689943 100
-0.8204481 1.3234187 0.077457212 97
-0.82634395 1.3257997 0.12986206 100
-0.80731279 1.3233564 0.025585229 100
-0.82415372 1.3302222 0.077771232 100
-0.83002812 1.3326172 0.130385 100
-0.80107719 1.3208144 0.17914793 22
-0.80177194 1.3263323 0.025515418 100
-0.79643101 1.3241342 0.076305822 100
-0.82078499 1.3341572 0.12968774 100
-0.76987189 1.3132036 0.17524812 16
-0.80536133 1.3333499 0.025620133 100
-0.79817718 1.330364 0.076515168 100
-0.82248694 1.3404682 0.13003637 100
-0.77346689 1.3200932 0.17597933 16
-0.80707437 1.3396256 0.025689943 100
-0.79621285 1.3350666 0.076515168 100
-0.8131389 1.3421712 0.12933913 100
-0.79167289 1.3331609 0.17866045 22
-0.79034859 1.3381162 0.025410704 99
-0.79423231 1.3397622 0.076515168 83
-0.80379564 1.3438158 0.12864187 100
-0.77324969 1.3308687 0.17646681 20
-0.79203409 1.3443649 0.025480513 41
-0.81059688 1.3523095 0.077561885 40
-0.80544776 1.3501058 0.1289905 56
-0.76033396 1.3307979 0.17500438 13
-0.79736358 1.3522189 0.025620133 15
-0.81038934 1.3578475 0.077666558 68
-0.83084863 1.3666884 0.13160518 30
-0.78934652 1.3487546 0.17914793 12
-0.73667139 1.3313308 0.024503179 15
-0.79734534 1.3578007 0.077038527 100
-0.82327896 1.3691146 0.13108224 90
-0.7818597 1.3510449 0.17841671 22
-0.64503103 1.2963243 0.022792842 4
-0.80259663 1.3657204 0.077457212 100
-0.82117921 1.3739047 0.13108224 100
-0.79254025 1.3612913 0.18012288 33
-0.28511268 1.1411177 0.015951499 13
-0.80973941 1.3742579 0.077980578 100
-0.79914135 1.3695482 0.12916481 100
-0.77787381 1.3600971 0.17841671 33
-0.24367237 1.1260247 0.015183593 28
-0.81673342 1.3830879 0.078503937 100
-0.80794758 1.3791466 0.13021068 100
-0.75588256 1.3557914 0.17573559 22
-0.23683536 1.1265932 0.015078879 47
-0.79981607 1.3817357 0.077666558 100
-0.809228 1.3860011 0.1305593 100
-0.77532059 1.3706343 0.17866045 21
-0.23558581 1.1293375 0.015078879 47
-0.79948872 1.3872745 0.077771232 100
-0.81794053 1.3957145 0.13160518 100
-0.76238471 1.3703026 0.17719802 15
-0.23614228 1.1329157 0.015113784 51
-0.81183273 1.3986783 0.07860861 100
-0.80851227 1.3971455 0.13090792 100
-0.77469975 1.3815362 0.17914793 12
-0.21855694 1.1280575 0.014799641 44
-0.81144029 1.4042716 0.078713275 100
-0.7990908 1.3985181 0.13021068 100
-0.77435642 1.3869948 0.17939167 10
-0.35310221 1.1943902 0.017417502 16
-0.80932957 1.4087827 0.078713275 100
-0.80240875 1.4055306 0.13073361 100
-0.77409977 1.3922274 0.17963541 5
-0.48351496 1.2600859 0.019965554 24
-0.80167753 1.4109566 0.078399263 100
-0.80558282 1.4128084 0.13125655 100
-0.77012604 1.3959951 0.17939167 1
-0.37905645 1.214332 0.017975979 19
-0.79954463 1.4154353 0.078399263 100
-0.80703861 1.4190195 0.13160518 100
-0.24963087 1.1558682 0.015497737 46
-0.80447847 1.4236143 0.078817949 100
-0.8083536 1.4254842 0.13195379 100
-0.21405351 1.1421587 0.014834546 50
-0.80925614 1.4320726 0.079236634 100
-0.805942 1.4304585 0.13195379 100
-0.22531277 1.150997 0.015078879 47
-0.81410688 1.4403368 0.079655327 100
-0.80005199 1.4334302 0.13160518 100
-0.22762859 1.1553417 0.015148689 46
-0.80471808 1.4413095 0.079236634 100
-0.8085559 1.4432113 0.13265105 100
-0.22091275 1.1553714 0.015043974 47
-0.80058008 1.4451412 0.079131968 100
-0.80441564 1.4470586 0.13247673 100
-0.23027605 1.1634623 0.015253403 45
-0.79999846 1.4507508 0.079236634 100
-0.80382293 1.4526793 0.13265105 100
-0.22533309 1.1643703 0.015183593 50
-0.80473477 1.4590809 0.079655327 100
-0.79610413 1.4546909 0.1321281 100
-0.21156555 1.1605518 0.01493926 49
-0.80955106 1.4672152 0.080074012 100
-0.81510049 1.4700611 0.13421984 100
-0.20842147 1.162289 0.014904355 30
-0.80001301 1.4682863 0.079655327 100
-0.81264848 1.4748219 0.13421984 100
-0.21584249 1.1696923 0.015078879 41
-0.79390341 1.4713814 0.07944598 100
-0.81358868 1.4816552 0.13456847 100
-0.22682941 1.1788828 0.015323213 49
-0.79144686 1.4760683 0.07944598 100
-0.80933315 1.4854827 0.13439415 100
-0.21663702 1.1767703 0.015148689 46
-0.79615527 1.4842572 0.079864666 44
-0.78759319 1.4797144 0.13247673 88
-0.20463347 1.1737834 0.01493926 42
-0.21025884 1.1802135 0.015078879 47
-0.21233541 1.1847761 0.015148689 46
-0.21263611 1.1883965 0.015183593 45
-0.21292078 1.192024 0.015218498 45
-0.19747156 1.1868922 0.01493926 42
-0.19949782 1.1914589 0.01500907 42
-0.21208954 1.2016964 0.015288308 38
-0.21752387 1.2083206 0.015427927 31
-0.20732415 1.2060084 0.015253403 45
-0.19715005 1.2036306 0.015078879 47
-0.1956318 1.2062359 0.015078879 47
-0.20960671 1.2179785 0.015393022 43
-0.21147615 1.2226709 0.015462833 42
-0.19788408 1.2181314 0.015218498 45
-0.19810581 1.2216425 0.015253403 45
-0.2050662 1.2294486 0.015427927 36
-0.21530849 1.2395329 0.015672261 43
-0.21536565 1.2432532 0.015707165 42
-0.20522338 1.240634 0.015532642 46
-0.18164158 1.2293139 0.015078879 47
-0.20369232 1.2468328 0.015567547 50
-0.21053863 1.2547032 0.015742071 42
-0.20875698 1.2574874 0.015742071 42
-0.18531191 1.2458767 0.015288308 44
-0.19696122 1.2573094 0.015567547 50
-0.18698531 1.254293 0.015393022 48
-0.20187664 1.2680337 0.015742071 47
-0.20188445 1.2716341 0.015776975 41
-0.18012822 1.2609959 0.015358117 37
-0.18511868 1.2678999 0.015497737 30
-0.20310748 1.2841203 0.015916595 26
-0.20139843 1.2866149 0.015916595 26
-0.19794673 1.288096 0.015881689 22
-0.2077049 1.2985823 0.016126024 37
-0.18286055 1.2852541 0.015637357 34
-0.18441194 1.2899926 0.015707165 33
-0.18901229 1.2973269 0.015846785 31
-0.19700307 1.306776 0.016056214 25
-0.18855214 1.3048191 0.015916595 26
-0.19162172 1.3107998 0.016021309 8
-0.20101076 1.3216722 0.016265642 27
-0.19917721 1.3241596 0.016265642 38
-0.19233114 1.3233166 0.016160928 12
-0.19839084 1.3319077 0.016335452 30
-0.17409587 1.3176293 0.015846785 9
-0.15468216 1.306824 0.015462833 10
-0.1845333 1.3336272 0.016160928 8
-0.20787668 1.3557537 0.016719405 3
-0.1902492 1.3458533 0.016370358 3
0.16048101 1.2548103 0.010855397 13
0.074640244 1.3616511 0.039775327 20
0.098261416 1.3322513 0.063100755 19
0.13683811 1.2842371 0.12822364 17
0.17895046 1.2318226 0.13677025 7
0.10351738 1.3257095 0.19100845 5
0.15469354 1.2655466 0.011064826 38
0.16887572 1.2477682 0.032029606 30
0.17353237 1.2419306 0.05281638 53
0.1489149 1.2727904 0.078971334 28
0.15826908 1.2610643 0.099492319 12
0.14108425 1.2826068 0.12746041 58
0.191502 1.2194043 0.13272113 15
0.14642024 1.2759178 0.17340876 7
0.16006452 1.2621526 0.010960111 100
0.17170247 1.2474639 0.031924933 91
0.15406537 1.2697244 0.055779677 98
0.15428272 1.2694499 0.078240119 28
0.17462045 1.243781 0.095737889 25
0.15741679 1.2654943 0.122881 100
0.17968217 1.2373924 0.13767004 30
0.14929983 1.2757391 0.17289113 35
0.16434312 1.2604346 0.010890301 100
0.16728213 1.2566972 0.032448292 100
0.15836275 1.2680398 0.055431053 100
0.16347829 1.2615345 0.076777689 29
0.17880154 1.242048 0.095112152 25
0.17137104 1.2514973 0.11906482 100
0.18019316 1.2402784 0.13811995 45
0.15354446 1.2741672 0.17185585 50
0.17212588 1.2538309 0.010715778 100
0.16889817 1.2579637 0.032448292 100
0.15511101 1.2756166 0.056128297 100
0.16266665 1.2659425 0.077265166 29
0.17793718 1.2463901 0.095737889 38
0.18142885 1.2419193 0.11639348 100
0.18055519 1.2430379 0.13856985 36
0.14689481 1.2861369 0.17547931 42
0.16891566 1.2614681 0.010855397 100
0.19140941 1.2324588 0.03066887 64
0.15443659 1.2801411 0.056476921 72
0.17048219 1.2594478 0.076046467 29
0.16507694 1.2664187 0.099492319 36
0.18067235 1.2463059 0.11715672 53
0.19056755 1.2335446 0.13542053 30
0.14751512 1.2890674 0.17599694 41
0.1681073 1.2658978 0.010925206 65
0.18075877 1.2494695 0.031715591 61
0.15856177 1.2782929 0.056128297 48
0.17816332 1.2528398 0.074827775 45
0.17395684 1.258302 0.097615108 37
0.17506665 1.2568609 0.11944643 12
0.19567373 1.2301021 0.13407083 23
0.14334509 1.2980522 0.17858514 54
0.16749886 1.2704718 0.010995016 64
0.17645454 1.258754 0.032238949 30
0.17131606 1.2654772 0.054559495 50
0.16908669 1.2683941 0.077021427 87
0.1925424 1.2377043 0.093234941 53
0.18877521 1.2426333 0.11563025 13
0.19972917 1.228301 0.13317102 31
0.17109126 1.2657714 0.16719711 60
0.17641467 1.2621806 0.010785587 52
0.18290752 1.2536265 0.03182026 30
0.18018878 1.2572083 0.053513627 52
0.17914283 1.2585863 0.075315252 45
0.18931809 1.2451808 0.094486415 52
0.19034451 1.2438285 0.11563025 13
0.20007268 1.2310122 0.13362093 46
0.17624137 1.2624089 0.16564418 68
0.17822111 1.2635465 0.010785587 39
0.17026216 1.2741122 0.033076324 29
0.18437451 1.2553777 0.053165004 52
0.18690798 1.2520144 0.07409656 61
0.19938189 1.2354549 0.092296332 53
0.20035228 1.2341667 0.11295892 13
0.20059219 1.2338482 0.13407083 38
0.17339924 1.2699476 0.16771474 67
0.17746407 1.267979 0.010855397 39
0.16954312 1.2785672 0.03328567 28
0.1859861 1.2565875 0.053165004 52
0.19802135 1.2404996 0.072146654 63
0.19501084 1.2445238 0.093860678 52
0.19601327 1.2431839 0.11486702 13
0.20680165 1.2287626 0.13227122 31
0.18200254 1.2619123 0.16460891 69
0.18048376 1.2677355 0.010820492 91
0.19998252 1.2414708 0.030773543 32
0.17589563 1.2739156 0.054908119 50
0.19738162 1.2449743 0.072634131 94
0.20263991 1.2378913 0.092296332 66
0.2094526 1.2287147 0.11105084 14
0.21080863 1.2268882 0.13137141 31
0.18380797 1.2632579 0.16460891 69
0.18450966 1.2657391 0.010750682 79
0.19325143 1.2538819 0.031506244 62
0.18584499 1.2639278 0.053687938 78
0.18011075 1.2717056 0.076533951 100
0.20771006 1.2342708 0.09135773 94
0.20282042 1.2409029 0.11372216 13
0.21926412 1.2185992 0.128672 24
0.18773848 1.2613596 0.16357364 69
0.18624234 1.2670119 0.010750682 79
0.20437941 1.2422307 0.03066887 64
0.19463164 1.2555493 0.05264207 79
0.19593316 1.2537709 0.073609084 77
0.21166611 1.2322747 0.090731993 100
0.20330676 1.2436962 0.11410378 13
0.22428486 1.2150333 0.1273223 16
0.19287875 1.2579443 0.16202073 70
0.19729787 1.2552747 0.010471444 82
0.20007607 1.2514522 0.03119223 63
0.18570134 1.2712301 0.054210871 100
0.20220771 1.2485194 0.072634131 94
0.20158717 1.2493732 0.093860678 91
0.21873051 1.225786 0.10952436 14
0.231491 1.2082292 0.12507279 16
0.19449878 1.2591259 0.16202073 70
0.19439992 1.2630517 0.010611063 94
0.21118954 1.2397723 0.030354854 65
0.18520996 1.2757939 0.054559495 100
0.20628631 1.2465708 0.072146654 79
0.20565751 1.2474426 0.093234941 100
0.21810642 1.2301818 0.1102876 14
0.23765907 1.2030714 0.12327318 17
0.19516385 1.2619925 0.16253836 70
0.20302299 1.2544737 0.010401634 97
0.21274921 1.2408932 0.030354854 65
0.18688923 1.2770008 0.054559495 100
0.19631007 1.2638468 0.074584037 91
0.21414381 1.238946 0.09135773 100
0.20934606 1.2456449 0.11372216 20
0.2640599 1.1692497 0.11337533 9
0.19229791 1.2694488 0.16460891 69
0.20016748 1.2622622 0.010541254 95
0.2133204 1.2437541 0.030459527 97
0.19336653 1.271832 0.053862248 100
0.2084718 1.2505769 0.072390392 95
0.22044203 1.2337331 0.090106249 96
0.20313075 1.2580924 0.11639348 19
0.23053023 1.2195376 0.1273223 16
0.19748816 1.2660323 0.163056 70
0.20871964 1.2536166 0.010331824 98
0.21374172 1.2464999 0.030564198 64
0.19962767 1.2665005 0.053165004 100
0.21693468 1.2419753 0.070927955 65
0.22198164 1.2348235 0.090106249 100
0.20135534 1.2640523 0.11753834 53
0.22865194 1.2253711 0.128672 32
0.20804584 1.2545713 0.15891489 73
0.21729344 1.2449777 0.010122396 99
0.21769878 1.2443991 0.030354854 65
0.20593521 1.2611929 0.052467756 100
0.21744531 1.244761 0.071171694 32
0.21227306 1.2521449 0.093234941 100
0.21096653 1.2540102 0.11486702 100
0.22465327 1.2344707 0.13092151 56
0.20973939 1.2557621 0.15891489 73
0.20745209 1.2624949 0.010471444 96
0.22269508 1.2405795 0.03004084 99
0.20074004 1.2721452 0.053513627 100
0.2190215 1.2458611 0.071171694 81
0.21838552 1.2467755 0.091983467 93
0.2226626 1.2406262 0.11143246 84
0.22953349 1.2307476 0.12957181 80
0.20804286 1.2616456 0.1604678 72
0.20925948 1.2637471 0.010471444 82
0.22215322 1.2450635 0.030250182 98
0.20031953 1.2767015 0.053862248 100
0.22189537 1.2454371 0.070927955 65
0.22350121 1.2431103 0.091044858 100
0.22438973 1.2418227 0.11143246 84
0.2334381 1.2287114 0.128672 97
0.20436078 1.2708455 0.163056 70
0.21315935 1.2615752 0.010401634 83
0.22711727 1.2412055 0.029936166 66
0.20875898 1.267997 0.05281638 100
0.22235167 1.2481601 0.071171694 81
0.23512119 1.2295247 0.088229038 98
0.22040743 1.2509975 0.11334054 89
0.23055485 1.2361887 0.13047162 96
0.21475947 1.25924 0.15891489 73
0.21375275 1.2644014 0.010436539 68
0.22539443 1.2472842 0.030250182 65
0.21386078 1.2642426 0.052293446 100
0.22179005 1.2525839 0.071659178 80
0.23450536 1.2338879 0.088854775 98
0.22650474 1.2456516 0.11181407 84
0.22780043 1.2437465 0.13227122 94
0.22516063 1.247628 0.15477379 75
0.22443092 1.2523128 0.0101573 42
0.2214753 1.2566913 0.030773543 32
0.21224394 1.2703671 0.05281638 53
0.22680846 1.2487906 0.070927955 97
0.23170581 1.2415354 0.090106249 100
0.22926545 1.2451507 0.11143246 91
0.22945607 1.2448683 0.13227122 100
0.21602148 1.264771 0.15995017 72
0.21952462 1.2634718 0.010366729 41
0.22548401 1.2545732 0.030564198 32
0.2151888 1.2699462 0.05264207 53
0.2252517 1.2549201 0.071659178 80
0.2345354 1.2410575 0.089793384 100
0.23428643 1.2414293 0.1102876 92
0.23336741 1.2428015 0.13137141 100
0.22213697 1.2595711 0.15787962 73
0.21682155 1.2712841 0.010506349 40
0.21612191 1.2723367 0.031610917 30
0.22134742 1.2644746 0.051944822 54
0.23353931 1.2461313 0.07019674 82
0.23836851 1.2388656 0.089167647 100
0.23376048 1.2457986 0.11105084 91
0.24257064 1.2325432 0.12822211 97
0.21957049 1.2671481 0.15995017 72
0.21848568 1.2723861 0.010506349 27
0.21998963 1.270107 0.031401575 31
0.23067042 1.253921 0.05072464 56
0.22090662 1.2687174 0.073365346 100
0.23774907 1.2431939 0.089793384 100
0.23425871 1.2484833 0.11143246 91
0.24195954 1.2368132 0.1291219 96
0.22015691 1.2698536 0.1604678 72
0.22791016 1.2618301 0.010262015 28
0.21079525 1.2879646 0.032448292 29
0.2279954 1.2616999 0.051421888 55
0.23461246 1.2515957 0.070684217 81
0.24156716 1.2409759 0.089167647 84
0.23915762 1.2446553 0.1102876 92
0.24359089 1.2378857 0.1291219 96
0.22719559 1.2629212 0.15787962 73
0.24371278 1.2411008 0.0098082526 44
0.22340137 1.2723417 0.031401575 31
0.2285417 1.2644354 0.051596198 54
0.23621121 1.2526389 0.070684217 81
0.2409772 1.2453084 0.089793384 97
0.24608397 1.2374537 0.10837951 87
0.24301973 1.2421668 0.13002171 96
0.23093799 1.2607497 0.15684435 74
0.23668605 1.2556095 0.010087491 43
0.24681306 1.2399135 0.029308135 34
0.22702906 1.270577 0.052119136 54
0.24543136 1.2420551 0.068978049 67
0.24370918 1.2447243 0.089480512 97
0.24452442 1.2434607 0.10952436 85
0.25100881 1.2334105 0.1273223 97
0.2253215 1.2732235 0.1604678 72
0.23622653 1.2600684 0.0101573 71
0.24953216 1.2392869 0.029203463 68
0.22985268 1.2700233 0.051944822 54
0.24922177 1.2397717 0.068490572 50
0.24856356 1.2407997 0.08854191 70
0.24406174 1.2478309 0.1102876 78
0.25472978 1.231169 0.12642249 90
0.23124677 1.267846 0.15839726 73
0.24008384 1.257785 0.010087491 71
0.25117213 1.2403328 0.029203463 68
0.23587385 1.2644112 0.051247578 55
0.24447614 1.2508719 0.069953002 49
0.2565648 1.2318451 0.086664692 57
0.24152023 1.2555243 0.11181407 98
0.25529632 1.2338417 0.12687239 99
0.23713049 1.2624333 0.1563267 74
0.24392137 1.2554806 0.010017681 58
0.25601122 1.2363046 0.028889447 100
0.24397707 1.2553923 0.050201707 56
0.24615657 1.2519354 0.069953002 49
0.25817874 1.2328666 0.086664692 57
0.25787547 1.2333477 0.10647142 81
0.25899583 1.2315706 0.12597258 99
0.24709365 1.2504491 0.1521856 69
0.2456179 1.2565461 0.010017681 87
0.25128511 1.2474873 0.029517479 100
0.2435599 1.2598357 0.05055033 84
0.24784067 1.2529931 0.069953002 49
0.2597962 1.2338824 0.086664692 86
0.24908224 1.2510085 0.1102876 99
0.2585417 1.2358878 0.12687239 90
0.24160051 1.2629678 0.15580906 67
0.24837273 1.2559067 0.0099827768 87
0.25295365 1.2485271 0.029517479 100
0.23791608 1.2727518 0.051770512 81
0.25790399 1.2405523 0.068003096 51
0.25308272 1.2483191 0.089167647 70
0.25697565 1.2420478 0.10799789 79
0.26325303 1.2319353 0.12552269 82
0.23109683 1.2837373 0.16202073 63
0.24797329 1.2603619 0.010052586 86
0.26091039 1.2393576 0.028889447 100
0.24489728 1.2653561 0.050898954 83
0.25538412 1.2483299 0.068978049 50
0.26718557 1.2291694 0.085413218 73
0.25038844 1.2564408 0.11105084 84
0.26793319 1.2279556 0.12417299 92
0.24302331 1.2683985 0.15684435 66
0.24960107 1.2613608 0.010052586 100
0.25830129 1.2471298 0.029308135 100
0.24758086 1.2646651 0.05072464 100
0.25179479 1.2577726 0.07019674 33
0.26458833 1.2368462 0.086664692 57
0.25814745 1.2473814 0.10876112 79
0.26843688 1.2305511 0.12462288 83
0.24467775 1.2694138 0.15684435 66
0.25442934 1.2572771 0.0099478718 87
0.26100439 1.2464375 0.029203463 100
0.2462095 1.2708282 0.051247578 82
0.25246972 1.2605077 0.070440479 49
0.26621965 1.2378397 0.086664692 71
0.25676104 1.2534331 0.10990598 92
0.26701424 1.2365297 0.12597258 90
0.24842671 1.2671731 0.15580906 75
0.25518647 1.2600707 0.0099827768 100
0.25760478 1.2560507 0.029726824 100
0.25831768 1.2548656 0.049504463 86
0.25836268 1.2547909 0.069465525 49
0.26589972 1.242262 0.087290429 57
0.26764315 1.2393639 0.10647142 73
0.2697306 1.2358938 0.12552269 82
0.24825928 1.2715858 0.15684435 66
0.26099825 1.2542284 0.0098431576 88
0.26339751 1.2502084 0.029308135 100
0.2498011 1.2729893 0.051247578 82
0.26616076 1.2455784 0.068003096 51
0.26754996 1.2432508 0.087290429 57
0.26022789 1.255519 0.10990598 85
0.27535343 1.2301759 0.12372308 83
0.24803185 1.2759538 0.15787962 65
0.2566638 1.2656095 0.010052586 86
0.27533236 1.2340678 0.028261416 100
0.25063187 1.2758008 0.051421888 82
0.26588356 1.2500322 0.068490572 50
0.27331096 1.2374831 0.086038955 72
0.26200935 1.2565778 0.10990598 78
0.2820048 1.2227943 0.12147357 86
0.25185624 1.2737322 0.15684435 66
0.25434551 1.2735281 0.010192205 85
0.2678524 1.2505245 0.029203463 100
0.25845215 1.2665341 0.05037602 84
0.26354045 1.2578683 0.069465525 49
0.28294608 1.2248186 0.083536007 60
0.26370957 1.2575802 0.10990598 92
0.27865341 1.2321295 0.12372308 75
0.25948539 1.2647743 0.15373851 68
0.26902106 1.2519958 0.0097384425 75
0.27137512 1.2479576 0.028994121 100
0.26503056 1.2588412 0.049504463 86
0.2640748 1.2604808 0.069709264 33
0.28139171 1.230775 0.084474608 59
0.27216396 1.2466044 0.10723466 73
0.27912512 1.2346631 0.12417299 92
0.26882461 1.2523329 0.14959741 70
0.27671158 1.2425871 0.0095290141 76
0.2700457 1.2541143 0.029308135 100
0.2587595 1.2736311 0.050898954 83
0.27473235 1.2460098 0.067515619 51
0.28003511 1.2368399 0.085413218 58
0.27382931 1.2475715 0.10723466 81
0.27879766 1.2389798 0.12507279 83
0.26664159 1.2600008 0.15166797 69
0.27446672 1.2505246 0.0096686333 75
0.27778292 1.2447413 0.028680105 100
0.26457164 1.2677815 0.050201707 85
0.28042862 1.2401272 0.066540658 52
0.27683493 1.2463945 0.086977564 57
0.27460498 1.2502835 0.10761628 87
0.28342646 1.234899 0.12372308 92
0.2645956 1.2677397 0.15373851 68
0.27219117 1.2584363 0.0098082526 59
0.27944171 1.2456886 0.028680105 100
0.26335585 1.2739704 0.05072464 84
0.27912703 1.2462418 0.067271881 51
0.28533587 1.2353256 0.084787481 59
0.27628314 1.2512419 0.10761628 79
0.29372194 1.2205815 0.11967396 87
0.26442459 1.2720914 0.15477379 75
0.26889804 1.2680622 0.0099827768 87
0.2751306 1.2570193 0.029308135 100
0.27188364 1.2627723 0.049504463 86
0.26899946 1.2678826 0.07019674 82
0.28590947 1.237921 0.085100345 58
0.27498561 1.2572762 0.10876112 79
0.28659707 1.2367028 0.12372308 92
0.27577817 1.2558719 -0.0097384425 88
0.26324257 1.2780828 0.1563267 74
0.27845263 1.2550813 0.0097035384 90
0.28463706 1.2440337 0.02847076 100
0.27847153 1.2550476 0.048632905 88
0.27267841 1.2653961 0.069709264 49
0.28947425 1.2353927 0.084474608 59
0.28340113 1.2462416 0.1060898 81
0.29013157 1.2342185 0.12282328 76
0.2716234 1.2672808 0.15270324 68
0.28403032 1.249033 0.0095639192 91
0.2785373 1.2589264 0.029308135 100
0.27726489 1.2612181 0.049155839 87
0.27633655 1.2628901 0.069221787 83
0.28726482 1.2432075 0.08572609 58
0.28030011 1.2557514 0.10799789 87
0.29080763 1.2368265 0.12327318 85
0.27711195 1.2614936 0.15063268 78
0.28473949 1.2517102 0.0095988233 76
0.28409925 1.2528728 0.028889447 100
0.27417591 1.2708936 0.050027397 85
0.28667659 1.2481924 0.067028143 51
0.28987107 1.2423912 0.085413218 58
0.2905204 1.2412121 0.10456333 67
0.29995877 1.2240721 0.11967396 87
0.27230623 1.2742888 0.15425615 75
0.28450567 1.2561432 0.0096686333 75
0.29535937 1.2362691 0.027842728 100
0.27783597 1.2683561 0.049678773 86
0.28644449 1.252593 0.067515619 51
0.29436204 1.2380953 0.084474608 59
0.28463885 1.2558993 0.10761628 79
0.27971333 1.2649183 -0.0098431576 97
0.27314228 1.2769506 0.15477379 67
0.28239492 1.2641006 0.0098082526 74
0.28937915 1.251205 0.028680105 100
0.28716803 1.2552875 0.048284281 88
0.28623989 1.2570012 0.068003096 51
0.29976055 1.2320369 0.083223134 60
0.28353164 1.2620016 0.10876112 72
0.28239492 1.2641006 -0.0098082526 88
0.28779387 1.2541319 0.14752686 79
0.29169077 1.2509382 0.0095290141 76
0.29673067 1.2415545 0.028052073 100
0.28132173 1.2702439 0.049678773 86
0.28982002 1.2544212 0.067515619 51
0.29546908 1.2439034 0.10456333 75
0.28033653 1.2720783 -0.0099478718 86
0.28582907 1.2618519 0.14959741 70
0.29901132 1.2412471 0.0093195848 93
0.2927449 1.2530127 0.028680105 100
0.28587934 1.2659032 0.049155839 87
0.28871304 1.2605828 0.068246834 34
0.29251033 1.253453 0.10647142 81
0.29899433 1.241279 0.12327318 85
0.28936383 1.2593608 0.14856213 71
0.29131916 1.2598027 0.0096686333 90
0.29816341 1.2468433 0.028261416 100
0.28854245 1.2650603 0.048981529 87
0.2950623 1.2527152 0.067028143 51
0.29907757 1.2451124 0.085100345 58
0.28475833 1.2722254 0.1521856 77
0.29210278 1.2624742 0.0097035384 90
0.29982945 1.2477195 0.028261416 100
0.28565064 1.2747951 0.049853086 85
0.29674885 1.2536021 0.067028143 51
0.29862407 1.2500212 0.10532656 75
0.28931972 1.2677886 -0.0098082526 88
0.29099411 1.2645912 0.14959741 70
0.29759428 1.2563167 0.0095639192 91
0.29422152 1.262815 0.029098792 100
0.29025605 1.2704554 0.049330149 87
0.29486519 1.2615747 0.068003096 51
0.29206714 1.2669659 -0.0097733475 99
0.29458848 1.262108 0.14856213 71
0.29929337 1.2571948 0.0095639192 91
0.29839927 1.2589322 0.067515619 51
0.29984361 1.2561255 0.14649157 81
0.29902139 1.2659925 0.048632905 59
0.29443601 1.2750542 0.15166797 77
0.2943716 1.2793674 -0.0099478718 100
0.29524571 1.2776256 0.1521856 77
0.29793257 1.2766758 -0.0098780617 100
