# .PCD v0.7 - Point Cloud Data file format
VERSION 0.7
FIELDS x y z intensity
SIZE 4 4 4 4
TYPE F F F F
COUNT 1 1 1 1
WIDTH 749
HEIGHT 1
VIEWPOINT 0 0 0 1 0 0 0
POINTS 749
DATA ascii
0.055636108 0.0037787557 0.015916595 123
0.05574739 0.0097894073 0.047521047 43
0.047490418 0.0032536983 0.04804441 30
0.035308063 0.0017425418 0.048463095 59
0.035848856 0.0085998178 0.048149079 26
0.03506285 0.018797278 0.047730394 19
0.029170454 0.015578151 0.04804441 9
0.015001655 0.0010976195 0.049091127 7
0.014880478 0.006053865 0.048881784 7
0.018995166 0.017810225 0.048253752 8
-1.0542767 1.1371337 0.028726662 3
-1.0036488 1.1255476 0.083528183 5
-1.0445309 1.1349034 0.14310972 6
-1.0335081 1.1382025 0.028377613 10
-0.9887808 1.1278024 0.082795486 20
-1.0257819 1.1364061 0.14154093 35
-0.98939794 1.1336145 0.027609708 27
-0.99724132 1.1354672 0.083318844 88
-1.0128591 1.1391562 0.14049506 81
-0.97651607 1.1359205 0.027400278 42
-1.0096166 1.1438551 0.084051549 100
-1.0096889 1.1438724 0.14032075 84
-0.98105842 1.1426656 0.027504992 42
-0.97531182 1.1412669 0.08227212 100
-1.0083745 1.1493144 0.14032075 87
-0.98938829 1.1506749 0.027679516 23
-0.97394079 1.1468549 0.08227212 100
-0.99923712 1.1531105 0.13962349 87
-0.98029202 1.1540989 0.027539898 22
-0.97842759 1.1536309 0.082586139 56
-0.99209303 1.1570609 0.13910057 84
-0.96731502 1.1564767 0.027330469 38
-0.98095006 1.1599498 0.082795486 35
-0.99073249 1.1624414 0.13910057 80
-0.96014839 1.1602697 0.027225753 61
-0.98924822 1.1677901 0.083318844 58
-0.97392112 1.1638291 0.13770607 94
-0.95877689 1.1655388 0.027225753 67
-0.9704625 1.1686022 0.082376793 100
-0.98795527 1.1731881 0.13910057 91
-0.96125215 1.1718307 0.027295563 78
-0.95941097 1.1713411 0.081853434 90
-0.984613 1.1780422 0.13892625 94
-0.96763462 1.178921 0.027435184 83
-0.95035774 1.1742657 0.081434749 94
-0.96401364 1.1779454 0.13718314 100
-0.95076591 1.1800001 0.027155945 96
-0.95471746 1.1810796 0.081748761 100
-0.96065849 1.1827027 0.13700883 100
-0.93769079 1.1822935 0.026946515 89
-0.95512539 1.1871253 0.081853434 100
-0.9629758 1.1893009 0.13735744 91
-0.94394332 1.1896472 0.027086135 93
-0.93443173 1.1869754 0.080806717 90
-0.96342105 1.1951184 0.13753176 94
-0.95208579 1.1975969 0.027260659 71
-0.92912537 1.1910608 0.080597371 80
-0.95617908 1.1987622 0.13700883 100
-0.96403354 1.206717 0.027504992 48
-0.92956561 1.196775 0.080702044 42
-0.95084459 1.2029128 0.1366602 99
-0.94338185 1.2061296 0.027155945 45
-0.93389374 1.2033587 0.081016064 22
-0.9436633 1.2062118 0.13613728 85
-0.92459255 1.2062343 0.026841801 71
-0.93237203 1.2085358 0.081016064 26
-0.94404203 1.2119882 0.13631158 84
-0.91922969 1.2102311 0.026771991 75
-0.91361326 1.2085482 0.080074012 32
-0.9310388 1.2137694 0.13526571 92
-0.92151111 1.2165182 0.026841801 75
-0.91016227 1.2130744 0.079969339 80
-0.93901342 1.2218292 0.13613728 98
-0.92567796 1.2234139 0.026946515 78
-0.91051596 1.2187554 0.080074012 98
-0.92028648 1.2217574 0.13456847 99
-0.91262966 1.2249984 0.026737086 85
-0.91466194 1.2256305 0.080388032 84
-0.92250556 1.2280706 0.1349171 78
-0.89958841 1.2264972 0.026527658 88
-0.91687256 1.2319403 0.080597371 68
-0.91709691 1.2320108 0.13456847 54
-0.90568799 1.2337296 0.026667276 83
-0.90581757 1.2337708 0.080074012 78
-0.91555673 1.2368734 0.13456847 42
-0.90033561 1.2373277 0.026597468 81
-0.89476651 1.2355332 0.079550654 95
-0.91020769 1.2405087 0.13421984 43
-0.8987779 1.2421346 0.026597468 100
-0.89701277 1.2415594 0.07976 100
-0.91242808 1.246583 0.13456847 59
-0.87416762 1.2401713 0.02617861 92
-0.89519149 1.247112 0.07976 100
-0.90112764 1.2490718 0.13369691 78
-0.86880714 1.243625 0.0261088 52
-0.89549583 1.2525343 0.079864666 100
-0.90331072 1.255143 0.13404553 85
-0.74202675 1.206573 0.023805082 12
-0.88236457 1.2539929 0.079236634 100
-0.8977477 1.2591908 0.13369691 78
-0.26181138 1.0473121 0.014974165 54
-0.87319165 1.2561576 0.078817949 100
-0.90177375 1.2659211 0.13421984 89
-0.27406889 1.0547153 0.015218498 100
-0.87526149 1.262427 0.079027295 100
-0.88685173 1.2664313 0.13299966 100
-0.87173516 1.2664921 0.078922622 95
-0.8946026 1.2744777 0.13387123 61
-0.25127167 1.0532731 0.014834546 106
-0.85475391 1.2666218 0.078085244 53
-0.89453334 1.2806849 0.13404553 35
-0.25786036 1.0586197 0.014974165 148
-0.85498017 1.2719493 0.078189917 21
-0.89658433 1.286813 0.13439415 38
-0.25684798 1.061438 0.014974165 153
-0.86073333 1.2795646 0.07860861 46
-0.88914984 1.2898289 0.13387123 24
-0.85715955 1.2835553 0.078503937 82
-0.86870176 1.2877676 0.1321281 16
-0.26417363 1.0705259 0.015148689 51
-0.85901517 1.2900925 0.078713275 100
-0.87427098 1.2957237 0.13282534 9
-0.25755155 1.0711281 0.015043974 48
-0.84605449 1.2905753 0.078085244 89
-0.89492172 1.3087974 0.1349171 1
-0.25270021 1.0726749 0.014974165 100
-0.83479303 1.2921652 0.077561885 46
-0.87802309 1.308466 0.1335226 1
-0.25542963 1.0767585 0.015043974 47
-0.83492035 1.2974653 0.077666558 53
-0.84643894 1.3018523 0.13073361 11
-0.25056762 1.0782714 0.014974165 54
-0.83670539 1.3039732 0.077875905 63
-0.85191745 1.3098308 0.13143086 52
-0.23649484 1.0758511 0.014729831 52
-0.83492714 1.3085687 0.077875905 63
-0.85197657 1.3151989 0.13160518 100
-0.23356122 1.0778633 0.014694926 65
-0.8274619 1.3112085 0.077561885 61
-0.83708411 1.3149891 0.130385 99
-0.24368852 1.0848846 0.014904355 49
-0.82009023 1.3135638 0.077247873 76
-0.83526927 1.3195859 0.130385 97
-0.25366533 1.092257 0.015113784 57
-0.81808871 1.3185818 0.077247873 95
-0.83694416 1.3261425 0.13073361 99
-0.25444585 1.0956707 0.015148689 57
-0.82366723 1.3261135 0.077666558 95
-0.83324558 1.3299911 0.1305593 100
-0.23658961 1.0918024 0.014834546 62
-0.81792265 1.3296319 0.077457212 95
-0.81458741 1.3282675 0.1289905 100
-0.81510144 1.3284777 0.18109785 21
-0.22627676 1.0905924 0.014660021 59
-0.82344347 1.3372146 0.077875905 100
-0.80904561 1.3312684 0.12864187 100
-0.78572029 1.3216355 0.17744176 16
-0.23807216 1.0986885 0.014904355 55
-0.79196149 1.3297042 0.076201156 100
-0.80707818 1.336009 0.12864187 100
-0.78745085 1.3278229 0.17792924 26
-0.25172216 1.107507 0.015183593 50
-0.78641647 1.3326013 0.075991809 100
-0.81253892 1.3435984 0.12933913 100
-0.78559369 1.3322549 0.17792924 26
-0.25231993 1.1112258 0.015218498 61
-0.7916972 1.3406224 0.076410495 72
-0.80492705 1.3462491 0.12881619 100
-0.76890999 1.3309311 0.17597933 16
-0.23648334 1.1075747 0.01493926 73
-0.82099837 1.3584605 0.078189917 42
-0.80300874 1.350739 0.12881619 35
-0.78710836 1.3439143 0.17866045 5
-0.2223981 1.1048869 0.014694926 78
-0.80783767 1.3587146 0.077561885 89
-0.82646269 1.3667898 0.13125655 48
-0.78135329 1.3472319 0.17817298 12
-0.23410749 1.1130571 0.01493926 91
-0.8131972 1.3664165 0.077980578 100
-0.82265073 1.3705525 0.13108224 100
-0.77761322 1.350848 0.17792924 37
-0.23650301 1.1175452 0.01500907 72
-0.79821414 1.3657579 0.077247873 100
-0.82226282 1.3763847 0.13125655 100
-0.7682125 1.3525007 0.17695428 33
-0.24630451 1.1250373 0.015218498 84
-0.80170351 1.3726654 0.077561885 100
-0.80568665 1.3744414 0.12986206 100
-0.78077799 1.3633356 0.17890419 33
-0.2395277 1.1254905 0.015113784 74
-0.81041259 1.3825356 0.078189917 100
-0.79801208 1.3769522 0.12933913 100
-0.76411372 1.3616892 0.17695428 18
-0.22195864 1.1206634 0.014799641 76
-0.81382924 1.3895216 0.078503937 100
-0.80143386 1.383891 0.12986206 100
-0.78383273 1.3758957 0.17987914 15
-0.23157388 1.1284926 0.01500907 78
-0.80065697 1.3895199 0.077875905 100
-0.81366259 1.3954854 0.13125655 100
-0.78340739 1.381608 0.18012288 17
-0.23764014 1.1344414 0.015148689 69
-0.79496986 1.3923181 0.077666558 100
-0.8079645 1.3983307 0.13090792 100
-0.76876086 1.3801911 0.17841671 10
-0.23461521 1.1362056 0.015113784 63
-0.80013818 1.4001536 0.078085244 100
-0.80587345 1.4028304 0.13090792 100
-0.77932185 1.390438 0.18012288 5
-0.22615957 1.1353984 0.014974165 54
-0.80888325 1.4097316 0.078713275 100
-0.79655689 1.4039286 0.13021068 100
-0.78084904 1.3965337 0.18061037 5
-0.23203951 1.1416743 0.015113784 100
-0.81013721 1.4164225 0.078922622 100
-0.80502146 1.4139912 0.13125655 100
-0.77495795 1.3997031 0.18012288 3
-0.225393 1.1416725 0.01500907 78
-0.80078191 1.4174762 0.078503937 100
-0.81006497 1.4219258 0.13195379 100
-0.22755998 1.1463896 0.015078879 76
-0.79828578 1.422658 0.078503937 100
-0.8147251 1.4306157 0.13265105 100
-0.23349559 1.1524749 0.015218498 84
-0.80149859 1.429754 0.078817949 100
-0.80536515 1.4316416 0.13195379 100
-0.2302947 1.1544602 0.015183593 73
-0.80086297 1.4355857 0.078922622 100
-0.79578215 1.4330823 0.13125655 100
-0.2128979 1.1490378 0.014869451 81
-0.80938035 1.4453938 0.079550654 100
-0.80963451 1.4455202 0.13282534 100
-0.2204414 1.1563129 0.015043974 82
-0.803325 1.4485812 0.079341307 100
-0.81249255 1.4531779 0.13334829 100
-0.23164821 1.1651814 0.015288308 100
-0.79750246 1.451263 0.079131968 100
-0.81377572 1.4594903 0.13369691 100
-0.22306943 1.1644086 0.015148689 100
-0.7985546 1.4580126 0.079341307 100
-0.80591518 1.4617678 0.13317397 100
-0.2182008 1.1651406 0.015078879 100
-0.80337006 1.466135 0.07976 100
-0.79652673 1.462615 0.13247673 100
-0.2114917 1.1650571 0.014974165 100
-0.80625039 1.4736142 0.080074012 100
-0.80117506 1.4709811 0.13317397 100
-0.21017748 1.1675801 0.014974165 100
-0.79506058 1.4734796 0.079550654 100
-0.81296712 1.4828448 0.13456847 100
-0.22463226 1.1787629 0.015288308 82
-0.7854076 1.4746764 0.079131968 100
-0.81563157 1.4906251 0.13509139 100
-0.22503793 1.1822685 0.015323213 71
-0.80598646 1.4912944 0.080492698 18
-0.79740328 1.4867287 0.1335226 50
-0.20766366 1.1765963 0.01500907 72
-0.20455229 1.1781551 0.014974165 100
-0.21533883 1.1876229 0.015218498 100
-0.21219754 1.1891949 0.015183593 95
-0.21947366 1.1967018 0.015358117 64
-0.21456325 1.1973 0.015288308 66
-0.19731408 1.1912616 0.014974165 54
-0.21156156 1.2026272 0.015288308 55
-0.20303041 1.2014391 0.015148689 57
-0.21371806 1.2109329 0.015393022 48
-0.21209681 1.213729 0.015393022 48
-0.20027262 1.2101823 0.015183593 50
-0.20561641 1.2168703 0.015323213 44
-0.20069468 1.2173263 0.015253403 50
-0.20590639 1.2241944 0.015393022 48
-0.20439607 1.2266985 0.015393022 48
-0.18906242 1.2211256 0.015113784 51
-0.19778264 1.229859 0.015323213 44
-0.2079888 1.2399729 0.015567547 30
-0.19794601 1.237187 0.015393022 16
0.12571576 1.2954458 0.13127659 5
0.16857702 1.2459235 0.010645968 13
0.13906467 1.2827477 0.03443706 27
0.1413126 1.2799428 0.057174169 23
0.1003294 1.33108 0.11388429 9
0.14606112 1.2740178 0.12555231 18
0.19292066 1.2155485 0.13182132 7
0.14768967 1.2719858 0.17237349 7
0.1577895 1.2628996 0.010995016 64
0.16572893 1.2529219 0.032343622 60
0.1505385 1.272012 0.056128297 48
0.16559774 1.2530868 0.075802729 30
0.15886933 1.2615426 0.099492319 24
0.15271261 1.2692797 0.12402584 79
0.19083792 1.2213669 0.13317102 15
0.1566616 1.264317 0.16926765 14
0.15951243 1.2642657 0.010995016 100
0.16617882 1.2558275 0.032448292 89
0.14982307 1.27653 0.056476921 96
0.17466992 1.2450798 0.074340299 30
0.17773145 1.2412046 0.095112152 25
0.1556749 1.2691231 0.12364423 100
0.18879151 1.2272052 0.13452072 38
0.14641362 1.2808456 0.17444403 42
0.15753764 1.2703459 0.011099731 100
0.17157498 1.2524499 0.032134276 100
0.15651223 1.2716532 0.055779677 98
0.16162878 1.2651302 0.077265166 29
0.17694023 1.2456098 0.095737889 25
0.16226625 1.2643175 0.12211776 100
0.19038966 1.2284633 0.13452072 38
0.15177613 1.2776912 0.17289113 49
0.16279909 1.2668445 0.010995016 100
0.16695395 1.2615131 0.032657638 88
0.15931487 1.2713153 0.055605363 98
0.17172784 1.2553874 0.07555899 30
0.18086478 1.2436632 0.095112152 38
0.18192324 1.242305 0.11639348 100
0.18224865 1.2418875 0.13811995 30
0.15337303 1.2789397 0.17289113 35
0.17432532 1.2555406 0.010715778 66
0.18333846 1.2438916 0.031401575 62
0.16716328 1.2647972 0.054733805 50
0.17828351 1.2504249 0.074584037 30
0.17043227 1.2605722 0.098240845 36
0.18597692 1.2404815 0.11563025 20
0.18866813 1.2370032 0.13632034 22
0.15278763 1.2833769 0.1739264 35
0.17854321 1.2537422 0.010645968 66
0.1838614 1.2468164 0.031506244 31
0.1604853 1.2772588 0.055953987 48
0.18125585 1.2502096 0.074340299 46
0.17945135 1.2525595 0.096363634 50
0.1793339 1.2527125 0.11830158 13
0.19275594 1.2352332 0.13542053 22
0.14761248 1.2940228 0.17703223 61
0.17053527 1.2677581 0.010925206 52
0.18794978 1.2449149 0.031296901 31
0.16829792 1.2706929 0.055082429 50
0.18052733 1.2546511 0.074827775 45
0.18952128 1.2428534 0.094173551 52
0.18935293 1.2430743 0.11563025 13
0.20147079 1.2271788 0.13272113 47
0.16349873 1.2769883 0.17082056 65
0.17701626 1.2626365 0.010785587 39
0.17264828 1.2684058 0.032762308 29
0.17477101 1.2656021 0.054385185 51
0.18093827 1.2574563 0.075071514 60
0.19586083 1.2377466 0.092922069 53
0.18025804 1.2583548 0.11906482 13
0.20887032 1.2205638 0.13047162 48
0.17684323 1.2628651 0.16564418 68
0.18114114 1.2607385 0.010715778 39
0.19119078 1.2473682 0.031296901 31
0.18129167 1.2605382 0.053687938 52
0.18025663 1.2619153 0.07555899 75
0.20699081 1.2263474 0.090419121 55
0.19258136 1.2455182 0.11563025 13
0.20459077 1.2295406 0.13272113 31
0.18320885 1.2579876 0.16357364 69
0.19131166 1.2508669 0.010471444 82
0.19294283 1.2486801 0.031296901 31
0.18428332 1.2602893 0.053513627 52
0.18087518 1.2648584 0.075802729 100
0.19685483 1.2434356 0.093547814 52
0.20606503 1.2310882 0.11181407 14
0.21326837 1.2214313 0.13002171 32
0.18499988 1.2593286 0.16357364 69
0.18823227 1.2585442 0.010611063 81
0.19937024 1.2435032 0.030878214 63
0.17295453 1.2791759 0.055431053 74
0.20032483 1.2422141 0.072146654 79
0.19615847 1.2478404 0.094173551 65
0.19599321 1.2480636 0.11563025 13
0.22064471 1.2147734 0.1277722 32
0.17981225 1.269915 0.16667947 67
0.18976888 1.2596784 0.010611063 81
0.2138783 1.2269053 0.029726824 67
0.18754306 1.262704 0.053513627 78
0.19710478 1.2497063 0.073121607 62
0.20234364 1.2425849 0.092922069 79
0.20331374 1.2412663 0.11372216 13
0.22088885 1.2173755 0.12822211 24
0.17795032 1.275744 0.16823238 67
0.18912169 1.2641627 0.010680873 80
0.21311945 1.2313018 0.029936166 66
0.18456501 1.2704022 0.054210871 100
0.1894156 1.2637602 0.075071514 100
0.21215037 1.2326287 0.090731993 95
0.2084344 1.2377172 0.1125773 13
0.22590035 1.2138004 0.12687239 16
0.19111124 1.2614383 0.163056 70
0.19319624 1.2621813 0.010611063 94
0.21355948 1.2340919 0.03004084 66
0.19216099 1.2636093 0.053339314 78
0.19230646 1.2634087 0.074827775 100
0.20912963 1.2402025 0.091983467 93
0.2192876 1.2261904 0.10952436 14
0.22745147 1.214929 0.12687239 16
0.1962305 1.2579958 0.16150309 70
0.19725251 1.2601776 0.010541254 81
0.21051505 1.241748 0.030459527 97
0.18806735 1.2729414 0.054210871 100
0.20446652 1.2501529 0.072634131 63
0.21308067 1.2381828 0.09135773 94
0.21400151 1.2369032 0.11181407 14
0.23469791 1.2081435 0.12462288 8
0.19680768 1.2607957 0.16202073 70
0.19664097 1.2646602 0.010611063 94
0.2237733 1.2266783 0.029412808 67
0.19677386 1.2644742 0.053165004 100
0.21076021 1.244895 0.071659178 80
0.21586522 1.2377486 0.091044858 95
0.20992744 1.2460608 0.11372216 20
0.23962748 1.2044842 0.12327318 17
0.1940313 1.2683134 0.16409127 69
0.20068315 1.2626283 0.010541254 95
0.22074834 1.2343311 0.029831495 66
0.19389224 1.2722052 0.053862248 100
0.21127173 1.2476957 0.071902916 96
0.22092783 1.2340779 0.090106249 100
0.20704886 1.2536509 0.11524864 27
0.241146 1.205565 0.12327318 17
0.19577292 1.2695529 0.16409127 77
0.20249107 1.2639053 0.010541254 95
0.21325809 1.2486024 0.03066887 96
0.19917476 1.2686186 0.053339314 100
0.19931737 1.2684159 0.074827775 100
0.22490439 1.2320498 0.089480512 97
0.19865632 1.2693555 0.1186832 58
0.23040944 1.2242256 0.12822211 32
0.19982955 1.267688 0.163056 86
0.20650721 1.2618364 0.010471444 82
0.21607435 1.2481375 0.030564198 97
0.2020582 1.2682067 0.053165004 100
0.21128884 1.2549896 0.072634131 63
0.22086394 1.2412794 0.091044858 100
0.20827031 1.2593118 0.11601187 100
0.22864953 1.2301315 0.12957181 64
0.20267507 1.2673235 0.16253836 78
0.21261331 1.2563409 0.010331824 84
0.21985495 1.2459021 0.030354854 97
0.2081677 1.2627492 0.052467756 100
0.21507713 1.2527893 0.072146654 79
0.22009423 1.2455572 0.091670595 100
0.22099972 1.244252 0.11219569 100
0.2178781 1.2487516 0.13452072 93
0.2097449 1.2604756 0.15995017 72
0.21658117 1.2542216 0.010262015 84
0.22378358 1.2437615 0.030145511 98
0.20085034 1.2770674 0.053862248 100
0.22126761 1.2474155 0.071171694 81
0.22063595 1.2483329 0.091983467 93
0.22377059 1.2437805 0.11181407 91
0.2306031 1.2338576 0.13002171 88
0.20926785 1.2648426 0.16098544 72
0.21835819 1.2554404 0.010262015 84
0.22890216 1.2400067 0.029831495 66
0.20495901 1.2750535 0.053513627 100
0.22301963 1.2486172 0.071171694 65
0.23353449 1.2332261 0.088854775 100
0.21886441 1.2546995 0.11410378 100
0.23670253 1.2285888 0.12822211 97
0.21326336 1.262898 0.15995017 72
0.20770982 1.274801 0.010645968 53
0.23614922 1.2328593 0.029308135 68
0.21343303 1.2663605 0.052467756 80
0.22469231 1.2497556 0.071171694 81
0.23847923 1.229423 0.087916173 98
0.22276196 1.2526025 0.11334054 96
0.23283687 1.2377442 0.13047162 96
0.21498594 1.2640703 0.15995017 72
0.21840581 1.2627208 0.010366729 41
0.22327027 1.2554927 0.03066887 32
0.22072971 1.2592677 0.051596198 54
0.22636896 1.2508882 0.071171694 81
0.23457029 1.2387017 0.089480512 97
0.2332176 1.2407117 0.1102876 85
0.23011941 1.2453153 0.13227122 94
0.22102702 1.2588259 0.15787962 73
0.21790639 1.2672011 0.010436539 41
0.20943636 1.2798822 0.032134276 30
0.21247998 1.2753253 0.053165004 52
0.23245981 1.2454121 0.07019674 82
0.23401394 1.2430853 0.090106249 96
0.23486263 1.2418146 0.1102876 85
0.23502767 1.2415676 0.13092151 100
0.22166234 1.2615777 0.15839726 73
0.21743423 1.2716907 0.010506349 40
0.20901123 1.2843972 0.032343622 30
0.21644759 1.2731791 0.05281638 53
0.22863725 1.2547904 0.071415432 48
0.23457584 1.2458318 0.090419121 100
0.2365115 1.2429118 0.1102876 85
0.23775238 1.2410399 0.13047162 96
0.2223129 1.2643311 0.15891489 73
0.22797984 1.2594838 0.01022711 28
0.20422265 1.2955956 0.032971654 29
0.21273091 1.2826629 0.053687938 52
0.23578653 1.2476172 0.07019674 66
0.23732439 1.2452797 0.090106249 100
0.23708516 1.2456434 0.11066922 92
0.24796683 1.2291027 0.12687239 99
0.22191691 1.2686996 0.15995017 80
0.2175763 1.2789655 0.010611063 27
0.19067714 1.3201501 0.03443706 27
0.22641736 1.2654291 0.051770512 54
0.23303005 1.2553047 0.071171694 81
0.2507844 1.2281214 0.086664692 100
0.23973775 1.2450347 0.1102876 85
0.24735966 1.2333649 0.1277722 97
0.22251606 1.2714024 0.1604678 72
0.2291438 1.2650204 0.010296919 42
0.23387998 1.2577133 0.030459527 32
0.23139971 1.2615399 0.051247578 55
0.2325666 1.2597396 0.071659178 64
0.24808767 1.2357936 0.087916173 84
0.24246565 1.2444674 0.10990598 85
0.24791902 1.2360538 0.12822211 97
0.23477575 1.2563314 0.15529142 75
0.24385509 1.2459556 0.0098780617 59
0.24314761 1.2470554 0.029726824 67
0.23419529 1.2609735 0.051073264 55
0.24823853 1.2391407 0.068490572 50
0.24757817 1.2401674 0.08854191 84
0.24518579 1.2438867 0.10952436 85
0.25271034 1.2321885 0.12687239 99
0.23647529 1.2574288 0.15529142 75
0.23906291 1.2571348 0.010087491 57
0.25663528 1.2296047 0.028575432 70
0.23912695 1.2570345 0.05055033 56
0.24133357 1.2535775 0.070440479 49
0.24709558 1.2445503 0.089167647 56
0.24895442 1.2416382 0.10876112 79
0.25432551 1.2332234 0.12687239 99
0.23298162 1.2666622 0.15787962 65
0.24076521 1.2582172 0.010087491 71
0.24862298 1.2458115 0.029517479 100
0.23656449 1.2648493 0.051247578 55
0.24302346 1.254652 0.070440479 49
0.2508679 1.2422671 0.08854191 70
0.24114791 1.2576131 0.11219569 91
0.26220077 1.224375 0.12417299 83
0.23058236 1.2742939 0.15995017 64
0.24034309 1.2626798 0.0101573 71
0.25666261 1.2367146 0.028889447 100
0.23723352 1.2676272 0.051421888 82
0.24366075 1.2574012 0.070684217 81
0.25672296 1.2366186 0.087290429 85
0.25434381 1.2404039 0.10799789 79
0.2575666 1.2352763 0.12687239 99
0.24056873 1.2623208 0.15580906 67
0.24938801 1.251828 0.0099129668 87
0.2560975 1.2410738 0.029098792 100
0.23888543 1.2686617 0.051421888 82
0.248431 1.2533618 0.069953002 49
0.25827193 1.2375886 0.087290429 71
0.24759173 1.2547071 0.11105084 98
0.26220566 1.2312834 0.12552269 82
0.24015784 1.2666223 0.15684435 66
0.25528201 1.2460732 0.0097733475 89
0.25353852 1.2488897 0.029517479 100
0.24482286 1.2629684 0.05072464 84
0.2448957 1.2628508 0.071171694 32
0.2599059 1.2386041 0.087290429 57
0.26168612 1.2357284 0.10647142 81
0.26176611 1.2355992 0.12642249 99
0.24189326 1.2677008 0.15684435 66
0.24953389 1.2589742 0.010017681 72
0.26035643 1.2413617 0.028994121 100
0.24750239 1.2622802 0.05055033 84
0.25588518 1.2486382 0.068978049 50
0.2552563 1.2496616 0.089167647 70
0.250898 1.2567542 0.11105084 84
0.26739267 1.2299111 0.12462288 100
0.24354541 1.2687198 0.15684435 66
0.25020158 1.2617273 0.010052586 86
0.26512262 1.237254 0.028680105 100
0.24196246 1.2752411 0.051770512 81
0.25342429 1.2564416 0.069953002 49
0.26413059 1.2388811 0.086977564 57
0.25157693 1.2594717 0.11143246 84
0.2750864 1.2209115 0.12192347 85
0.24327683 1.2730854 0.15787962 65
0.24993649 1.2662454 0.010122396 85
0.2616699 1.2468405 0.029203463 100
0.25103277 1.2644322 0.05055033 84
0.25315487 1.2609227 0.070440479 49
0.26789528 1.2365451 0.086351827 58
0.25438878 1.258882 0.11105084 84
0.27270758 1.2285864 0.12372308 92
0.25112036 1.2642874 0.15477379 67
0.25578541 1.2604306 0.0099827768 87
0.26436362 1.2461314 0.029098792 100
0.2527605 1.2654729 0.05055033 100
0.25895518 1.2551467 0.069465525 49
0.27257419 1.2324451 0.085413218 58
0.26114696 1.2514932 0.10914274 78
0.27330753 1.2312226 0.12417299 100
0.25085995 1.2686409 0.15580906 67
0.25954458 1.2580178 0.0099129668 87
0.25989845 1.2574232 0.029726824 100
0.25652981 1.2630832 0.050201707 85
0.26268095 1.2527481 0.068978049 50
0.27014893 1.2402005 0.086664692 57
0.26584172 1.2474375 0.10799789 87
0.27292585 1.2355349 0.12507279 100
0.25260234 1.269682 0.15580906 67
0.2592164 1.2624726 0.0099827768 87
0.26566359 1.2515535 0.029308135 100
0.24812266 1.281261 0.051944822 81
0.27042362 1.243492 0.067515619 51
0.27179193 1.2411746 0.086664692 71
0.27150282 1.2416642 0.10647142 73
0.2814883 1.2247528 0.12192347 85
0.2582773 1.2640631 0.15373851 68
0.26085111 1.2634342 0.0099827768 87
0.26726207 1.2524939 0.029308135 100
0.25183436 1.2788212 0.051596198 82
0.27400255 1.2409911 0.067028143 51
0.27535337 1.238686 0.086038955 58
0.26711294 1.2527483 0.10876112 79
0.27905679 1.2323661 0.12372308 92
0.26186213 1.2617089 -0.0099478718 86
0.2521036 1.2783618 0.15787962 65
0.26257527 1.2644404 0.0099827768 87
0.26995176 1.2517511 0.029203463 100
0.26462671 1.2609115 0.049678773 86
0.27165774 1.2488164 0.068003096 68
0.27699107 1.2396418 0.086038955 58
0.26287976 1.2639166 0.11105084 84
0.28263113 1.2299395 0.12282328 93
0.26659521 1.2575252 -0.0098431576 87
0.25776345 1.272718 0.15580906 67
0.26838398 1.2585607 0.0098431576 88
0.27471161 1.2475832 0.028889447 100
0.26543292 1.2636802 0.049853086 85
0.26746649 1.2601523 0.069465525 49
0.27674124 1.2440621 0.086664692 71
0.28037903 1.237751 0.10494494 75
0.28431869 1.2309163 0.12282328 76
0.26438943 1.2654905 -0.0099827768 86
0.26732603 1.260396 0.15166797 69
0.27505401 1.2508609 0.0096686333 75
0.27836311 1.2450736 0.028680105 100
0.27012479 1.2594817 0.049330149 87
0.27903253 1.2439028 0.067028143 51
0.28330025 1.2364388 0.085100345 58
0.27908993 1.2438023 0.1060898 81
0.28399464 1.2352244 0.12372308 83
0.27095738 1.2580256 0.15063268 70
0.27854028 1.2482442 0.0095988233 76
0.2739414 1.2563462 0.029308135 100
0.26674631 1.2690222 0.050201707 56
0.27464315 1.2551099 0.068490572 50
0.28574204 1.2355564 0.084787481 59
0.28057975 1.2446511 0.1060898 81
0.29026735 1.227584 0.12147357 86
0.26295558 1.2757006 0.15580906 67
0.27432501 1.2596438 0.0098082526 74
0.28347957 1.2433839 0.02847076 100
0.26946741 1.2682717 0.050027397 85
0.28412926 1.2422299 0.066540658 52
0.29027611 1.231312 0.083848871 59
0.27260652 1.2626961 0.10990598 78
0.29664645 1.2199973 0.11922406 87
0.26941976 1.2683563 -0.0099827768 86
0.26661807 1.2733326 0.15477379 67
0.27408597 1.2640949 0.0098780617 73
0.28318608 1.2477989 0.028680105 100
0.27315122 1.2657689 0.049678773 86
0.27610087 1.2604867 0.068978049 50
0.29188797 1.2322159 0.083848871 59
0.27719963 1.2585192 0.10876112 79
0.29251808 1.2310876 0.12192347 85
0.27506092 1.262349 -0.0098431576 87
0.27779561 1.2574519 0.14959741 78
0.2767812 1.2633058 0.0098431576 88
0.28679088 1.2452329 0.02847076 100
0.28164071 1.2545317 0.048458595 88
0.27973822 1.2579668 0.068490572 50
0.29158881 1.2365701 0.084474608 59
0.27795532 1.2611859 0.10914274 92
0.29696167 1.2268693 0.12057377 77
0.27484348 1.2668045 -0.0099129668 87
0.28324273 1.2516392 0.14752686 71
0.28541234 1.2520801 0.0095988233 76
0.28285182 1.2567453 0.029098792 100
0.28254452 1.2573053 0.048632905 88
0.2835241 1.2555205 0.068003096 51
0.29528311 1.2340956 0.083848871 59
0.290234 1.243295 0.10494494 82
0.29684255 1.2312542 0.12147357 69
0.2776581 1.2662083 0.15166797 77
0.28327268 1.2600262 0.0097384425 60
0.28646219 1.2541665 0.028889447 100
0.28615221 1.2547359 0.048284281 88
0.29091468 1.2459865 0.066540658 69
0.29029393 1.2471268 0.086038955 58
0.28531754 1.2562695 0.10761628 79
0.29938582 1.2304235 0.12102367 86
0.27939186 1.2671559 0.15166797 69
0.28766492 1.2555836 0.0096337283 90
0.29368052 1.2444487 0.028261416 100
0.28672934 1.2573154 0.048458595 88
0.29335487 1.2450515 0.06629692 52
0.29648882 1.2392505 0.084474608 59
0.28871286 1.2536439 0.10685304 81
0.28386295 1.262621 -0.0097733475 88
0.27911857 1.271403 0.15270324 68
0.2818068 1.2705977 0.0099129668 87
0.28967908 1.2559037 0.028889447 100
0.28466842 1.2652564 0.049155839 58
0.28376532 1.266942 0.069221787 67
0.29999405 1.2366502 0.083848871 59
0.28762129 1.2597446 0.10799789 79
0.28558415 1.2635471 -0.0097733475 88
0.28725657 1.2604254 0.14907977 78
0.29106131 1.2574033 0.0096337283 90
0.29699901 1.2462265 0.028261416 100
0.29294211 1.253863 0.047935657 89
0.28736424 1.2643622 0.068734311 50
0.2979174 1.2444979 0.085100345 58
0.2967011 1.2467873 0.10494494 75
0.28730857 1.264467 -0.0097733475 88
0.28987643 1.2596335 0.14856213 71
0.29928833 1.2459196 0.0093893949 93
0.2949394 1.2541751 0.028680105 100
0.28534657 1.2723849 0.049678773 86
0.29556793 1.2529819 0.067028143 51
0.29928198 1.2459316 0.10456333 82
0.28717214 1.2689195 -0.0098431576 87
0.28888598 1.2656661 0.15011504 78
0.2964915 1.2557427 0.0095639192 91
0.29557404 1.2575006 0.048109971 59
0.29742435 1.2539554 0.067028143 51
0.29774654 1.2533379 0.086351827 58
0.29838622 1.2521123 0.10570818 73
0.29168493 1.2649524 0.14959741 70
0.29726958 1.2584007 0.0095988233 76
0.28812066 1.2760808 0.049853086 85
0.29826608 1.256475 0.10647142 73
0.2889984 1.2743847 -0.0099129668 97
0.28631151 1.279577 0.15373851 68
0.29432493 1.2681313 0.0097733475 89
0.29434928 1.2680838 0.048981529 58
0.29891142 1.2591954 0.067515619 51
0.28884619 1.2788055 -0.0099827768 100
0.29505992 1.2666993 0.14959741 70
0.29969296 1.2618918 0.0096337283 100
0.2999979 1.2612925 0.028889447 100
0.29062384 1.279714 -0.0099827768 100
0.29941115 1.2710695 0.15011504 78
