# .PCD v0.7 - Point Cloud Data file format
VERSION 0.7
FIELDS x y z intensity
SIZE 4 4 4 4
TYPE F F F F
COUNT 1 1 1 1
WIDTH 760
HEIGHT 1
VIEWPOINT 0 0 0 1 0 0 0
POINTS 760
DATA ascii
0.049946547 0.0064200163 0.047835063 31
0.049616635 0.011416912 0.047625721 100
0.041443944 0.0048513412 0.048149079 97
0.037531316 0.0050611496 0.048253752 70
0.033746898 0.0051992536 0.048358422 34
0.038942814 0.018566489 0.047625721 19
0.023904324 0.0022317171 0.048777111 16
0.027033329 0.012199581 0.048253752 8
0.015270114 0.00091093779 0.049091127 7
-0.63693482 0.68720961 0.020768363 9
-0.62724 0.69201416 0.020593839 39
-0.62351352 0.69637442 0.020524031 35
-0.59382039 0.70224488 0.020000458 13
-0.5880602 0.70657182 0.019895744 14
-0.58827466 0.71054476 0.019895744 12
-0.58447093 0.71451509 0.019825934 12
-0.59264821 0.71811265 0.019965554 9
-0.55685943 0.72360885 0.019337267 10
-0.54902178 0.72777981 0.019197647 10
-0.53917009 0.7319653 0.019023122 14
-0.5472911 0.73551619 0.019162742 15
-0.54740471 0.73934668 0.019162742 15
-0.53551048 0.74347067 0.018953314 15
-0.51360458 0.74772066 0.01856936 14
-0.51767474 0.75136364 0.01863917 12
-0.51572853 0.75474656 0.018604266 5
-0.51377565 0.75848836 0.01856936 10
-0.5058108 0.76226032 0.018429741 12
-0.48583454 0.76602262 0.018080693 12
-0.4818427 0.76945972 0.018010883 12
-0.48183829 0.77306151 0.018010883 14
-0.48581821 0.77705067 0.018080693 14
-0.46979052 0.7805016 0.017801454 12
-0.4497574 0.78343654 0.017452406 15
-0.46370023 0.78716326 0.01769674 14
-0.45163852 0.79045665 0.017487312 15
-0.45156103 0.79395288 0.017487312 24
-0.45746332 0.79778904 0.017592026 21
-0.44736648 0.80099499 0.017417502 16
-0.45325381 0.80450845 0.017522216 14
-0.45512551 0.80808598 0.01755712 15
-0.45897502 0.81193578 0.01762693 19
-0.48279458 0.81653768 0.018045789 43
-0.46265239 0.81917262 0.01769674 87
-0.45248955 0.82218736 0.017522216 89
-0.4802739 0.82687974 0.018010883 19
-0.47408026 0.83012414 0.017906168 5
-0.45789748 0.83270514 0.01762693 1
-1.0456696 1.1298923 0.14310972 3
-1.048301 1.1363534 0.028621947 6
-1.0015779 1.1256437 0.083423518 5
-1.0308094 1.132344 0.14188954 8
-1.025589 1.136941 0.028237993 10
-1.0022721 1.1315106 0.083528183 33
-1.0295348 1.1378598 0.14188954 39
-0.99900085 1.1364537 0.02778423 30
-0.98933917 1.134168 0.082900152 91
-1.0224245 1.1419952 0.14136662 86
-0.98410171 1.1385884 0.027539898 38
-1.0074785 1.144205 0.083946876 100
-1.0056183 1.1437581 0.13997212 87
-0.97697765 1.1425194 0.027435184 42
-0.98869973 1.1453791 0.083004825 100
-0.99849743 1.1477693 0.13944919 92
-0.97760898 1.1483279 0.027470088 22
-0.98156387 1.1493075 0.082690813 97
-0.99910325 1.1536512 0.13962349 87
-0.97627908 1.153658 0.027470088 25
-0.97441953 1.1531906 0.082376793 46
-1.0035515 1.1605134 0.14014643 74
-0.97493058 1.1589833 0.027470088 37
-0.97887856 1.1599904 0.082690813 33
-0.98094255 1.160517 0.13822901 78
-0.96194798 1.1612978 0.027260659 63
-0.99297637 1.1693281 0.083528183 69
-0.97764128 1.1653594 0.1380547 92
-0.9605729 1.1665732 0.027260659 67
-0.97998232 1.1716688 0.082900152 91
-0.97817904 1.1711953 0.13822901 94
-0.94951755 1.169271 0.027086135 78
-0.95734066 1.1713541 0.081748761 92
-0.97484392 1.1760145 0.1380547 99
-0.95776755 1.1771092 0.027260659 83
-0.94628948 1.17401 0.081225403 98
-0.9714939 1.1808155 0.13788038 100
-0.95448035 1.1815792 0.027225753 92
-0.946868 1.1794968 0.081330076 100
-0.96627969 1.1848072 0.13753176 98
-0.94147271 1.183622 0.027016325 89
-0.94158024 1.1836518 0.081120729 100
-0.96098262 1.1890326 0.13718314 89
-0.93239218 1.1864024 0.026876707 92
-0.94404596 1.189676 0.081330076 86
-0.9538303 1.1924244 0.1366602 99
-0.94809026 1.1970249 0.027190849 71
-0.93089908 1.1921246 0.080702044 76
-0.95602936 1.1992879 0.13700883 100
-0.96395737 1.2069813 0.027504992 47
-0.91989642 1.1942638 0.080178685 38
-0.9565118 1.2048323 0.13718314 98
-0.94706815 1.2077733 0.027225753 48
-0.92607445 1.2016344 0.080597371 24
-0.94733554 1.2078515 0.13648589 84
-0.92835122 1.2076269 0.026911611 71
-0.93229538 1.2087945 0.081016064 26
-0.93441266 1.2094213 0.13544002 87
-0.9133299 1.20902 0.026667276 78
-0.93067724 1.2142245 0.081016064 34
-0.93660885 1.216004 0.13578865 94
-0.91569287 1.2150321 0.026737086 81
-0.91199607 1.2139096 0.080074012 88
-0.9332152 1.2203524 0.13561434 100
-0.91787452 1.2215772 0.026806897 85
-0.90463227 1.2175033 0.07976 100
-0.92965037 1.2251998 0.13544002 98
-0.9163689 1.2264423 0.026806897 92
-0.90695435 1.2235118 0.079969339 82
-0.92052323 1.2277354 0.13474278 70
-0.90324324 1.2282058 0.026597468 85
-0.90718716 1.2294493 0.080074012 70
-0.90743464 1.2295274 0.13369691 49
-0.89409524 1.2305919 0.026457848 85
-0.9094612 1.2354928 0.080283359 76
-0.91159731 1.2361741 0.13421984 43
-0.89239734 1.2358817 0.026457848 83
-0.89634174 1.2371557 0.079655327 97
-0.90798289 1.2409157 0.13404553 45
-0.89084452 1.2406622 0.026457848 100
-0.88908905 1.2400888 0.079341307 100
-0.91588277 1.2488412 0.1349171 59
-0.89307338 1.2466922 0.026527658 100
-0.88752228 1.2448584 0.079341307 100
-0.90671951 1.2511998 0.13421984 80
-0.8801046 1.2476737 0.02631823 99
-0.88972849 1.2508883 0.079550654 100
-0.89944643 1.2541342 0.13369691 84
-0.87059897 1.2508461 0.02617861 99
-0.89535373 1.2592252 0.079969339 100
-0.8974914 1.2599487 0.13369691 78
-0.87656468 1.2581441 0.02631823 92
-0.88049561 1.2594892 0.079236634 100
-0.89962882 1.2660363 0.13404553 91
-0.87863141 1.2644287 0.026388038 89
-0.87311608 1.26252 0.078922622 100
-0.89788848 1.2710934 0.13404553 87
-0.87320894 1.267843 0.02631823 79
-0.86393398 1.2645986 0.078503937 89
-0.89433819 1.2752341 0.13387123 56
-0.86015111 1.2688068 0.0261088 79
-0.86973065 1.2721953 0.078922622 53
-0.8850525 1.2776151 0.13317397 43
-0.85660619 1.2728071 0.026073895 90
-0.86241537 1.2748837 0.07860861 19
-0.88711351 1.2837124 0.1335226 43
-0.85663444 1.2786393 0.0261088 96
-0.86243361 1.2807362 0.078713275 51
-0.87210542 1.2842336 0.13230242 22
-0.85860664 1.2849193 0.02617861 99
-0.84938711 1.2815491 0.078085244 85
-0.87217301 1.2898786 0.13247673 15
-0.85680062 1.2898332 0.02617861 100
-0.85321325 1.2885076 0.078399263 100
-0.87034971 1.2948397 0.13247673 5
-0.83999115 1.2891434 0.025899371 100
-0.84203964 1.2899085 0.077875905 76
-0.89463943 1.3095539 0.1349171 1
-0.83059615 1.2914084 0.025759751 100
-0.8382563 1.2943015 0.077771232 46
-0.85910207 1.3021743 0.13177948 1
-0.83063585 1.2969375 0.025794657 75
-0.83455175 1.298432 0.077666558 53
-0.84420592 1.3021166 0.1305593 15
-0.83625108 1.3046318 0.025934275 75
-0.83083528 1.3025432 0.077561885 68
-0.85535246 1.3119986 0.13177948 52
-0.83437651 1.3094676 0.025934275 75
-0.82710689 1.3066347 0.077457212 68
-0.85345203 1.316901 0.13177948 100
-0.82690293 1.3120989 0.025829561 96
-0.83080059 1.3136334 0.077771232 63
-0.83670336 1.3159574 0.130385 99
-0.81385356 1.3124676 0.025620133 100
-0.82889456 1.31845 0.077771232 89
-0.83478922 1.3207946 0.130385 97
-0.81566268 1.318716 0.025689943 100
-0.82141191 1.3210261 0.077457212 95
-0.83100933 1.3248823 0.13021068 100
-0.813739 1.3234797 0.025689943 100
-0.80837625 1.3213032 0.07682918 100
-0.83644861 1.3326964 0.13090792 100
-0.76883203 1.305254 0.17476064 13
-0.81559688 1.3295153 0.025759751 100
-0.80654055 1.3258047 0.07682918 100
-0.82720047 1.3342695 0.13021068 100
-0.78909248 1.3186558 0.1776855 15
-0.80254906 1.3296912 0.025550323 100
-0.80459219 1.3305366 0.07682918 100
-0.8049714 1.3306935 0.12829325 100
-0.79267186 1.3256038 0.17841671 19
-0.79330486 1.3310903 0.025410704 100
-0.81009775 1.3381046 0.077247873 99
-0.81781226 1.341327 0.12968774 100
-0.7706731 1.3216372 0.17573559 15
-0.79870802 1.3388846 0.025550323 100
-0.79154414 1.3358629 0.076305822 99
-0.80846661 1.3430007 0.1289905 100
-0.77422661 1.3285582 0.17646681 20
-0.80029327 1.3453919 0.025620133 88
-0.78946108 1.340776 0.076305822 65
-0.81002313 1.3495381 0.12933913 95
-0.77217048 1.3334081 0.17646681 16
-0.82031912 1.3595858 0.026038991 56
-0.80947644 1.3549206 0.077561885 48
-0.82080323 1.3597939 0.1305593 26
-0.78660709 1.3450809 0.17866045 5
-0.80724806 1.359585 0.025829561 99
-0.80742639 1.3596624 0.077561885 97
-0.8205635 1.3653691 0.13073361 67
-0.79369515 1.3536975 0.17987914 10
-0.78503722 1.3554846 0.025445608 100
-0.81633431 1.36921 0.078189917 100
-0.82212621 1.3717501 0.13108224 100
-0.78619558 1.3559926 0.17914793 33
-0.79761344 1.3666174 0.025724847 100
-0.80327672 1.3691247 0.077561885 100
-0.80726451 1.3708901 0.12986206 100
-0.7714358 1.3550279 0.17744176 37
-0.79187125 1.3696859 0.025655037 100
-0.80300051 1.3746597 0.077666558 100
-0.8087967 1.37725 0.13021068 100
-0.76213628 1.3563974 0.17646681 24
-0.80081302 1.3790642 0.025864467 100
-0.80098802 1.379143 0.077666558 100
-0.80677551 1.3817526 0.13021068 100
-0.78913885 1.3738005 0.18036664 19
-0.79139847 1.3804624 0.025724847 100
-0.80248922 1.3855097 0.077875905 100
-0.79737812 1.3831837 0.12951343 100
-0.76714832 1.3694264 0.1776855 15
-0.79289371 1.3868104 0.025794657 100
-0.8184821 1.3985635 0.078922622 100
-0.80428225 1.3920413 0.130385 100
-0.77226359 1.3773346 0.17866045 15
-0.7980985 1.3946229 0.025934275 100
-0.8037048 1.3972205 0.078189917 100
-0.80763537 1.3990417 0.13090792 100
-0.76123661 1.3775434 0.17744176 13
-0.79409856 1.3984778 0.025899371 100
-0.80331641 1.4027879 0.07829459 100
-0.80904096 1.4054646 0.13125655 100
-0.78248483 1.3930475 0.18061037 5
-0.80647606 1.4097557 0.02617861 100
-0.80662984 1.4098282 0.07860861 100
-0.80332214 1.4082682 0.13090792 100
-0.77143425 1.3932288 0.17939167 3
-0.79509467 1.4104249 0.026004085 100
-0.80788225 1.4165133 0.078817949 100
-0.79737586 1.4115111 0.1305593 100
-0.80140275 1.4134283 0.18377897 1
-0.78755563 1.4122851 0.025899371 100
-0.81473309 1.4253354 0.079341307 100
-0.79883319 1.4177005 0.13090792 100
-0.7922768 1.4209063 0.026038991 100
-0.79962701 1.4244705 0.07860861 100
-0.80350727 1.4263523 0.13160518 100
-0.79370373 1.4271108 0.0261088 100
-0.79565507 1.4280651 0.078503937 100
-0.81564194 1.4378393 0.13299966 100
-0.7985751 1.4353362 0.02624842 100
-0.79872316 1.4354093 0.078817949 100
-0.80258173 1.4373131 0.13195379 100
-0.79278058 1.4380232 0.02617861 100
-0.79829735 1.4407678 0.078922622 100
-0.80392915 1.4435695 0.13230242 100
-0.78674895 1.4411458 0.0261088 100
-0.80832428 1.4519782 0.079655327 100
-0.80145127 1.4485275 0.13230242 100
-0.79165238 1.4491875 0.02624842 100
-0.80249137 1.4546746 0.07944598 100
-0.81163687 1.4593043 0.1335226 100
-0.79983884 1.4595587 0.026457848 100
-0.79463702 1.4569013 0.079131968 100
-0.8091014 1.4642904 0.1335226 100
-0.79754466 1.4640311 0.026457848 100
-0.79767853 1.4641001 0.07944598 100
-0.80679148 1.4687935 0.1335226 100
-0.79156476 1.466887 0.026388038 100
-0.7987923 1.4706414 0.079655327 100
-0.804344 1.4735253 0.1335226 100
-0.78924638 1.4713321 0.026388038 96
-0.80530804 1.4797431 0.080178685 100
-0.80553359 1.4798613 0.13387123 100
-0.78313071 1.4743676 0.02631823 83
-0.79386801 1.4800407 0.079655327 100
-0.80292279 1.4848248 0.13387123 99
-0.80757898 1.4930537 0.13456847 38
0.11015779 1.3156868 0.13623762 5
0.16382724 1.2523674 0.010785587 26
0.15930483 1.2580163 0.032762308 29
0.14407003 1.277046 0.056825545 23
0.15000531 1.2696323 0.10136953 11
0.150006 1.2696314 0.12440746 30
0.18828237 1.2218206 0.13362093 7
0.1443305 1.2767208 0.1739264 7
0.15920612 1.2614713 0.010960111 77
0.15843922 1.2624358 0.032971654 58
0.15443382 1.267473 0.055605363 73
0.16453093 1.2547747 0.076046467 29
0.17010581 1.2477636 0.096676499 25
0.16144013 1.2586617 0.12135452 93
0.18250555 1.2321694 0.13632034 22
0.14601308 1.2780631 0.1739264 28
0.16472656 1.2581911 0.010855397 100
0.17509446 1.2450535 0.031715591 100
0.14515114 1.2829956 0.057174169 100
0.16016144 1.2639756 0.077265166 29
0.1706357 1.2507033 0.096989371 25
0.1583688 1.2662472 0.122881 100
0.18903095 1.2273942 0.13452072 38
0.14907473 1.278024 0.17340876 42
0.16264674 1.2641876 0.010960111 100
0.17913607 1.2431504 0.031506244 100
0.14685452 1.2843354 0.057174169 100
0.16425085 1.262141 0.076777689 29
0.17223185 1.2519588 0.096989371 25
0.1697056 1.2551818 0.11982805 100
0.19054973 1.2285888 0.13452072 38
0.1483781 1.2823915 0.17444403 42
0.15823361 1.2734272 0.011134636 100
0.16975042 1.258628 0.032448292 89
0.16211218 1.2684433 0.055256739 99
0.17450508 1.2525182 0.075071514 30
0.18119556 1.2439208 0.095112152 25
0.17381296 1.2534075 0.11906482 100
0.18975905 1.2329166 0.13542053 30
0.15016913 1.2837903 0.17444403 42
0.17213386 1.2589016 0.010785587 65
0.175037 1.2551454 0.032134276 30
0.16742241 1.2649975 0.054733805 50
0.16760966 1.2647552 0.076777689 43
0.17793718 1.2513931 0.096363634 25
0.18176246 1.2464437 0.13901976 22
0.14478683 1.2942846 0.17754987 40
0.18123066 1.2507632 0.010576159 67
0.16466188 1.2723639 0.033180997 28
0.166814 1.2695582 0.055082429 75
0.18634 1.2441022 0.073365346 46
0.18090633 1.2511861 0.096050762 51
0.18795088 1.2420021 0.11563025 13
0.19299957 1.2354202 0.13542053 22
0.16082039 1.2773721 0.1713382 58
0.1779798 1.2583463 0.010715778 53
0.17601243 1.2609289 0.032343622 30
0.16364324 1.2771657 0.055779677 49
0.18911713 1.2437265 0.073121607 93
0.18968636 1.2429793 0.094173551 52
0.1942769 1.2369533 0.11410378 13
0.2004495 1.2288506 0.13317102 46
0.17304116 1.2648292 0.16667947 67
0.17253646 1.2692773 0.010925206 39
0.17299634 1.2686691 0.032762308 29
0.17271399 1.2690425 0.054733805 50
0.1896587 1.2466295 0.073365346 46
0.18784845 1.2490239 0.095112152 51
0.19480678 1.23982 0.1144854 13
0.20800972 1.2223563 0.13092151 40
0.17485732 1.2662075 0.16667947 67
0.17419419 1.2705264 0.010925206 52
0.18904239 1.2507504 0.031506244 31
0.18154857 1.2607312 0.053687938 52
0.19004935 1.2494092 0.073609084 77
0.20129952 1.2344254 0.091983467 53
0.19283038 1.2457052 0.11563025 13
0.20717156 1.2266046 0.13182132 31
0.18114457 1.2612693 0.16460891 69
0.1820052 1.2638828 0.010750682 79
0.18364686 1.2616795 0.032134276 30
0.17858797 1.268469 0.054385185 51
0.19299495 1.2491335 0.073365346 93
0.20654485 1.2309483 0.091044858 81
0.20278746 1.2359911 0.11295892 13
0.2088474 1.2278581 0.13182132 31
0.18756464 1.2564214 0.16253836 70
0.1908665 1.2555182 0.010541254 95
0.20080593 1.2420809 0.030773543 64
0.19099379 1.2553462 0.05281638 79
0.19703063 1.2471849 0.072877869 94
0.20345706 1.2384969 0.092296332 80
0.21142125 1.22773 0.11066922 14
0.2104477 1.2290461 0.13182132 31
0.19500896 1.249918 0.15995017 80
0.19256347 1.2567689 0.010541254 81
0.2071844 1.2368577 0.030354854 65
0.18561471 1.266232 0.053862248 100
0.19634861 1.2516141 0.073365346 46
0.20392534 1.2412959 0.092609204 93
0.20721111 1.2368213 0.1125773 13
0.22243279 1.2160919 0.1277722 16
0.18296543 1.2698398 0.16616182 68
0.19426477 1.2580136 0.010541254 81
0.21587512 1.2283676 0.029726824 67
0.17678645 1.2819912 0.055431053 99
0.20270923 1.2464292 0.072390392 95
0.20673621 1.2409048 0.092296332 80
0.20884269 1.2380149 0.1125773 13
0.23087943 1.2077839 0.12507279 16
0.18471244 1.2711179 0.16616182 68
0.18424761 1.2754529 0.010890301 91
0.20693946 1.2440937 0.03066887 64
0.1890879 1.2687638 0.053862248 100
0.18575484 1.2733699 0.076290213 100
0.21648824 1.2308978 0.090106249 96
0.21623307 1.2312504 0.11066922 14
0.22783989 1.2152103 0.12687239 16
0.19099393 1.2661297 0.16409127 77
0.20001364 1.257237 0.010471444 82
0.20859644 1.2452884 0.03066887 64
0.20245469 1.2538387 0.052119136 100
0.20025328 1.2569034 0.073609084 77
0.2111845 1.2416854 0.091983467 93
0.2201359 1.2292236 0.10990598 14
0.24076486 1.2005048 0.12237337 17
0.19610906 1.2626728 0.16253836 70
0.20868221 1.2486866 0.010262015 98
0.21025759 1.2464771 0.03066887 64
0.19489211 1.2680267 0.053513627 100
0.21117476 1.2451909 0.071659178 96
0.21283305 1.2428652 0.091983467 93
0.20920321 1.2479559 0.11410378 20
0.23208722 1.2158618 0.12642249 16
0.19895253 1.2623322 0.16202073 70
0.20342371 1.2596685 0.010471444 96
0.21653828 1.2411392 0.030250182 65
0.19893476 1.2660108 0.053165004 100
0.21742281 1.2398895 0.070684217 65
0.21790934 1.239202 0.091044858 100
0.19953164 1.2651675 0.11791996 39
0.23251969 1.2185595 0.12687239 24
0.20178929 1.2619777 0.16150309 78
0.2050494 1.260815 0.010471444 96
0.22843838 1.227536 0.029308135 100
0.195999 1.2736925 0.053862248 100
0.21898285 1.2409898 0.070684217 65
0.22514635 1.2322199 0.089480512 100
0.19778895 1.2711456 0.11906482 84
0.23512945 1.2180154 0.12642249 41
0.19342524 1.2773545 0.16616182 76
0.20218831 1.2685764 0.010611063 94
0.22432381 1.2368459 0.029831495 99
0.19775936 1.2749251 0.053862248 100
0.21835741 1.2453985 0.071171694 81
0.22676179 1.2333511 0.089480512 100
0.20178697 1.2691517 0.11830158 100
0.23000544 1.2287014 0.1291219 80
0.19961962 1.2722585 0.16409127 85
0.2107611 1.2599232 0.010401634 97
0.21799639 1.249474 0.030564198 97
0.2108663 1.2597712 0.052119136 100
0.21549857 1.2530813 0.072146654 63
0.22275844 1.2425969 0.091044858 100
0.22253135 1.2429248 0.11181407 98
0.22938982 1.2330199 0.13002171 80
0.20687377 1.2655373 0.16150309 86
0.21700388 1.2545123 0.010262015 98
0.22080335 1.2489841 0.030459527 65
0.21483499 1.2576681 0.051770512 100
0.2239331 1.2444303 0.070684217 81
0.22664782 1.2404803 0.090419121 100
0.23196816 1.2327392 0.10914274 92
0.22438532 1.2437723 0.13272113 94
0.20204034 1.2762845 0.16460891 77
0.21418965 1.2622795 0.010401634 97
0.22923037 1.2402307 0.029831495 66
0.2075572 1.2720025 0.053165004 100
0.22559115 1.2455655 0.070684217 65
0.22606573 1.2448699 0.091044858 100
0.22584093 1.2451994 0.11181407 98
0.23153192 1.2368567 0.13047162 96
0.21143025 1.2663246 0.16098544 72
0.21703118 1.2617929 0.010366729 41
0.22639477 1.247963 0.030250182 32
0.20596057 1.2781441 0.053687938 78
0.22947901 1.2434075 0.07019674 66
0.22883278 1.244362 0.090731993 100
0.22530031 1.2495794 0.1125773 96
0.23644111 1.2331245 0.1291219 96
0.21316481 1.2675035 0.16098544 72
0.21428859 1.2695913 0.010506349 40
0.22583723 1.2524052 0.030459527 32
0.21551514 1.267766 0.052467756 53
0.22891912 1.2478187 0.070684217 81
0.24040639 1.2307239 0.087916173 100
0.22259635 1.257228 0.11410378 96
0.23588583 1.2374512 0.13002171 96
0.22244585 1.257452 0.15736198 74
0.2204726 1.2641054 0.010366729 41
0.21422508 1.2734733 0.031715591 30
0.2238875 1.258985 0.051421888 55
0.23279181 1.2456336 0.07019674 82
0.24092048 1.2334452 0.088229038 98
0.23519209 1.2420346 0.1102876 92
0.2386007 1.2369236 0.12957181 96
0.22522125 1.2569852 0.15684435 74
0.22440678 1.2619177 0.010296919 28
0.23362237 1.2479944 0.03004084 33
0.22559637 1.2601204 0.051421888 55
0.23445401 1.246738 0.07019674 82
0.24035951 1.2378157 0.088854775 100
0.23792532 1.2414935 0.10990598 85
0.23593014 1.2445078 0.13137141 100
0.22265807 1.2645597 0.15891489 73
0.22393012 1.2663939 0.010366729 27
0.1892381 1.3192075 0.03443706 27
0.21637049 1.2779024 0.053165004 52
0.23394033 1.2511549 0.070684217 81
0.23440269 1.250451 0.091044858 100
0.23849517 1.2442207 0.1102876 85
0.2461476 1.232571 0.1277722 97
0.22014388 1.2721579 0.16098544 72
0.21675023 1.2808143 0.010645968 40
0.21715623 1.2801919 0.031924933 30
0.22449955 1.2689359 0.052119136 54
0.23762277 1.2488203 0.07019674 82
0.24562764 1.2365502 0.088229038 98
0.2389138 1.2468413 0.11066922 92
0.24653754 1.2351555 0.12822211 97
0.22488976 1.2683377 0.15943253 73
0.22722948 1.2685456 0.010366729 41
0.2319645 1.2612319 0.03066887 32
0.22624314 1.2700691 0.052119136 54
0.23821723 1.251574 0.070440479 49
0.25262582 1.2293189 0.086664692 86
0.24058017 1.2479243 0.11066922 85
0.25134033 1.2313044 0.12687239 90
0.22978094 1.2646047 0.15787962 73
0.23662317 1.2579472 0.010122396 85
0.24348074 1.2472696 0.029726824 67
0.23669145 1.2578409 0.05072464 56
0.23998439 1.2527137 0.070440479 65
0.24790651 1.2403784 0.08854191 98
0.24763852 1.2407956 0.10876112 87
0.25092694 1.2356753 0.1277722 81
0.23681566 1.2576475 0.15529142 75
0.24585146 1.2472337 0.0098780617 73
0.25266254 1.2365466 0.028994121 68
0.23518384 1.263972 0.051247578 82
0.24593878 1.2470968 0.069465525 49
0.25167358 1.2380984 0.087916173 84
0.25350434 1.2352258 0.10723466 81
0.24941224 1.2416465 0.1291219 88
0.22813708 1.2750289 0.1604678 72
0.24102089 1.2583791 0.010087491 71
0.24139735 1.2577841 0.030250182 98
0.2304323 1.2751157 0.052293446 80
0.24539992 1.2514575 0.069953002 49
0.24689072 1.2491012 0.089793384 69
0.24455222 1.2527974 0.11105084 84
0.25931305 1.2294662 0.12552269 90
0.23291218 1.2711959 0.15891489 65
0.24379078 1.257761 0.010052586 86
0.25690702 1.2368681 0.028889447 100
0.23325676 1.2745407 0.052119136 81
0.25763699 1.2357054 0.067515619 68
0.25276613 1.2434642 0.08854191 56
0.25041476 1.2472097 0.10952436 78
0.2660993 1.2222257 0.12327318 100
0.23466361 1.2722998 0.15891489 65
0.2413525 1.2656701 0.010192205 85
0.25650868 1.2413301 0.029098792 100
0.23616126 1.2740068 0.051944822 81
0.24255717 1.2637355 0.071415432 64
0.26076841 1.2344892 0.086664692 57
0.25009033 1.2516377 0.1102876 78
0.26260832 1.2315345 0.12552269 90
0.23854905 1.2701724 0.15787962 65
0.25044218 1.2548362 0.0099478718 73
0.25395653 1.2491481 0.029517479 100
0.2431587 1.2666245 0.051073264 83
0.2463693 1.2614281 0.070927955 48
0.26239154 1.235496 0.086664692 57
0.25486916 1.247671 0.10914274 78
0.26319683 1.2341926 0.12597258 90
0.24638939 1.2613956 0.15477379 67
0.25736207 1.2473547 0.0097733475 89
0.25354314 1.2535841 0.029726824 100
0.2501007 1.2591995 0.050201707 85
0.25534907 1.2506382 0.069221787 50
0.26401818 1.2364972 0.086664692 57
0.25448617 1.2520459 0.10990598 92
0.2556524 1.2501435 0.13002171 96
0.24709687 1.2640994 0.15529142 67
0.24863833 1.265458 0.010122396 85
0.2656121 1.237552 0.028680105 100
0.24766862 1.2670523 0.050898954 100
0.25599703 1.2533599 0.069465525 49
0.26359522 1.240868 0.087290429 57
0.26535279 1.2379785 0.10647142 81
0.26846987 1.2328537 0.12507279 92
0.24179599 1.2767074 0.15891489 65
0.25855106 1.2527593 0.0098431576 88
0.26716411 1.2384926 0.028680105 100
0.24931857 1.2680521 0.050898954 83
0.25760153 1.2543322 0.069465525 49
0.26720011 1.2384329 0.086664692 57
0.25574481 1.2574077 0.11066922 92
0.27403498 1.2271116 0.12327318 85
0.23948419 1.2843419 0.16098544 64
0.25407282 1.2640668 0.010052586 100
0.26469609 1.2463307 0.029098792 100
0.25105894 1.2690988 0.050898954 83
0.25827393 1.2570529 0.069709264 33
0.26883698 1.2394173 0.086664692 57
0.26350078 1.2483263 0.10837951 72
0.27162692 1.2347593 0.12507279 83
0.26126549 1.2520583 -0.0098082526 88
0.24723747 1.2754788 0.15787962 65
0.25988537 1.2582204 0.0099129668 87
0.26431996 1.2507577 0.029308135 100
0.2650165 1.2495855 0.048807215 88
0.25997582 1.2580682 0.069709264 49
0.27148637 1.2386976 0.086351827 58
0.26717803 1.245948 0.10761628 79
0.27822843 1.2273518 0.12282328 85
0.26294994 1.2530632 -0.0098082526 88
0.25788561 1.2615857 0.15322088 76
0.27276209 1.2402811 0.0095290141 76
0.26295701 1.2569135 0.029622151 100
0.26466867 1.2540101 0.049155839 87
0.26672181 1.2505273 0.068490572 50
0.27111778 1.2430704 0.086977564 57
0.26485306 1.2536973 0.10914274 85
0.27586794 1.2350127 0.12462288 83
0.26058441 1.2609382 0.15270324 68
0.2633864 1.2602839 0.0099129668 87
0.27079141 1.2476169 0.028994121 100
0.25638944 1.272253 0.050898954 83
0.27349409 1.2429936 0.067271881 69
0.27883512 1.2338572 0.085100345 58
0.26266456 1.2615187 0.11066922 78
0.28445855 1.2242377 0.12147357 77
0.26043582 1.2653313 0.15373851 68
0.26911223 1.254362 0.0097733475 89
0.27446419 1.245133 0.028784776 100
0.25814441 1.2732749 0.050898954 83
0.27215931 1.2491076 0.068003096 51
0.2814469 1.2330921 0.084787481 59
0.2683216 1.2557254 0.10914274 78
0.28311294 1.2302192 0.12282328 85
0.25441352 1.2797084 0.15787962 65
0.26564664 1.2639071 0.0099478718 73
0.27695474 1.2442654 0.028680105 100
0.25972694 1.2741892 0.050898954 83
0.27564672 1.2465374 0.067515619 51
0.28290308 1.2339334 0.084787481 59
0.26984894 1.2566079 0.10914274 85
0.28650469 1.2276777 0.12192347 93
0.26564664 1.2639071 -0.0099478718 86
0.26372731 1.2672408 0.15373851 68
0.26935577 1.2614236 0.0098780617 88
0.2786119 1.2452157 0.028680105 100
0.26840502 1.2630885 0.049678773 86
0.26845193 1.2630063 0.069709264 33
0.28452414 1.234863 0.084787481 59
0.27544364 1.2507634 0.10761628 79
0.28617108 1.2319791 0.12282328 85
0.26546475 1.268237 0.15373851 68
0.27616978 1.2537962 0.0097035384 90
0.27847099 1.2497306 0.028889447 100
0.27030042 1.2641661 0.049678773 86
0.27914727 1.2485356 0.067515619 51
0.27852684 1.2496319 0.087290429 71
0.27922577 1.248397 0.10685304 88
0.28698698 1.2346847 0.12327318 85
0.27118626 1.2626009 0.15166797 69
0.27786019 1.2547492 0.0097035384 90
0.28210267 1.2471923 0.028680105 100
0.26519966 1.2773007 0.050898954 83
0.2885935 1.2356305 0.065565705 53
0.27923572 1.2522991 0.087603301 57
0.27513084 1.2596109 0.10914274 78
0.2943345 1.2254043 0.12057377 77
0.26723322 1.2736785 0.15477379 67
0.27760831 1.2591903 0.0097733475 89
0.28959987 1.2376546 0.028052073 100
0.26212585 1.2869954 0.051770512 81
0.28249463 1.250415 0.067515619 51
0.28764787 1.2411602 0.085413218 58
0.28066197 1.2537062 0.10761628 79
0.29592571 1.226294 0.12057377 86
0.27468982 1.2644317 -0.0098780617 87
0.26899311 1.2746625 0.15477379 75
0.27931756 1.2601383 0.0097733475 89
0.28544059 1.2490509 0.028680105 100
0.27838013 1.2618357 0.049155839 87
0.28033459 1.2582966 0.068490572 50
0.29120407 1.2386147 0.084787481 59
0.28045386 1.2580807 0.10837951 79
0.29657793 1.228884 0.12102367 86
0.28196353 1.255347 0.14856213 71
0.28758723 1.2487115 0.0095290141 76
0.28694689 1.2498796 0.028680105 100
0.28375742 1.2556981 0.048458595 88
0.27996156 1.2626228 0.068978049 50
0.29552612 1.2342288 0.083848871 59
0.28859445 1.2468741 0.10570818 81
0.29708409 1.2313867 0.12147357 77
0.27701381 1.2680002 -0.0099129668 97
0.27698934 1.2680449 0.1521856 77
0.28543946 1.2566521 0.0096686333 90
0.28862357 1.250795 0.028680105 100
0.28545445 1.2566245 0.048458595 88
0.29116395 1.2461221 0.066540658 52
0.29714814 1.2351143 0.083848871 59
0.29401138 1.2408843 0.10418171 82
0.29590389 1.237403 0.12282328 76
0.27970892 1.2671933 -0.0098780617 87
0.27965221 1.2672975 0.15166797 69
0.28636169 1.2594248 0.0097035384 90
0.292366 1.2482783 0.02847076 100
0.28071079 1.2699153 0.049678773 86
0.2911112 1.2506077 0.067028143 51
0.2951887 1.2430382 0.085100345 58
0.29395923 1.2453206 0.10494494 75
0.27515054 1.2802374 0.15529142 75
0.28241858 1.270925 0.0099129668 87
0.29780123 1.242128 0.028052073 100
0.27682498 1.2813965 0.05072464 84
0.29466102 1.2480066 0.066540658 52
0.29099485 1.2548698 0.10685304 81
0.28524515 1.2656336 -0.0098082526 88
0.2787537 1.2777858 0.15425615 75
0.28416875 1.2718561 0.0099129668 87
0.28980303 1.2612193 0.048632905 88
0.29075599 1.2594202 0.068003096 51
0.29360792 1.2540361 0.10647142 73
0.28884888 1.2630205 -0.0097384425 88
0.28776202 1.2650723 0.15011504 78
0.29243115 1.2603884 0.0096686333 90
0.29738855 1.25095 0.02847076 100
0.29522508 1.255069 0.047935657 89
0.29431209 1.2568073 0.067515619 51
0.29986361 1.2462376 0.10456333 67
0.28685203 1.2710105 -0.0098780617 87
0.29308495 1.2591436 0.1480445 79
0.29537874 1.2589145 0.028889447 100
0.29417908 1.2612181 0.068003096 51
0.29211697 1.2651777 0.14959741 70
0.29494348 1.2639514 0.0097035384 90
0.29525423 1.2633495 0.029098792 100
0.28856242 1.2763093 0.049853086 57
0.29030165 1.2729409 0.15166797 69
0.29658288 1.2647945 0.0097035384 100
0.298417 1.2612134 0.048284281 59
0.29549348 1.2669215 0.14959741 70
0.29641375 1.2691978 0.0097733475 100
0.29643789 1.2691503 0.048981529 58
0.29369676 1.2745464 -0.0098780617 100
0.29889262 1.264318 0.14856213 79
0.29366064 1.2790099 -0.0099478718 100
0.29979664 1.2798274 -0.0099129668 100
