# .PCD v0.7 - Point Cloud Data file format
VERSION 0.7
FIELDS x y z intensity
SIZE 4 4 4 4
TYPE F F F F
COUNT 1 1 1 1
WIDTH 748
HEIGHT 1
VIEWPOINT 0 0 0 1 0 0 0
POINTS 748
DATA ascii
0.060426533 0.014969468 0.015707165 43
0.046983957 0.0059760213 0.047939736 100
0.045424163 0.0094008446 0.047835063 100
0.038199067 0.004614234 0.048253752 70
0.035530508 0.0064054132 0.048253752 35
0.030758202 0.0048102736 0.048463095 25
0.035980999 0.018168688 0.047730394 19
0.029960811 0.015033126 0.04804441 9
0.03871578 0.033261418 0.046997689 10
0.0084159374 0.00083148479 0.049300469 7
-0.79811448 0.64612567 0.023630558 3
-0.76067168 0.65394789 0.022967367 9
-0.73913211 0.66016227 0.022583414 6
-0.72753114 0.66541672 0.022373985 4
-0.70796973 0.67165834 0.022024937 4
-0.68435949 0.6776213 0.021606078 4
-0.66075391 0.68384922 0.021187222 4
-0.63710564 0.68969566 0.020768363 6
-0.63139194 0.69422394 0.020663649 16
-0.61767703 0.69919544 0.020419316 19
-0.59196335 0.70475471 0.019965554 21
-0.58419687 0.70916969 0.019825934 21
-0.57640368 0.71333301 0.019686315 15
-0.58458465 0.71689123 0.019825934 21
-0.58676094 0.72076547 0.019860838 21
-0.57893342 0.72505206 0.019721219 21
-0.57108992 0.72928333 0.019581599 19
-0.57921976 0.73293447 0.019721219 17
-0.60332829 0.73617291 0.020140078 22
-0.60343927 0.74019903 0.020140078 32
-0.57955033 0.74495864 0.019721219 17
-0.61162037 0.74830419 0.020279696 1
-1.0506334 1.1351242 0.028656852 2
-1.0233691 1.1289048 0.084574908 5
-1.0292454 1.1302453 0.14171524 6
-1.0279205 1.1357423 0.028272899 8
-0.99681288 1.1285319 0.083214171 13
-1.0279782 1.1357558 0.14171524 22
-1.0032766 1.1357481 0.02785404 22
-0.99166375 1.1330136 0.083004825 82
-1.03251 1.1426316 0.14223817 78
-0.99427551 1.1390378 0.027714422 38
-0.99822181 1.1399808 0.083423518 100
-1.015763 1.1441727 0.14084367 87
-0.98131818 1.1415967 0.027504992 43
-0.97945255 1.1411439 0.082481466 100
-0.99895781 1.1458771 0.13944919 92
-0.98396093 1.1476287 0.027574802 28
-0.9917888 1.1495557 0.083214171 100
-0.99770278 1.1510117 0.13944919 91
-0.97875339 1.1520114 0.027504992 23
-0.97301549 1.1505775 0.08227212 66
-0.99829632 1.1568948 0.13962349 79
-0.9773429 1.1576118 0.027504992 32
-0.97548205 1.1571397 0.082481466 38
-1.0007303 1.1635472 0.13997212 71
-0.97791713 1.1634396 0.027539898 52
-0.97605556 1.1629603 0.082586139 46
-0.9742642 1.162499 0.13770607 89
-0.96492583 1.1657382 0.027330469 67
-0.96501249 1.1657609 0.082062781 94
-0.97288483 1.1678174 0.13770607 91
-0.95193726 1.1679509 0.027121039 75
-0.9674831 1.1720699 0.08227212 96
-0.97341293 1.173641 0.13788038 98
-0.95053893 1.1731912 0.027121039 83
-0.94871086 1.1726999 0.081330076 98
-0.97007054 1.1784393 0.13770607 99
-0.95112318 1.1786902 0.027155945 93
-0.94158584 1.1760936 0.081016064 100
-0.9725526 1.1845245 0.1380547 99
-0.9459042 1.1826025 0.027086135 89
-0.93638021 1.1799755 0.080806717 100
-0.96348685 1.1874522 0.13735744 92
-0.94067591 1.1864846 0.027016325 96
-0.94078332 1.1865146 0.081120729 88
-0.95249969 1.1897881 0.13648589 98
-0.93899196 1.1924652 0.027016325 85
-0.94870645 1.1952214 0.081644088 82
-0.94696909 1.1947285 0.13613728 100
-0.96064621 1.2040269 0.027435184 47
-0.93001169 1.1952252 0.080702044 52
-0.95512694 1.2024412 0.13700883 99
-0.95343834 1.2073584 0.027330469 41
-0.91325134 1.1956677 0.079864666 25
-0.95942396 1.2090995 0.13753176 85
-0.94047028 1.208952 0.027121039 64
-0.92141122 1.203339 0.080388032 28
-0.94458085 1.2101625 0.13631158 84
-0.92352217 1.2098361 0.026841801 74
-0.92364079 1.2098715 0.080597371 28
-0.93150264 1.2122183 0.13526571 92
-0.90865582 1.2106719 0.026597468 78
-0.92982167 1.2170663 0.081016064 62
-0.9338426 1.218281 0.13561434 99
-0.91077703 1.2174408 0.026667276 88
-0.90517789 1.2157258 0.07976 100
-0.92830032 1.2228082 0.13526571 99
-0.91310531 1.2234664 0.026737086 88
-0.90369183 1.2205489 0.07976 95
-0.92679065 1.227708 0.13526571 84
-0.91524929 1.230024 0.026806897 85
-0.90965289 1.228267 0.080178685 74
-0.92130131 1.2319241 0.1349171 52
-0.90228039 1.2312485 0.026597468 85
-0.90812522 1.2331048 0.080178685 68
-0.90836793 1.233182 0.13387123 43
-0.8929655 1.2341191 0.026457848 85
-0.9102208 1.2396691 0.080388032 80
-0.9009704 1.2366939 0.13334829 48
-0.89522165 1.2401388 0.026527658 93
-0.89156169 1.2389481 0.07944598 100
-0.91457206 1.2464335 0.13474278 54
-0.89348882 1.2454326 0.026527658 100
-0.8841421 1.2423542 0.079131968 100
-0.91281599 1.2517983 0.13474278 77
-0.89190429 1.2502167 0.026527658 100
-0.88446277 1.2477385 0.079236634 100
-0.90553933 1.2547579 0.13421984 85
-0.87514287 1.2498904 0.02624842 93
-0.89044195 1.2550422 0.079655327 100
-0.89070636 1.2551312 0.13299966 80
-0.87354368 1.2546138 0.02624842 99
-0.88504416 1.2585289 0.07944598 100
-0.89852017 1.2631165 0.13387123 89
-0.86789137 1.2587729 0.02617861 93
-0.8718285 1.26013 0.078817949 100
-0.89284879 1.2673761 0.1335226 100
-0.8700394 1.2647879 0.02624842 85
-0.86642319 1.263528 0.07860861 100
-0.90812463 1.2780581 0.13509139 68
-0.87010235 1.2706542 0.026283324 75
-0.85518676 1.2653958 0.078085244 68
-0.89873654 1.2807491 0.13439415 38
-0.86466688 1.2740184 0.026213514 83
-0.85541767 1.2707231 0.078189917 27
-0.88389701 1.2808697 0.13317397 37
-0.84964138 1.2744539 0.025969181 93
-0.8667255 1.2806113 0.078922622 25
-0.8801406 1.2854463 0.13299966 31
-0.85171872 1.280461 0.026038991 96
-0.85751778 1.2825727 0.078503937 72
-0.88029557 1.2908678 0.13317397 16
-0.8536815 1.2867324 0.0261088 100
-0.84634846 1.2840329 0.077980578 100
-0.87659901 1.2951689 0.13299966 13
-0.85196024 1.2913843 0.0261088 100
-0.83714825 1.2858758 0.077561885 100
-0.8729822 1.2992023 0.13282534 1
-0.8349753 1.2911298 0.025829561 100
-0.84076518 1.2933084 0.077875905 46
-0.89331669 1.3130822 0.1349171 1
-0.82950109 1.2942989 0.025759751 88
-0.8483569 1.3014653 0.078399263 51
-0.84308511 1.2994616 0.130385 7
-0.83326274 1.3012619 0.025864467 74
-0.83903533 1.303479 0.077980578 59
-0.86354762 1.3128932 0.13247673 41
-0.83895093 1.3087385 0.026004085 75
-0.83167237 1.3059154 0.077666558 72
-0.8487367 1.3125342 0.13125655 86
-0.83696693 1.3138256 0.026004085 88
-0.81482345 1.3051432 0.07682918 63
-0.85415834 1.3205664 0.13195379 97
-0.82214111 1.3132691 0.025759751 100
-0.82975429 1.3162835 0.077771232 76
-0.82824272 1.3156849 0.12968774 97
-0.81280965 1.3150849 0.025620133 100
-0.83340234 1.3233215 0.078085244 95
-0.82632953 1.3204925 0.12968774 99
-0.81470293 1.3210988 0.025689943 100
-0.81859618 1.3226709 0.077352546 97
-0.83373374 1.3287838 0.1305593 100
-0.81267387 1.3260969 0.025689943 100
-0.81101376 1.3254194 0.077038527 100
-0.83905512 1.3368628 0.13125655 100
-0.81191248 1.3257861 0.18061037 22
-0.82191604 1.3351829 0.025899371 100
-0.7980842 1.3253651 0.076410495 100
-0.82611459 1.3369125 0.13021068 100
-0.78987211 1.3219819 0.17792924 20
-0.8013739 1.3325226 0.025550323 100
-0.7997275 1.3318373 0.076619841 100
-0.80379421 1.3335302 0.12829325 100
-0.7676807 1.3184975 0.17524812 16
-0.79212672 1.3339025 0.025410704 100
-0.80338091 1.338631 0.076933853 99
-0.80559164 1.3395598 0.12864187 100
-0.78598589 1.3313224 0.17792924 22
-0.79741389 1.3419433 0.025550323 99
-0.79209524 1.3396857 0.076410495 83
-0.80899698 1.3468599 0.12916481 100
-0.75833756 1.3253562 0.1745169 16
-0.81021482 1.3527079 0.025829561 59
-0.79754227 1.347279 0.07682918 40
-0.80707663 1.3513634 0.12916481 46
-0.76196283 1.332037 0.17524812 11
-0.81745261 1.3611829 0.026004085 79
-0.80662018 1.3564998 0.077457212 74
-0.8216005 1.3629762 0.13073361 41
-0.79288965 1.3505638 0.17963541 10
-0.79532307 1.3569186 0.025620133 100
-0.81015974 1.3633912 0.077771232 100
-0.81962663 1.3675213 0.13073361 100
-0.79095715 1.3550138 0.17963541 26
-0.78584319 1.3586202 0.025480513 100
-0.81528646 1.371594 0.078189917 100
-0.81742734 1.3725371 0.13073361 100
-0.78880388 1.3599248 0.17963541 33
-0.79667455 1.3687334 0.025724847 100
-0.80415899 1.372061 0.077666558 100
-0.80631894 1.3730214 0.12986206 100
-0.76325971 1.3538771 0.17646681 30
-0.79629534 1.3744843 0.025759751 100
-0.80194312 1.3770201 0.077666558 100
-0.81500512 1.382885 0.13090792 100
-0.75748891 1.3570603 0.17597933 20
-0.80885559 1.3855464 0.026038991 100
-0.79810351 1.3806759 0.077561885 100
-0.80207604 1.3824754 0.12986206 100
-0.77904183 1.3720412 0.17914793 19
-0.79375368 1.3849348 0.025794657 100
-0.80846161 1.3916655 0.07829459 100
-0.79971439 1.3876625 0.12986206 100
-0.78935581 1.3829222 0.18085411 17
-0.7917071 1.3893874 0.025794657 100
-0.81364602 1.3995154 0.078713275 100
-0.80851227 1.3971455 0.13090792 100
-0.76749057 1.3782082 0.17817298 12
-0.78953677 1.394067 0.025794657 100
-0.80238825 1.4000543 0.078189917 100
-0.80631489 1.4018837 0.13090792 100
-0.75816184 1.3794501 0.17719802 11
-0.79107958 1.4002067 0.025864467 100
-0.80209905 1.405385 0.07829459 100
-0.80781847 1.4080727 0.13125655 100
-0.75254041 1.3820962 0.17671055 5
-0.7994892 1.410496 0.026073895 100
-0.79964942 1.4105721 0.07829459 100
-0.81075829 1.4158444 0.13177948 100
-0.78604764 1.4041163 0.18158533 3
-0.79375046 1.4132407 0.026004085 100
-0.80832666 1.4202182 0.078922622 100
-0.80321771 1.4177725 0.13125655 100
-0.78980917 1.4168239 0.025969181 100
-0.80616301 1.4247191 0.078922622 100
-0.80823916 1.4257214 0.13195379 100
-0.7948485 1.4247646 0.0261088 100
-0.80218869 1.4283383 0.078817949 100
-0.80963999 1.4319661 0.13230242 100
-0.79579812 1.431923 0.02617861 99
-0.79595071 1.431998 0.07860861 100
-0.81054741 1.4391774 0.13265105 100
-0.80076152 1.4399362 0.02631823 100
-0.79911584 1.4391201 0.078922622 100
-0.80475098 1.4419149 0.13230242 100
-0.79137856 1.440834 0.02617861 100
-0.80224854 1.4462702 0.079236634 100
-0.80251545 1.4464037 0.13230242 100
-0.78557545 1.4434779 0.0261088 100
-0.8035652 1.4525492 0.07944598 100
-0.80026501 1.4508851 0.13230242 100
-0.790227 1.4519961 0.02624842 100
-0.79927438 1.4566 0.079341307 100
-0.81374162 1.4639618 0.13387123 100
-0.79507488 1.4600879 0.026388038 100
-0.79343611 1.4592471 0.079131968 100
-0.81675106 1.4712088 0.13439415 100
-0.79951793 1.4689261 0.026527658 100
-0.79787368 1.4680746 0.079550654 100
-0.80697173 1.4727864 0.13369691 100
-0.79364747 1.4715464 0.026457848 99
-0.79909235 1.4743892 0.07976 100
-0.80286759 1.4763603 0.1335226 100
-0.78057414 1.4706421 0.02624842 96
-0.80722862 1.4846776 0.080388032 100
-0.80215663 1.4820068 0.13369691 100
-0.79237372 1.4825511 0.026527658 38
-0.78544587 1.4788737 0.079236634 36
-0.80858725 1.4911575 0.13456847 80
0.16065025 1.2549462 0.010855397 13
0.13736698 1.2839463 0.03454173 27
0.098457694 1.3324089 0.063100755 19
0.16167513 1.2536699 0.098240845 12
0.14070499 1.2797887 0.12707879 17
0.19009191 1.2182759 0.13272113 7
0.12064376 1.3047755 0.18376152 6
0.15478003 1.2656155 0.011064826 38
0.1614877 1.2572039 0.032657638 59
0.1574662 1.262247 0.055082429 50
0.13415092 1.291485 0.081896201 13
0.15835479 1.2611327 0.099492319 12
0.14851791 1.2734684 0.12517071 72
0.19401041 1.2164197 0.13182132 15
0.15373525 1.2669257 0.17030293 14
0.16900933 1.2513806 0.010715778 100
0.16203651 1.2601907 0.032762308 88
0.15309063 1.2714939 0.055953987 97
0.15084845 1.2743268 0.078971334 28
0.17486855 1.2439774 0.095737889 25
0.16742346 1.2533844 0.11982805 100
0.18234572 1.2345301 0.13677025 45
0.15316144 1.2714044 0.1713382 43
0.16690034 1.2573577 0.010820492 100
0.17353857 1.2489129 0.031924933 100
0.14859936 1.2806392 0.056825545 95
0.16969797 1.2537987 0.07555899 15
0.17644238 1.2452189 0.095737889 25
0.17266837 1.2500199 0.1186832 100
0.19231838 1.2250223 0.13362093 38
0.14527529 1.2848678 0.17547931 49
0.16991919 1.2571819 0.010785587 100
0.18266761 1.2408412 0.031296901 94
0.15047365 1.2821069 0.056825545 100
0.17513689 1.250494 0.074827775 30
0.17818666 1.2465848 0.095737889 25
0.17322266 1.2529476 0.11906482 100
0.18919376 1.232476 0.13542053 30
0.14954171 1.2833015 0.17444403 42
0.16296324 1.2695045 0.011029921 89
0.16955131 1.2610021 0.032552965 59
0.15949601 1.2739794 0.055779677 73
0.16092622 1.2721336 0.077996381 28
0.1749295 1.2540611 0.096989371 25
0.18083864 1.2464348 0.11715672 46
0.18953577 1.2352104 0.13587044 30
0.15006283 1.2861538 0.17496167 35
0.17089161 1.2629938 0.010855397 65
0.17500603 1.2576435 0.032238949 30
0.17106214 1.2627721 0.054385185 51
0.17245001 1.2609673 0.076046467 29
0.18152288 1.2491689 0.095737889 38
0.1849809 1.2446721 0.11639348 13
0.1853036 1.2442524 0.13811995 22
0.15313497 1.2860847 0.17444403 56
0.17252851 1.2642484 0.010855397 65
0.16692713 1.2715826 0.033076324 29
0.16665182 1.2719431 0.055256739 49
0.18974352 1.2417076 0.072877869 47
0.18910876 1.2425387 0.094173551 52
0.19489831 1.2349581 0.11372216 20
0.19397512 1.2361668 0.13542053 30
0.16891921 1.2689742 0.16823238 60
0.17917415 1.2592539 0.010715778 53
0.15187806 1.2952673 0.03454173 27
0.16849411 1.2733448 0.055256739 49
0.1866785 1.2493529 0.073852822 46
0.19561598 1.2375611 0.092922069 53
0.19186127 1.242515 0.11524864 13
0.20392597 1.2265973 0.13227122 47
0.17075062 1.2703676 0.16823238 60
0.17358297 1.2700667 0.010925206 39
0.17043814 1.2742448 0.033076324 29
0.16896716 1.2761989 0.055431053 49
0.19304541 1.2442112 0.072877869 47
0.20073238 1.233999 0.091983467 53
0.19697225 1.2389944 0.11410378 13
0.21833363 1.210616 0.1273223 40
0.17241198 1.2716224 0.16823238 75
0.17524332 1.2713122 0.010925206 39
0.18407083 1.2595037 0.032029606 30
0.17899838 1.2662892 0.054210871 51
0.19461992 1.2453922 0.072877869 63
0.19872475 1.2399012 0.092922069 53
0.19265199 1.2480247 0.11601187 13
0.20812863 1.2273216 0.13182132 39
0.18564433 1.2573988 0.163056 70
0.19010431 1.2549535 0.010541254 81
0.20125508 1.239928 0.03066887 32
0.18904448 1.2563816 0.05299069 52
0.19036648 1.2546003 0.07409656 61
0.20036712 1.2411245 0.092922069 66
0.19783276 1.2445395 0.11486702 13
0.202759 1.2379016 0.13452072 31
0.18389407 1.2633218 0.16460891 69
0.18942711 1.2594268 0.010611063 81
0.20645151 1.2363186 0.030354854 65
0.18129039 1.2704712 0.054385185 76
0.19441509 1.2526562 0.073609084 77
0.20201379 1.2423421 0.092922069 79
0.2088072 1.233121 0.11181407 14
0.21364138 1.2265593 0.13092151 24
0.18676415 1.2630413 0.16409127 69
0.1911377 1.2606825 0.010611063 94
0.20690233 1.239127 0.030459527 65
0.17715883 1.2797961 0.055256739 99
0.20782053 1.2378715 0.071171694 65
0.19900024 1.2499318 0.094173551 100
0.20463109 1.2422326 0.11372216 13
0.23594409 1.1994174 0.12282328 17
0.18962783 1.2627469 0.16357364 69
0.19058949 1.2652313 0.010680873 93
0.21097028 1.2371485 0.030250182 65
0.17785957 1.2827718 0.055431053 74
0.20370784 1.2471554 0.072390392 95
0.21004373 1.2384253 0.091670595 100
0.20290482 1.2482619 0.11486702 13
0.2375201 1.2005656 0.12282328 17
0.18576279 1.2718819 0.16616182 68
0.19465813 1.2632378 0.010611063 81
0.21727285 1.231847 0.029831495 66
0.18547484 1.2759848 0.054559495 100
0.21001694 1.2419188 0.071415432 64
0.22207296 1.2251842 0.088854775 98
0.21490467 1.2351342 0.11143246 14
0.24016407 1.2000725 0.12237337 17
0.19203383 1.2668805 0.16409127 69
0.19638202 1.2644751 0.010611063 94
0.21191624 1.2427531 0.030459527 65
0.19187912 1.2707717 0.053862248 100
0.2012738 1.2576349 0.073609084 77
0.21676943 1.2359668 0.090731993 100
0.20625216 1.2506734 0.11486702 13
0.23486573 1.2106621 0.12507279 16
0.19826543 1.2618415 0.16202073 70
0.20968553 1.2494004 0.010262015 98
0.21588075 1.2406732 0.030250182 65
0.19824255 1.2655201 0.053165004 100
0.20412716 1.2572304 0.073365346 100
0.21039379 1.2484026 0.092922069 100
0.20906854 1.2502695 0.1144854 27
0.22738156 1.224472 0.128672 16
0.20222095 1.2599157 0.16098544 72
0.20666867 1.2570641 0.010401634 97
0.21744341 1.2417786 0.030250182 98
0.19300023 1.2764547 0.054210871 100
0.21946925 1.2389046 0.070440479 65
0.20742968 1.2559844 0.094173551 100
0.2027452 1.26263 0.11715672 59
0.22776765 1.2271322 0.1291219 32
0.19828233 1.2689612 0.16357364 69
0.2037853 1.2648133 0.010541254 95
0.21794724 1.244573 0.030354854 97
0.19705471 1.2744328 0.053862248 100
0.21086574 1.254694 0.072634131 63
0.22385019 1.2361364 0.090106249 96
0.20109037 1.268665 0.11830158 97
0.22824809 1.2298509 0.12957181 56
0.19781116 1.2733517 0.16460891 69
0.20551464 1.2660189 0.010541254 95
0.21960583 1.2457292 0.030354854 97
0.20790976 1.2625701 0.052467756 100
0.21482441 1.2526139 0.072146654 63
0.2254793 1.237272 0.090106249 100
0.21627188 1.2505296 0.11372216 82
0.23430169 1.2245688 0.1277722 81
0.20618221 1.2650576 0.16150309 86
0.2140578 1.2573397 0.010331824 98
0.22353557 1.2435907 0.030145511 98
0.21189281 1.2604804 0.052119136 100
0.22101769 1.2472434 0.071171694 65
0.22823352 1.2367756 0.089793384 100
0.22463682 1.2419932 0.11143246 84
0.22372416 1.2433171 0.13272113 94
0.21229813 1.2598925 0.15943253 81
0.22697046 1.2419494 0.0099827768 87
0.22285163 1.247967 0.030354854 65
0.20451838 1.2747521 0.053513627 100
0.22484455 1.2450554 0.070684217 65
0.22532022 1.2443604 0.091044858 100
0.22620377 1.2430695 0.11143246 100
0.22309414 1.2476127 0.13362093 100
0.21065104 1.2657923 0.16098544 72
0.21850649 1.257961 0.010296919 56
0.22901142 1.2424977 0.029936166 66
0.2006844 1.2841953 0.054385185 100
0.22092727 1.2543976 0.071902916 96
0.22475794 1.2487589 0.091670595 100
0.22896031 1.242573 0.11105084 98
0.23133373 1.2390792 0.13092151 100
0.21238375 1.2669737 0.16098544 72
0.21582663 1.2658056 0.010436539 41
0.23186162 1.2420149 0.029831495 33
0.21370688 1.2689507 0.05264207 53
0.22714278 1.249016 0.070927955 97
0.23424318 1.2384814 0.089480512 97
0.22959727 1.2453744 0.11143246 91
0.24285755 1.2257004 0.12687239 99
0.21636695 1.2650039 0.15995017 72
0.22200671 1.2603207 0.010296919 42
0.22018537 1.2630434 0.031087559 31
0.21212727 1.2750895 0.053165004 52
0.22881684 1.2501402 0.070927955 97
0.2358804 1.2395808 0.089480512 97
0.22689226 1.2530172 0.11295892 89
0.23903257 1.2348685 0.1291219 100
0.2245416 1.2565312 0.15684435 74
0.22584713 1.258074 0.01022711 42
0.21740225 1.2707894 0.031506244 31
0.22152004 1.2645893 0.051944822 54
0.21613362 1.2726996 0.07409656 92
0.23962504 1.2373288 0.088854775 98
0.23501274 1.2442734 0.11066922 92
0.23949769 1.2375205 0.12957181 96
0.22188163 1.2640449 0.15891489 73
0.22535181 1.2625419 0.010296919 42
0.2213507 1.2686121 0.031296901 31
0.21995902 1.2707236 0.052467756 53
0.23973972 1.2407131 0.069221787 83
0.23908398 1.241708 0.089480512 100
0.24207243 1.237174 0.10876112 94
0.24005908 1.2402287 0.13002171 96
0.222545 1.2668002 0.15943253 73
0.22808188 1.2619424 0.010262015 28
0.21863145 1.2763842 0.031715591 30
0.21943939 1.2751496 0.05281638 53
0.23912844 1.2450615 0.069709264 99
0.23524171 1.2510011 0.091044858 100
0.23932332 1.2447637 0.1102876 99
0.25015658 1.2282088 0.12642249 90
0.22419426 1.2678833 0.15943253 73
0.22871193 1.2647402 0.010296919 42
0.22475222 1.2708377 0.031296901 31
0.21903443 1.2796423 0.053165004 52
0.24078861 1.2461438 0.069709264 83
0.24875718 1.2338732 0.087603301 99
0.23991317 1.2474918 0.11066922 85
0.25069651 1.2308869 0.12687239 99
0.22382984 1.272258 0.1604678 72
0.23269331 1.2625524 0.01022711 42
0.24389628 1.2451621 0.029622151 33
0.2284576 1.2691274 0.051944822 54
0.2414608 1.2489427 0.069953002 66
0.24938959 1.2366349 0.087916173 84
0.24591824 1.2420235 0.10914274 85
0.25027704 1.2352574 0.1277722 97
0.23299643 1.2620819 0.15684435 74
0.23872292 1.2569176 0.010087491 86
0.24232945 1.251276 0.029936166 66
0.23556757 1.2618533 0.051073264 83
0.23992684 1.2550344 0.070684217 65
0.25527623 1.231024 0.086664692 71
0.25285503 1.2348113 0.10723466 88
0.25400218 1.233017 0.12687239 90
0.23991874 1.2550471 0.15425615 75
0.24248227 1.2545704 0.010017681 72
0.25141841 1.2404892 0.029203463 100
0.23506519 1.2662578 0.051421888 82
0.23834598 1.2610881 0.071415432 96
0.25257283 1.2386702 0.087916173 70
0.24703428 1.2473975 0.10990598 92
0.25345084 1.2372867 0.1277722 81
0.24049377 1.2577038 0.15477379 75
0.24417561 1.2556409 0.010017681 72
0.25199825 1.2432187 0.029308135 100
0.234676 1.270726 0.051770512 81
0.25487143 1.2386563 0.068003096 51
0.25000006 1.2463918 0.089167647 84
0.25079492 1.2451296 0.10914274 85
0.25923756 1.231723 0.12597258 99
0.23602146 1.2685895 0.15787962 65
0.24172011 1.2635427 0.0101573 71
0.25585088 1.2409198 0.029098792 100
0.23862439 1.2684988 0.051421888 82
0.25448781 1.2431021 0.068490572 50
0.25802714 1.2374358 0.087290429 71
0.25357842 1.244558 0.10876112 79
0.26506135 1.2261744 0.12417299 92
0.23989785 1.2664599 0.15684435 74
0.24651971 1.2594635 0.010052586 86
0.25530919 1.2452877 0.029308135 100
0.24447879 1.2627553 0.05072464 84
0.24978197 1.2542021 0.069953002 49
0.26374257 1.231686 0.086038955 58
0.24377373 1.2638924 0.11295892 75
0.27068323 1.2204919 0.12237337 76
0.24358189 1.2642019 0.15580906 67
0.25032571 1.2571136 0.0099827768 87
0.25278389 1.2531179 0.029726824 100
0.24306872 1.2689097 0.051247578 100
0.24731335 1.2620101 0.070927955 48
0.2612156 1.2394123 0.087290429 57
0.25064319 1.2565975 0.11105084 98
0.26510966 1.2330827 0.12552269 90
0.25138241 1.2553959 0.15270324 68
0.25402701 1.2546914 0.0099129668 87
0.25855118 1.2472825 0.029308135 100
0.24576321 1.2682244 0.051073264 100
0.25929204 1.2460692 0.068490572 50
0.26277381 1.2403674 0.087290429 71
0.25839746 1.2475343 0.10876112 72
0.26664686 1.2340248 0.12552269 90
0.24896649 1.2629786 0.15477379 75
0.25891316 1.2506415 0.0098082526 89
0.26237172 1.2449307 0.029098792 100
0.23933443 1.2829698 0.052467756 80
0.26515222 1.2403396 0.067515619 51
0.26040655 1.2481756 0.08854191 70
0.26116666 1.2469205 0.10837951 87
0.27137801 1.2300596 0.12417299 83
0.24477085 1.2739933 0.15787962 65
0.25123668 1.2670292 0.010122396 85
0.26600614 1.2424583 0.028889447 100
0.24411657 1.2788743 0.051944822 81
0.26466808 1.2446843 0.068003096 51
0.27217072 1.2322028 0.085413218 73
0.25566968 1.2596543 0.11105084 84
0.27892897 1.2209597 0.12147357 77
0.24445331 1.2783141 0.15891489 65
0.25613219 1.2629678 0.010017681 72
0.25955826 1.2572205 0.029726824 100
0.24904433 1.2748578 0.051421888 82
0.25827819 1.2593679 0.069953002 49
0.27386665 1.233218 0.085413218 73
0.25746632 1.2607298 0.11105084 84
0.2775901 1.2269719 0.12282328 85
0.25621033 1.2628367 0.15373851 68
0.26285967 1.2553344 0.0098431576 88
0.26931143 1.2444295 0.028889447 100
0.26390874 1.2535613 0.049155839 87
0.26091337 1.2586241 0.069709264 66
0.27138087 1.2409316 0.086664692 57
0.26709265 1.2481797 0.10799789 79
0.27613014 1.2329042 0.12417299 83
0.25981361 1.260483 0.15270324 68
0.26455554 1.2563338 0.0098431576 88
0.27096921 1.2454064 0.028889447 100
0.2635814 1.2579935 0.049504463 86
0.26965451 1.2476463 0.068003096 51
0.27502623 1.238494 0.086038955 58
0.27174482 1.2440848 0.10685304 81
0.2767612 1.235538 0.12462288 83
0.26152748 1.261493 0.15270324 68
0.27019581 1.250366 0.0097035384 90
0.27355251 1.2446032 0.028784776 100
0.26118997 1.2658272 0.050201707 100
0.26924172 1.2520039 0.068490572 50
0.27359858 1.2445241 0.086977564 57
0.26837772 1.2534872 0.10876112 100
0.28321072 1.2280221 0.12237337 76
0.25732487 1.2724627 0.15580906 67
0.26587161 1.2617283 0.0099129668 87
0.2732124 1.2490239 0.028994121 100
0.2579385 1.2754579 0.051073264 83
0.27092594 1.2529811 0.068490572 50
0.27822152 1.2403549 0.086038955 58
0.27497825 1.2459679 0.10685304 66
0.28871098 1.2222012 0.12057377 77
0.26387069 1.2651912 -0.0099827768 75
0.25714755 1.2768266 0.15684435 66
0.26650909 1.2644026 0.0099478718 73
0.27579591 1.2482066 0.028889447 100
0.26853591 1.2608678 0.049504463 86
0.26956677 1.25907 0.069221787 50
0.2846958 1.2326853 0.084474608 59
0.26874548 1.2605023 0.10990598 92
0.28536516 1.231518 0.12282328 85
0.26651752 1.2643878 0.15270324 68
0.27137366 1.2602718 0.0098431576 88
0.27072629 1.261411 0.029622151 100
0.27140722 1.2602128 0.049330149 87
0.27046591 1.2618691 0.069465525 49
0.2894024 1.2285484 0.083536007 60
0.2842114 1.2376825 0.10456333 75
0.28713921 1.2325307 0.12282328 85
0.27032694 1.2621136 0.15166797 69
0.27693006 1.2542257 0.0097035384 90
0.27431953 1.2588549 0.029412808 100
0.27303433 1.2611339 0.049330149 87
0.27794909 1.2524188 0.068003096 51
0.2792806 1.2500577 0.087290429 57
0.28190628 1.2454016 0.1060898 88
0.29058895 1.2300049 0.12192347 85
0.27006251 1.2664038 0.15270324 68
0.28065842 1.2517326 0.0096337283 90
0.28196126 1.2494024 0.028784776 100
0.273864 1.2638848 0.049504463 86
0.28359407 1.246482 0.067028143 51
0.28778997 1.2389774 0.085100345 58
0.28173435 1.2498082 0.10685304 81
0.29227668 1.2309526 0.12192347 76
0.26245615 1.2842884 0.15787962 65
0.2764369 1.2631149 0.0098431576 88
0.28549027 1.2467957 0.028575432 100
0.26293829 1.287447 0.051770512 81
0.28324962 1.2508345 0.067515619 51
0.28934658 1.2398443 0.085100345 58
0.27951729 1.2575623 0.10837951 87
0.29569739 1.2283967 0.12102367 86
0.27166051 1.2717246 0.15373851 68
0.2800878 1.2605628 0.0097733475 89
0.2910074 1.2407165 0.028156744 100
0.26858807 1.2814634 0.051073264 83
0.28110194 1.2587196 0.068490572 50
0.29194048 1.2390206 0.084787481 59
0.28216726 1.2567834 0.10799789 79
0.29542023 1.2326962 0.12192347 85
0.27526793 1.2693229 -0.0099478718 86
0.27713862 1.2659228 0.15166797 69
0.28459051 1.2561896 0.0096686333 90
0.2829999 1.2591033 0.029203463 100
0.27792296 1.2684035 0.049678773 86
0.28462639 1.2561238 0.068003096 51
0.29444373 1.23814 0.084474608 59
0.29036784 1.2456064 0.10532656 82
0.29788974 1.2318274 0.12147357 69
0.27884156 1.2667208 -0.0098780617 87
0.28248727 1.2600424 0.14959741 70
0.29407057 1.2431341 0.0093893949 77
0.28678039 1.2566115 0.028994121 100
0.28552628 1.25893 0.048632905 88
0.29121724 1.2484092 0.066784397 52
0.29624316 1.2391177 0.084474608 59
0.29219595 1.2465998 0.10532656 82
0.29688337 1.2379341 0.12282328 85
0.2797752 1.2695619 0.1521856 77
0.29091311 1.2527903 0.0095639192 91
0.29406202 1.2469225 0.028366089 100
0.28055426 1.2720933 0.049853086 57
0.28811178 1.2580104 0.068003096 51
0.29966834 1.2364755 0.083848871 59
0.29377782 1.247452 0.10532656 75
0.27869281 1.2755619 0.15373851 68
0.28986701 1.2590331 0.0096686333 75
0.29956359 1.2408042 0.0279474 100
0.28052497 1.2765955 0.050201707 85
0.29176667 1.2554618 0.067515619 51
0.29766899 1.2443659 0.085100345 58
0.2936855 1.2518545 0.1060898 81
0.28235415 1.2731568 -0.0099478718 86
0.27691862 1.2833753 0.15580906 67
0.29149014 1.2598929 0.0096686333 90
0.29553354 1.2522305 0.028575432 100
0.29522413 1.2528168 0.047761347 90
0.2915251 1.2598268 0.068003096 51
0.29345232 1.2561746 0.10685304 73
0.28589064 1.2705045 -0.0098780617 97
0.28944159 1.2637751 0.14959741 78
0.29691005 1.2537051 0.0095290141 92
0.29721838 1.2531158 0.028575432 100
0.29691103 1.2537032 0.047761347 90
0.28955528 1.2677615 0.068978049 50
0.2857852 1.274967 -0.0099478718 86
0.29295799 1.2612582 0.14856213 71
0.29943666 1.2527668 0.0094941091 92
0.29974192 1.2521787 0.02847076 100
0.29759863 1.2563082 0.047935657 89
0.29102874 1.2689666 0.15063268 70
0.29754904 1.2607949 0.0096337283 100
0.29756007 1.2607735 0.048284281 59
0.29109201 1.2733482 0.15166797 69
0.29565415 1.2687514 0.048981529 58
0.29109529 1.2776909 0.15270324 76
0.29653051 1.2713494 0.068978049 100
0.2928614 1.2786067 -0.0099478718 100
0.2972272 1.2699714 0.15011504 78
0.29374233 1.2812889 -0.0099827768 100
0.29909283 1.2752278 0.15115032 77
