# .PCD v0.7 - Point Cloud Data file format
VERSION 0.7
FIELDS x y z intensity
SIZE 4 4 4 4
TYPE F F F F
COUNT 1 1 1 1
WIDTH 746
HEIGHT 1
VIEWPOINT 0 0 0 1 0 0 0
POINTS 746
DATA ascii
0.05468601 0.0020119548 0.015951499 123
0.050438225 0.0013298392 0.04804441 42
0.04762429 0.0031660199 0.04804441 32
0.050452203 0.013258457 0.047521047 100
0.040070772 0.0033659339 0.048253752 96
0.038509786 0.0068097115 0.048149079 71
0.032763243 0.0034535527 0.048463095 34
0.035705209 0.013522208 0.047939736 18
0.04196769 0.028592825 0.047102362 20
0.02803576 0.013934493 0.048149079 8
0.018690526 0.0058304667 0.048777111 8
0.031793714 0.035667896 0.047102362 10
-1.0625122 0.6677016 0.028203089 7
-1.0468905 0.67428809 0.02792385 21
-1.0452185 0.67997551 0.027888946 16
-1.0515137 0.68522733 0.02799366 20
-1.0597887 0.69042325 0.028133279 15
-1.0720553 0.69577551 0.028342709 28
-1.0723045 0.70143795 0.028342709 22
-1.0765302 0.70694637 0.028412517 15
-1.0867329 0.71227199 0.028587041 20
-1.1069112 0.71735048 0.02893609 12
-1.1290727 0.72251266 0.029320043 16
-1.1252229 0.72818077 0.029250233 15
-1.1353548 0.733814 0.029424757 12
-1.1534598 0.73907638 0.029738901 16
-1.1675537 0.7448175 0.029983234 12
-1.1836278 0.75063437 0.030262472 11
-1.1916833 0.75662458 0.030402092 16
-1.0523913 1.136408 0.028691756 5
-1.0134459 1.1275026 0.084051549 5
-1.0368257 1.1328486 0.14241248 6
-1.0199375 1.1347582 0.028133279 8
-0.99857038 1.1297939 0.083318844 18
-1.0336087 1.1379346 0.14223817 34
-1.0088594 1.1382115 0.027958754 27
-0.99140996 1.1340898 0.083004825 88
-1.0167372 1.1400722 0.14084367 81
-0.98034126 1.1371199 0.027470088 38
-1.005667 1.1431954 0.083842203 100
-1.0057487 1.1432151 0.13997212 95
-0.97905046 1.1424596 0.027470088 45
-0.98300904 1.1434238 0.082690813 100
-1.0005651 1.1477003 0.13962349 82
-0.97774094 1.1477947 0.027470088 23
-0.97587961 1.1473343 0.082376793 100
-1.0011711 1.1535888 0.13979781 86
-0.98029202 1.1540989 0.027539898 23
-0.97455317 1.1526585 0.082376793 52
-1.0036876 1.1599711 0.14014643 76
-0.98087972 1.1599318 0.027574802 36
-0.97127277 1.1574848 0.08227212 36
-0.99266332 1.1629332 0.13927488 78
-0.96595663 1.1617708 0.027330469 59
-0.98538071 1.1667905 0.083109498 56
-0.97392112 1.1638291 0.13770607 89
-0.95877689 1.1655388 0.027225753 67
-0.97625846 1.1701217 0.082690813 100
-0.98024625 1.1711671 0.13840333 92
-0.9496569 1.1687475 0.027086135 78
-0.95169014 1.1692882 0.081434749 90
-0.97691101 1.1759943 0.13822901 98
-0.95597881 1.1760623 0.027225753 78
-0.95221561 1.1750476 0.081539422 98
-0.97933191 1.1823591 0.13857763 100
-0.96612567 1.1844807 0.027435184 83
-0.94115978 1.1776555 0.081016064 100
-0.9586646 1.1824409 0.13683452 100
-0.94154495 1.1833616 0.027016325 96
-0.9474265 1.1849917 0.081434749 100
-0.95721573 1.1877046 0.13683452 94
-0.94009286 1.1885656 0.027016325 92
-0.94789165 1.1907563 0.081539422 88
-0.9557485 1.1929632 0.13683452 94
-0.94823915 1.196502 0.027190849 72
-0.93104631 1.1916077 0.080702044 76
-0.95617908 1.1987622 0.13700883 100
-0.95649964 1.2039744 0.027365373 55
-0.92587608 1.1951528 0.080492698 44
-0.95482463 1.2034919 0.13700883 99
-0.95305604 1.2086701 0.027330469 42
-0.91671389 1.1980636 0.080074012 22
-0.94756454 1.2070675 0.13648589 84
-0.92850393 1.2071109 0.026911611 71
-0.92287201 1.2054458 0.080492698 26
-0.92692333 1.2066436 0.13474278 85
-0.91547519 1.2088274 0.026702182 74
-0.92516965 1.2117302 0.080702044 30
-0.9292075 1.2129394 0.13509139 98
-0.91592568 1.2142646 0.026737086 78
-0.9236967 1.2166197 0.080702044 80
-0.92963725 1.21842 0.13526571 99
-0.91818935 1.2205522 0.026806897 81
-0.90685374 1.2170737 0.079864666 100
-0.92806298 1.2235823 0.13526571 100
-0.91660768 1.2256744 0.026806897 88
-0.91100627 1.2239341 0.080178685 86
-0.92266542 1.2275566 0.1349171 80
-0.89974767 1.2259912 0.026527658 85
-0.91322333 1.2302296 0.080388032 70
-0.91725808 1.2314987 0.13456847 54
-0.89044517 1.2288737 0.026388038 81
-0.90962356 1.2349833 0.080283359 72
-0.90796322 1.2344544 0.13387123 43
-0.90025395 1.2375808 0.026597468 83
-0.90418977 1.2388498 0.080074012 86
-0.90822929 1.2401521 0.13404553 45
-0.89481086 1.2413998 0.026527658 96
-0.88735431 1.2389669 0.079236634 100
-0.9160499 1.2483294 0.1349171 57
-0.89323968 1.2461884 0.026527658 100
-0.88958472 1.2449824 0.07944598 100
-0.90877944 1.2513156 0.13439415 78
-0.88018793 1.2474241 0.02631823 100
-0.88981241 1.2506371 0.079550654 100
-0.89953095 1.2538812 0.13369691 85
-0.87480742 1.2508852 0.02624842 93
-0.88821059 1.255409 0.079550654 100
-0.8979184 1.2586854 0.13369691 75
-0.87303537 1.2561042 0.02624842 93
-0.88075179 1.2587402 0.079236634 100
-0.89988834 1.2652771 0.13404553 91
-0.87141556 1.2608205 0.02624842 92
-0.86590809 1.2589188 0.078503937 100
-0.90012127 1.2707326 0.13421984 92
-0.87715822 1.2686654 0.026388038 79
-0.86222106 1.2634462 0.078399263 97
-0.88699096 1.2721012 0.13317397 60
-0.86795443 1.2707318 0.02624842 81
-0.8624602 1.2687917 0.078503937 57
-0.88907546 1.2781904 0.1335226 43
-0.85857707 1.2732344 0.0261088 88
-0.86814588 1.2766531 0.078922622 23
-0.88720316 1.2834616 0.1335226 41
-0.85690051 1.2779026 0.0261088 99
-0.8551864 1.2772839 0.07829459 42
-0.8779965 1.2855184 0.13282534 24
-0.85502952 1.2830558 0.0261088 96
-0.85894603 1.2844859 0.07860861 82
-0.87796897 1.2914324 0.13299966 16
-0.85707265 1.2890965 0.02617861 100
-0.8553583 1.2884641 0.078503937 100
-0.86688572 1.2927167 0.1321281 9
-0.84401006 1.2898128 0.025969181 100
-0.84418303 1.2898774 0.077980578 91
-0.89118809 1.3074051 0.13456847 1
-0.83105057 1.2902035 0.025759751 100
-0.83684427 1.2923858 0.077666558 46
-0.87075299 1.3051583 0.13282534 1
-0.83651751 1.2983507 0.025899371 79
-0.8348282 1.297707 0.077666558 51
-0.8500697 1.303515 0.13108224 11
-0.83289152 1.3022274 0.025864467 71
-0.83120674 1.301579 0.077561885 63
-0.8631683 1.3138798 0.13247673 48
-0.83848017 1.3099504 0.026004085 74
-0.83492714 1.3085687 0.077875905 68
-0.8538335 1.3159209 0.13177948 100
-0.82737547 1.3108971 0.025829561 93
-0.82197922 1.308778 0.077247873 61
-0.83717924 1.3147471 0.130385 100
-0.81423193 1.3115152 0.025620133 100
-0.82742077 1.3167503 0.077666558 82
-0.8296178 1.3176224 0.12986206 95
-0.81614107 1.3175241 0.025689943 100
-0.82374614 1.320572 0.077561885 95
-0.83519179 1.3251593 0.1305593 100
-0.8217327 1.3250515 0.025829561 100
-0.81635851 1.322877 0.077247873 97
-0.8481186 1.3357283 0.13195379 100
-0.77675241 1.306851 0.17573559 11
-0.81618208 1.3280849 0.025759751 100
-0.80897075 1.3251392 0.076933853 100
-0.816724 1.3283063 0.12916481 100
-0.79517931 1.3195053 0.17841671 17
-0.80663604 1.3302734 0.025620133 100
-0.80129117 1.328066 0.076619841 100
-0.81825322 1.3350711 0.12951343 100
-0.80223328 1.3284551 0.17963541 15
-0.79738766 1.3316913 0.025480513 100
-0.80865055 1.3363864 0.0771432 97
-0.8182109 1.3403718 0.12968774 100
-0.77289015 1.3214788 0.17597933 18
-0.79173273 1.3348393 0.025410704 100
-0.79009801 1.3341511 0.076201156 96
-0.81621152 1.3451444 0.12968774 100
-0.77827531 1.329174 0.17695428 28
-0.80447549 1.3457779 0.025689943 96
-0.7862826 1.3380442 0.076096483 76
-0.80869478 1.3475715 0.12916481 99
-0.7653541 1.3291477 0.17549185 16
-0.82083315 1.3583896 0.026038991 61
-0.81549233 1.3560972 0.077875905 42
-0.81033212 1.3538823 0.12951343 33
-0.78710836 1.3439143 0.17866045 7
-0.80592722 1.3576052 0.025794657 90
-0.80977303 1.3592718 0.077666558 89
-0.82656687 1.3665496 0.13125655 48
-0.80148965 1.3556821 0.18085411 10
-0.7909413 1.3569579 0.025550323 100
-0.81675237 1.3682561 0.078189917 100
-0.81524521 1.3675964 0.130385 100
-0.78842288 1.3558557 0.17939167 28
-0.79437143 1.3640599 0.025655037 100
-0.80369467 1.3681797 0.077561885 100
-0.81497318 1.3731636 0.1305593 100
-0.77184397 1.3541052 0.17744176 30
-0.80142087 1.3728222 0.025829561 100
-0.80889446 1.3761559 0.077980578 100
-0.80922037 1.3763013 0.13021068 100
-0.78430027 1.3651853 0.17939167 28
-0.80842525 1.3816408 0.026004085 100
-0.80677027 1.3808956 0.077980578 100
-0.80346221 1.3794061 0.12986206 100
-0.76049358 1.3600593 0.17646681 20
-0.78828901 1.3776382 0.025655037 100
-0.8157559 1.3901093 0.07860861 100
-0.79065615 1.3787129 0.12881619 100
-0.77851599 1.3732009 0.17914793 15
-0.7897957 1.3839722 0.025724847 100
-0.81721431 1.3965369 0.078817949 100
-0.80301327 1.3900292 0.13021068 100
-0.778207 1.3786615 0.17939167 15
-0.78742832 1.389112 0.025724847 100
-0.80211121 1.395909 0.078085244 100
-0.80423874 1.3968937 0.1305593 100
-0.76325005 1.3779197 0.1776855 11
-0.79975301 1.4005477 0.026004085 100
-0.80353719 1.4023156 0.07829459 100
-0.81106776 1.4058335 0.13143086 100
-0.76112002 1.3824999 0.1776855 11
-0.80138367 1.4064891 0.026073895 100
-0.80335087 1.4074156 0.078399263 100
-0.80365616 1.4075594 0.13090792 100
-0.77894384 1.3959203 0.18036664 3
-0.79192919 1.407769 0.025934275 100
-0.80652934 1.4147079 0.078713275 100
-0.80142242 1.4122808 0.13090792 100
-0.78958267 1.4126831 0.025934275 100
-0.80775875 1.4214034 0.078922622 100
-0.80624467 1.4206769 0.13160518 100
-0.79273087 1.4199691 0.026038991 100
-0.80367893 1.4252687 0.078817949 100
-0.81113845 1.4288795 0.13230242 100
-0.79416209 1.4261725 0.0261088 100
-0.79970378 1.4288778 0.078713275 100
-0.80894607 1.4333895 0.13230242 100
-0.79903919 1.4343946 0.02624842 100
-0.80097908 1.4353499 0.078922622 100
-0.80662209 1.4381292 0.13230242 100
-0.79301363 1.4375545 0.02617861 100
-0.79674286 1.4394081 0.078817949 100
-0.80416411 1.4430969 0.13230242 100
-0.79067522 1.4422383 0.02617861 100
-0.80868119 1.4512668 0.079655327 100
-0.80893046 1.4513919 0.13299966 100
-0.79200786 1.448485 0.02624842 100
-0.79928488 1.4521642 0.079236634 100
-0.81021959 1.4576924 0.13334829 100
-0.79675704 1.4567993 0.026388038 100
-0.80045396 1.4586844 0.07944598 100
-0.82023519 1.4687723 0.13456847 100
-0.79790789 1.4633255 0.026457848 100
-0.80514604 1.4670485 0.079864666 100
-0.80715722 1.468083 0.1335226 100
-0.79192942 1.4661846 0.026388038 100
-0.80270463 1.4717746 0.079864666 100
-0.797638 1.469146 0.13282534 100
-0.7825256 1.4669237 0.02624842 99
-0.8056795 1.4790335 0.080178685 100
-0.80237406 1.4773047 0.1335226 100
-0.78715962 1.4753026 0.026388038 92
-0.79259676 1.4781704 0.079550654 100
-0.80870825 1.4866687 0.13439415 100
-0.79339212 1.4848958 0.026562562 24
-0.78822905 1.4821483 0.07944598 23
-0.81486672 1.4963237 0.13526571 52
0.1282737 1.2924645 0.13051336 5
0.16857702 1.2459235 0.010645968 13
0.11907998 1.3076837 0.036111809 25
0.16124856 1.2550676 0.054385185 25
0.16209733 1.2540085 0.098240845 12
0.15097225 1.26789 0.12402584 24
0.18560845 1.2246723 0.13452072 7
0.15735477 1.2599261 0.16823238 7
0.16526017 1.253511 0.010785587 39
0.16075453 1.2591734 0.032762308 58
0.15426019 1.2673349 0.055605363 49
0.15447357 1.2670667 0.077996381 14
0.16378921 1.2553596 0.098240845 24
0.16004717 1.2600623 0.12173614 87
0.19326469 1.218317 0.13227122 15
0.14703864 1.2764103 0.17340876 21
0.16438583 1.2579219 0.010855397 100
0.16609403 1.2557606 0.032448292 100
0.15220544 1.273334 0.056128297 97
0.15735495 1.2668183 0.077752642 28
0.16785052 1.253538 0.097615108 24
0.15923977 1.2644334 0.12249938 100
0.18508676 1.2317288 0.13587044 45
0.14752233 1.2792596 0.1739264 42
0.16115361 1.2655578 0.010995016 100
0.18135422 1.2398136 0.031296901 100
0.14904514 1.2809892 0.056825545 100
0.16399321 1.2619389 0.076777689 29
0.18173492 1.2393284 0.094486415 39
0.16702774 1.2580717 0.12059128 100
0.19512156 1.2222681 0.13272113 39
0.15288007 1.2761018 0.17237349 42
0.16279909 1.2668445 0.010995016 100
0.17923108 1.2457595 0.031610917 92
0.15564072 1.2760299 0.056128297 97
0.16806713 1.2600847 0.076290213 29
0.18572181 1.2374308 0.093860678 39
0.17347559 1.2531447 0.11906482 100
0.18704018 1.2357391 0.13632034 30
0.15693557 1.2743685 0.1713382 43
0.16829297 1.263515 0.010890301 78
0.18586501 1.2407959 0.03119223 63
0.16481176 1.268016 0.055082429 75
0.16379353 1.2693324 0.077508904 29
0.1681008 1.2637634 0.098866582 24
0.18005341 1.2483097 0.11753834 26
0.19113412 1.2339833 0.13542053 22
0.15287724 1.2834463 0.1739264 28
0.18333146 1.247334 0.010506349 81
0.16674462 1.268927 0.032971654 29
0.16767907 1.2677106 0.054908119 75
0.17633495 1.2564422 0.075315252 90
0.18899396 1.2399626 0.093860678 52
0.18403351 1.2464201 0.1167751 13
0.18317771 1.2475342 0.13901976 22
0.15811259 1.2801642 0.17237349 57
0.17521316 1.2612662 0.010785587 52
0.19020689 1.2416127 0.031087559 31
0.16812316 1.2705597 0.055082429 50
0.18637842 1.2466309 0.073609084 62
0.1929507 1.238016 0.093234941 53
0.1963326 1.2335831 0.11334054 13
0.19894725 1.2301558 0.13362093 38
0.17269579 1.2645659 0.16667947 67
0.17201382 1.2688818 0.010925206 39
0.18694818 1.2491708 0.031506244 31
0.16858196 1.2734113 0.055256739 49
0.18436456 1.2525808 0.074340299 46
0.19211876 1.2423465 0.093860678 52
0.19194376 1.2425774 0.11524864 13
0.19929826 1.2328707 0.13407083 46
0.1696713 1.2719736 0.16875002 81
0.17161706 1.2735925 0.010995016 38
0.17447758 1.2697854 0.032762308 29
0.18496779 1.255824 0.053165004 52
0.19107449 1.2476965 0.073365346 46
0.20469725 1.2295659 0.091044858 54
0.19148505 1.2471502 0.11601187 13
0.20935342 1.223369 0.13092151 32
0.16936848 1.2765852 0.16978529 66
0.1852482 1.2588177 0.010645968 66
0.18091479 1.2646251 0.032343622 30
0.18538931 1.2586286 0.053339314 52
0.18672469 1.256839 0.074584037 76
0.20149767 1.2370412 0.092296332 53
0.20481044 1.2326016 0.11219569 14
0.21785131 1.2151251 0.12822211 32
0.18491447 1.2592649 0.16357364 69
0.19052765 1.2552674 0.010541254 81
0.19334331 1.2514664 0.031401575 62
0.18235332 1.2663023 0.054036561 77
0.1978792 1.2453432 0.072634131 78
0.19607508 1.2477787 0.094173551 65
0.20409009 1.2369589 0.11295892 13
0.20896733 1.2303748 0.13227122 31
0.18432471 1.263641 0.16460891 69
0.18976888 1.2596784 0.010611063 81
0.19730893 1.2494289 0.03119223 63
0.18400115 1.2675188 0.054036561 77
0.20298636 1.2417113 0.071902916 96
0.20585531 1.2378113 0.091983467 93
0.21029398 1.2317777 0.11143246 14
0.21857929 1.220515 0.1291219 24
0.18367416 1.2679632 0.16564418 68
0.19148037 1.2609328 0.010611063 81
0.20251831 1.2458183 0.030878214 63
0.18338999 1.2720113 0.054385185 100
0.20814726 1.2381103 0.071171694 81
0.20982039 1.2358192 0.09135773 94
0.20380303 1.2440591 0.11410378 13
0.23509467 1.2012103 0.12327318 17
0.18769327 1.2661186 0.16460891 69
0.18841442 1.2685943 0.010750682 92
0.21113339 1.2372668 0.030250182 65
0.18388703 1.2748371 0.054559495 100
0.20503983 1.2456694 0.072146654 79
0.21020725 1.2385439 0.091670595 100
0.19500369 1.2595083 0.11753834 13
0.23767042 1.2006747 0.12282328 8
0.19160873 1.2641896 0.16357364 69
0.19500256 1.2634858 0.010611063 94
0.21293005 1.2385645 0.030250182 98
0.19513607 1.2633002 0.053165004 100
0.19991344 1.256659 0.073609084 62
0.2177766 1.2318273 0.090106249 96
0.21637595 1.2337744 0.11105084 14
0.23932639 1.2018707 0.12282328 17
0.19802147 1.2592891 0.16150309 70
0.20826462 1.2483885 0.010262015 98
0.21216381 1.2429302 0.030459527 97
0.19214138 1.2709591 0.053862248 100
0.20037529 1.2594327 0.073852822 46
0.21012408 1.2457855 0.092609204 93
0.20992744 1.2460608 0.11372216 20
0.23962748 1.2044842 0.12327318 17
0.19852301 1.2620256 0.16202073 78
0.2005972 1.2625673 0.010541254 95
0.22528949 1.2277575 0.029412808 100
0.19611007 1.268893 0.053513627 100
0.21003985 1.2492557 0.072146654 79
0.21284661 1.2452989 0.092296332 100
0.2092362 1.2503885 0.1144854 27
0.23205012 1.2182268 0.12687239 16
0.19009718 1.2773695 0.16667947 67
0.19762632 1.2702626 0.010680873 93
0.21990839 1.2386289 0.03004084 66
0.19547173 1.2733215 0.053862248 100
0.20934471 1.2536261 0.072634131 78
0.21783724 1.2415693 0.09135773 100
0.19726434 1.2707765 0.11906482 58
0.23241606 1.2208719 0.1273223 32
0.18733174 1.2848778 0.16875002 81
0.20175335 1.2682726 0.010611063 94
0.21933991 1.2431097 0.030250182 98
0.20188433 1.2680852 0.053165004 100
0.21339393 1.2516172 0.072146654 95
0.2286208 1.2298306 0.088854775 98
0.20135149 1.2688476 0.11830158 100
0.23295435 1.2236302 0.1277722 73
0.19807476 1.273536 0.16460891 77
0.20796803 1.2628534 0.010471444 96
0.21863317 1.2474853 0.030459527 97
0.20808172 1.2626896 0.052467756 100
0.19688439 1.2788243 0.076046467 89
0.22676867 1.2357624 0.089793384 100
0.22315562 1.2409687 0.11143246 91
0.2244609 1.2390878 0.13182132 94
0.20965931 1.2604163 0.15995017 72
0.21893328 1.2509854 0.010192205 85
0.22499868 1.2421733 0.03004084 99
0.2122353 1.2607164 0.052119136 100
0.22247645 1.2458377 0.070927955 97
0.22183946 1.2467632 0.091670595 100
0.22385326 1.2438374 0.11181407 84
0.22626445 1.2403344 0.13182132 94
0.21154487 1.2617195 0.15995017 72
0.21601683 1.2586844 0.010331824 84
0.22431237 1.2465464 0.030250182 65
0.20487085 1.2749932 0.053513627 100
0.22853652 1.2403656 0.069953002 99
0.22565144 1.2445869 0.091044858 100
0.22653413 1.2432954 0.11143246 91
0.2322242 1.2349697 0.13002171 96
0.20663708 1.2724088 0.163056 70
0.21772468 1.2598473 0.010331824 84
0.23718962 1.2311516 0.029203463 68
0.20104346 1.2844391 0.054385185 76
0.22015116 1.2562701 0.072146654 79
0.23507234 1.234273 0.088854775 98
0.22377983 1.2509207 0.11295892 100
0.2338492 1.2360761 0.13002171 96
0.20947739 1.2720056 0.16253836 70
0.21153149 1.2725567 0.010576159 40
0.22756362 1.2487522 0.030250182 32
0.21499407 1.2674154 0.052467756 53
0.22620112 1.2507752 0.071171694 81
0.23992407 1.2303995 0.087916173 100
0.21989289 1.2601416 0.11486702 100
0.23430789 1.2387383 0.13047162 96
0.20898566 1.2763367 0.16357364 69
0.2178196 1.267143 0.010436539 41
0.21156663 1.2765014 0.031924933 30
0.22567472 1.2553871 0.051073264 55
0.22575971 1.2552599 0.071659178 96
0.24051616 1.2331753 0.088229038 98
0.23259884 1.2450244 0.11105084 84
0.2371107 1.238272 0.13002171 96
0.22264984 1.2599142 0.15787962 73
0.22618794 1.2583003 0.01022711 42
0.20892143 1.2843378 0.032343622 30
0.22296652 1.2631581 0.051770512 54
0.23842645 1.2398449 0.069221787 83
0.2355845 1.2441305 0.090106249 96
0.23425892 1.2461295 0.11105084 91
0.23443916 1.2458576 0.13182132 94
0.22222662 1.2642739 0.15891489 81
0.21470237 1.2794724 0.010645968 40
0.2107189 1.2855251 0.032343622 30
0.22578529 1.2626324 0.051596198 54
0.23570317 1.2475624 0.07019674 66
0.23724145 1.2452252 0.090106249 96
0.23808146 1.2439487 0.1102876 92
0.24681538 1.2306778 0.1273223 97
0.22182986 1.2686424 0.15995017 72
0.2230438 1.2705944 0.010436539 41
0.22344214 1.2699845 0.031296901 31
0.21443281 1.2837784 0.053687938 52
0.24062863 1.2436707 0.069465525 99
0.24538341 1.2363908 0.088229038 100
0.23651701 1.2499659 0.11143246 91
0.2484253 1.2317333 0.1273223 97
0.22251606 1.2714024 0.1604678 72
0.2290574 1.2649645 0.010296919 42
0.22510195 1.2710645 0.031296901 31
0.22806203 1.2664995 0.051770512 54
0.2346411 1.2563531 0.071171694 81
0.25230524 1.2291112 0.086664692 86
0.24024659 1.2477082 0.11066922 85
0.24677747 1.2376362 0.128672 97
0.23153779 1.2611392 0.15684435 74
0.24160787 1.2492654 0.0099478718 73
0.25495273 1.2285265 0.028575432 70
0.2384221 1.2542163 0.05037602 56
0.23956326 1.2524428 0.070440479 49
0.24963397 1.2367922 0.087916173 84
0.24404073 1.2454846 0.10990598 85
0.24630266 1.2419693 0.12957181 96
0.23429948 1.2606232 0.1563267 74
0.23897791 1.2570806 0.010087491 71
0.24258149 1.2514371 0.029936166 66
0.2379697 1.2586595 0.05072464 56
0.24018085 1.2551967 0.070684217 65
0.24913898 1.2411677 0.08854191 70
0.2488721 1.2415856 0.10876112 72
0.25109833 1.2380992 0.12822211 97
0.22977588 1.2714915 0.15943253 73
0.24496126 1.2514067 0.0099478718 73
0.2453329 1.2508202 0.029831495 66
0.23434535 1.2681606 0.051596198 54
0.24931386 1.2445375 0.068978049 50
0.25290009 1.2388778 0.087916173 56
0.24421522 1.252584 0.11105084 84
0.25586322 1.2342014 0.12687239 90
0.23049435 1.2742381 0.15995017 64
0.24230054 1.2591863 0.010087491 57
0.25224608 1.2433747 0.029308135 100
0.23069495 1.277637 0.052467756 80
0.24877527 1.2488927 0.069465525 49
0.25656009 1.2365162 0.087290429 85
0.24372661 1.2569191 0.11181407 84
0.26259208 1.2269264 0.12462288 83
0.23628256 1.2687538 0.15787962 65
0.23871604 1.2687393 0.010262015 84
0.25601527 1.2410226 0.029098792 100
0.23246887 1.2787485 0.052467756 80
0.24414241 1.2600453 0.070927955 48
0.26446581 1.227483 0.085413218 73
0.25582311 1.2413304 0.10799789 72
0.26212516 1.2312332 0.12552269 90
0.24007118 1.2665682 0.15684435 66
0.24686149 1.2596754 0.010052586 86
0.25564107 1.2454932 0.029308135 100
0.2532126 1.2494161 0.049330149 87
0.25012007 1.2544116 0.069953002 49
0.25782636 1.2419633 0.087916173 70
0.25238568 1.2507519 0.10990598 92
0.26279187 1.2339423 0.12597258 90
0.24392697 1.2644156 0.15580906 67
0.25589898 1.248803 0.0098082526 74
0.24998522 1.2584308 0.03004084 100
0.24758831 1.262333 0.05055033 84
0.25389078 1.2520725 0.069465525 66
0.25947559 1.2429802 0.087916173 56
0.26228601 1.2384048 0.10685304 66
0.26033327 1.2415839 0.1277722 97
0.24161023 1.2720654 0.15787962 65
0.25445011 1.2549495 0.0099129668 87
0.25688899 1.2509476 0.029517479 100
0.24101377 1.2769963 0.051944822 81
0.25764146 1.2497129 0.068978049 50
0.2631844 1.2406179 0.087290429 71
0.25370577 1.2561707 0.11066922 78
0.26806605 1.2326078 0.12507279 92
0.2413539 1.2764382 0.15891489 65
0.2561447 1.2559781 0.0099129668 87
0.26270336 1.2451315 0.029098792 100
0.24794 1.269547 0.051073264 83
0.26137206 1.2473332 0.068490572 50
0.26687315 1.2382355 0.086664692 57
0.25337294 1.2605621 0.11143246 84
0.27774927 1.2202485 0.12147357 77
0.24512279 1.2742062 0.15787962 65
0.24943832 1.2706144 0.010192205 85
0.26419744 1.2460316 0.029098792 100
0.25053644 1.2687854 0.050898954 83
0.25878584 1.2550452 0.069465525 49
0.27342957 1.2306547 0.085100345 58
0.25491554 1.2614915 0.11143246 91
0.27615583 1.2261138 0.12282328 85
0.2506859 1.2685364 0.15580906 67
0.26142091 1.2544804 0.0098431576 88
0.267905 1.2435945 0.028889447 100
0.2573773 1.261269 0.050027397 85
0.26454416 1.2492368 0.068490572 50
0.27099571 1.2384057 0.086351827 58
0.26969382 1.2405914 0.10647142 73
0.27276337 1.2354381 0.12507279 83
0.25638238 1.2629392 0.15373851 68
0.2704004 1.2435313 0.0095988233 76
0.26363263 1.2549932 0.029517479 100
0.25825277 1.2641046 0.050201707 85
0.26436782 1.2537482 0.068978049 50
0.26978323 1.2445766 0.087290429 57
0.26351723 1.2551887 0.10952436 85
0.27554339 1.2348211 0.12462288 75
0.2582773 1.2640631 0.15373851 76
0.26902291 1.2496808 0.0097035384 90
0.26835576 1.2508198 0.029203463 100
0.26199335 1.2616816 0.049853086 85
0.2720781 1.244465 0.067515619 51
0.27144152 1.2455518 0.087290429 57
0.26918179 1.2494096 0.10799789 72
0.2811074 1.2290503 0.12282328 93
0.25805083 1.2684122 0.15477379 67
0.26952597 1.2522898 0.0097384425 90
0.2789042 1.2361634 0.028261416 100
0.26153621 1.2660286 0.050201707 85
0.27157417 1.2487679 0.068003096 51
0.27889523 1.2361789 0.085413218 58
0.26772839 1.2553809 0.10914274 78
0.28646955 1.2231544 0.12102367 94
0.26248899 1.2643902 -0.0099827768 86
0.25184867 1.2826868 0.15891489 73
0.26921269 1.2567302 0.0098082526 74
0.27853703 1.240567 0.02847076 100
0.25530469 1.280839 0.051596198 82
0.27324709 1.2497368 0.068003096 51
0.28052413 1.2371224 0.085413218 58
0.26746231 1.2597643 0.10990598 78
0.2851316 1.2291355 0.12237337 85
0.26621497 1.2619267 -0.0099129668 87
0.26136282 1.2703376 0.15477379 67
0.27099854 1.257756 0.0098082526 89
0.27431348 1.2519608 0.029098792 100
0.27597493 1.2490562 0.048284281 88
0.2681078 1.2628098 0.069709264 49
0.28518048 1.2329628 0.084474608 59
0.27218369 1.2556841 0.10876112 87
0.2877838 1.2284117 0.12192347 85
0.27279061 1.2546231 0.14959741 70
0.28158423 1.2430738 0.0094941091 92
0.27205503 1.2598686 0.029517479 100
0.27273273 1.2586743 0.049155839 87
0.28256476 1.2413456 0.066540658 52
0.28387368 1.2390387 0.085413218 58
0.2806626 1.244698 0.1060898 95
0.28650051 1.234409 0.12327318 76
0.26495051 1.2723901 0.15477379 67
0.27449596 1.25974 0.0098082526 74
0.27972785 1.2504398 0.028889447 100
0.26866451 1.2701061 0.050201707 85
0.28040099 1.2492431 0.067515619 51
0.28172049 1.2468976 0.086664692 57
0.285292 1.2405488 0.10494494 75
0.29298171 1.2268795 0.12102367 86
0.26300508 1.2801664 0.15684435 66
0.28010455 1.2537137 0.0096686333 75
0.28919187 1.2374272 0.028052073 100
0.26749954 1.2763047 0.05072464 84
0.28594446 1.2432473 0.066540658 52
0.29204932 1.232306 0.083848871 59
0.27832678 1.2568998 0.10837951 87
0.27328408 1.2659376 -0.0099129668 87
0.26667023 1.277791 0.15580906 67
0.27290577 1.270303 0.0099827768 87
0.28485554 1.2487273 0.028680105 100
0.28067538 1.2562747 0.048632905 88
0.27973822 1.2579668 0.068490572 50
0.29350299 1.233114 0.083848871 59
0.28461376 1.2491639 0.10647142 73
0.2922408 1.2353929 0.12282328 76
0.27290577 1.270303 -0.0099827768 96
0.27762681 1.2617791 0.15063268 70
0.27754208 1.2660091 0.0098780617 73
0.28075877 1.2601532 0.029308135 100
0.28237444 1.2572118 0.048632905 88
0.28335461 1.2554275 0.068003096 51
0.29321903 1.2374693 0.084474608 59
0.29006881 1.2432044 0.10494494 82
0.29855797 1.2277498 0.12057377 77
0.27754208 1.2660091 -0.0098780617 76
0.28306544 1.2559539 0.14856213 71
0.28701243 1.2529548 0.0095988233 61
0.28446737 1.2576287 0.029098792 100
0.28035069 1.2651886 0.049330149 87
0.2908316 1.2459412 0.066540658 52
0.29398942 1.2401421 0.084787481 59
0.28992715 1.2476022 0.10570818 81
0.2946457 1.2389369 0.12327318 85
0.27649292 1.2722731 -0.0099827768 96
0.28300059 1.2603222 0.14959741 78
0.28679949 1.2573889 0.0096686333 90
0.29945749 1.2339492 0.027633386 100
0.28208086 1.2661269 0.049330149 87
0.29060805 1.2503364 0.067028143 51
0.29469347 1.242771 0.085100345 58
0.290663 1.2502346 0.1060898 81
0.27824786 1.2732247 -0.0099827768 86
0.27737018 1.2748499 0.15373851 68
0.28936151 1.2564964 0.0096337283 90
0.29722461 1.2418195 0.028052073 100
0.28090486 1.2722812 0.049853086 57
0.29126486 1.2529438 0.067271881 69
0.29906121 1.2383914 0.084161744 59
0.28947553 1.2562835 0.10723466 81
0.28558415 1.2635471 -0.0097733475 88
0.28087044 1.2723455 0.15270324 68
0.29199949 1.2556373 0.0095988233 76
0.2988731 1.242699 0.028052073 100
0.28733358 1.26442 0.048981529 87
0.29202092 1.255597 0.067515619 51
0.28841132 1.2623913 0.10837951 72
0.28543219 1.2679989 -0.0098431576 87
0.28625101 1.2664577 0.15063268 70
0.29564458 1.2530409 0.0095290141 76
0.29409334 1.2559868 0.028784776 100
0.29286069 1.2583277 0.048284281 88
0.28547832 1.2723475 0.069709264 99
0.29662088 1.2511868 0.10570818 66
0.29347298 1.257165 0.14752686 71
0.29733226 1.2539258 0.0095290141 92
0.29116932 1.2657294 0.029308135 100
0.29087827 1.2662868 0.048981529 87
0.29733986 1.2539113 0.067028143 51
0.28900254 1.2698793 -0.0098431576 97
0.29338682 1.2614824 0.14856213 71
0.29442635 1.263684 0.0097035384 90
0.29841056 1.2559879 0.028680105 100
0.28803235 1.2760352 0.049853086 57
0.29243955 1.2675219 0.15011504 78
0.29432493 1.2681313 0.0097733475 89
0.28525138 1.2858093 0.05072464 56
0.29891142 1.2591954 0.067515619 51
0.29329565 1.2701366 0.15063268 70
0.29603204 1.2688706 0.068734311 100
0.29416376 1.2725405 -0.0098431576 100
0.29846132 1.2640988 0.14856213 71
0.29783255 1.274226 0.069221787 83
0.29952973 1.2796963 -0.0099129668 100
