# .PCD v0.7 - Point Cloud Data file format
VERSION 0.7
FIELDS x y z intensity
SIZE 4 4 4 4
TYPE F F F F
COUNT 1 1 1 1
WIDTH 728
HEIGHT 1
VIEWPOINT 0 0 0 1 0 0 0
POINTS 728
DATA ascii
0.064081907 0.00075918436 0.015881689 18
0.063607275 7.8082085e-06 0.047730394 40
0.060922474 0.0017103553 0.047730394 51
0.057165205 0.0017411113 0.047835063 72
0.048184693 0.0051867962 0.047939736 29
0.042213619 0.0019449592 0.048253752 100
0.039535701 0.0037221313 0.048253752 78
0.035884619 0.0037605762 0.048358422 51
0.036037982 0.015711725 0.047835063 18
0.027756155 0.0092774034 0.048358422 17
0.02750808 0.014299095 0.048149079 8
0.015740752 0.0030167103 0.048986454 7
0.012837887 0.0099331141 0.048777111 8
-1.0316601 1.1284735 0.084993593 3
-1.0414054 1.1306822 0.14276111 6
-1.036288 1.1350572 0.028412517 7
-1.0032134 1.1274456 0.083528183 7
-1.0285509 1.1332766 0.14171524 11
-1.0212455 1.1379538 0.028168185 11
-1.0076632 1.134773 0.083842203 58
-1.0290842 1.1397893 0.14188954 52
-1.0025072 1.1390004 0.02785404 35
-0.99672955 1.1376272 0.083318844 100
-1.0181575 1.1427202 0.14101799 95
-0.98565871 1.1406639 0.027574802 40
-0.99737829 1.1434927 0.083423518 100
-0.99941581 1.1439846 0.13944919 92
-0.9824788 1.1452787 0.027539898 33
-0.97867185 1.1443464 0.082481466 100
-1.0020375 1.1500683 0.13979781 84
-0.97714561 1.1501939 0.027470088 23
-0.97722322 1.1502132 0.082481466 80
-1.0005667 1.1560248 0.13979781 86
-0.97393769 1.1547666 0.027435184 26
-0.98176342 1.1567425 0.082795486 37
-1.0050735 1.1626278 0.14032075 68
-0.96864313 1.1593562 0.027365373 45
-0.97259694 1.16037 0.082376793 36
-0.98625427 1.1638715 0.13875194 85
-0.96734363 1.1643901 0.027365373 61
-0.97322708 1.1659193 0.082481466 80
-0.96951312 1.1649541 0.13735744 91
-0.9543559 1.1666254 0.027155945 71
-0.97569829 1.1722524 0.082690813 95
-0.97005183 1.1707636 0.13753176 94
-0.94909865 1.1708411 0.027086135 81
-0.95499009 1.1724164 0.081644088 94
-0.97056836 1.1765819 0.13770607 99
-0.9554103 1.1781646 0.027225753 92
-0.93622726 1.1729635 0.080702044 100
-0.96721691 1.1813657 0.13753176 100
-0.95397645 1.183417 0.027225753 92
-0.94058913 1.1797371 0.081016064 100
-0.96577173 1.1866593 0.13753176 98
-0.94489163 1.1862564 0.027086135 93
-0.94499439 1.186285 0.081330076 96
-0.9567042 1.1895458 0.13683452 94
-0.93958038 1.1903858 0.027016325 89
-0.94929868 1.1931285 0.081644088 82
-0.94947809 1.1931791 0.13631158 100
-0.95725483 1.2013444 0.027365373 61
-0.92469567 1.1920266 0.080388032 68
-0.95174795 1.1997684 0.1366602 100
-0.95189875 1.2054893 0.027295563 48
-0.91937703 1.1960592 0.080178685 26
-0.95406586 1.2061176 0.13700883 91
-0.94077629 1.2079113 0.027121039 59
-0.9236297 1.2028745 0.080492698 24
-0.94106454 1.2079959 0.13596296 84
-0.92007214 1.2074095 0.026771991 74
-0.9201954 1.2074462 0.080388032 26
-0.93952662 1.2131981 0.13596296 91
-0.9090398 1.2093989 0.026597468 78
-0.92638642 1.2146229 0.080806717 42
-0.93232542 1.2164115 0.13544002 98
-0.91514808 1.2168224 0.026737086 85
-0.90763181 1.2145302 0.079864666 100
-0.93266386 1.2221642 0.13561434 100
-0.91740078 1.223114 0.026806897 88
-0.90416282 1.2190263 0.07976 95
-0.93107647 1.2273369 0.13561434 91
-0.91581017 1.2282335 0.026806897 83
-0.90068036 1.2235036 0.079655327 82
-0.92186457 1.2301261 0.1349171 63
-0.89513654 1.2273141 0.026457848 85
-0.90480107 1.2303724 0.079969339 66
-0.90505308 1.2304522 0.1335226 46
-0.89734024 1.2335758 0.026527658 81
-0.91269559 1.2384939 0.080492698 78
-0.9015395 1.2349207 0.13334829 48
-0.89571327 1.238625 0.026527658 93
-0.89775175 1.2392858 0.07976 100
-0.91317493 1.2442852 0.13456847 52
-0.88646823 1.2411757 0.026388038 99
-0.89041144 1.2424691 0.07944598 100
-0.9171899 1.2512527 0.13509139 71
-0.89248997 1.2484548 0.026527658 100
-0.88314968 1.2453568 0.079131968 100
-0.90802163 1.2536064 0.13439415 82
-0.88701946 1.2522148 0.026457848 96
-0.89284259 1.2541689 0.07976 100
-0.88932472 1.2529883 0.13282534 88
-0.86639172 1.2508001 0.0261088 93
-0.88925248 1.2585604 0.079655327 100
-0.89517659 1.2605714 0.1335226 86
-0.86848742 1.2570401 0.02617861 96
-0.8743152 1.2590412 0.078922622 100
-0.89722425 1.266907 0.13387123 94
-0.87055677 1.2633007 0.02624842 88
-0.8631658 1.2607341 0.078399263 100
-0.90865582 1.2765307 0.13509139 85
-0.87637311 1.2709066 0.026388038 79
-0.86144418 1.2656639 0.078399263 76
-0.90311915 1.2802991 0.13474278 47
-0.86330944 1.2718675 0.02617861 83
-0.85782331 1.2699194 0.07829459 40
-0.89006382 1.281368 0.13369691 31
-0.85025662 1.2727435 0.025969181 96
-0.86546856 1.2782052 0.078817949 17
-0.88076931 1.2836986 0.13299966 33
-0.85225254 1.2789929 0.026038991 96
-0.84866673 1.2776912 0.077980578 59
-0.88645869 1.291409 0.13369691 17
-0.85422188 1.2852621 0.0261088 100
-0.84876102 1.2832584 0.078085244 100
-0.8696664 1.2909293 0.13230242 13
-0.84866494 1.28877 0.026038991 100
-0.8525787 1.2902215 0.078399263 100
-0.86597127 1.2951889 0.1321281 3
-0.83561093 1.2894373 0.025829561 100
-0.83953327 1.2909077 0.077771232 55
-0.87159187 1.3029258 0.13282534 1
-0.82630938 1.2914369 0.025689943 96
-0.84330958 1.2978778 0.078085244 48
-0.84363884 1.2980025 0.130385 3
-0.83008331 1.298383 0.025794657 74
-0.8321324 1.2991675 0.077561885 55
-0.85109061 1.3064259 0.13125655 22
-0.8358776 1.3055995 0.025934275 75
-0.82860011 1.3027871 0.077457212 72
-0.84568161 1.3093884 0.13090792 61
-0.83958763 1.3126159 0.026038991 81
-0.82487148 1.3068695 0.077352546 63
-0.85306984 1.3178806 0.13177948 100
-0.8228038 1.3115923 0.025759751 99
-0.82484704 1.3123984 0.077457212 70
-0.82334822 1.3118072 0.12916481 95
-0.80975932 1.3119388 0.025550323 100
-0.8285113 1.3194125 0.077771232 89
-0.82700104 1.3188107 0.12968774 99
-0.80785936 1.316682 0.025550323 99
-0.81732136 1.3204916 0.077247873 95
-0.83616632 1.3280785 0.13073361 100
-0.8096475 1.3229251 0.025620133 100
-0.81354135 1.3245085 0.0771432 97
-0.83605546 1.3336643 0.13090792 100
-0.77949113 1.3106614 0.17622307 15
-0.81880766 1.3322263 0.025829561 100
-0.81713992 1.3315413 0.077457212 100
-0.81933552 1.3324432 0.12951343 100
-0.78677696 1.31907 0.17744176 16
-0.79836601 1.3293388 0.025480513 100
-0.80410248 1.3317184 0.07682918 100
-0.80448157 1.3318757 0.12829325 100
-0.80135447 1.3305784 0.17963541 22
-0.79271656 1.3324966 0.025410704 100
-0.80765992 1.3387568 0.0771432 93
-0.81537563 1.3419892 0.12951343 100
-0.7920658 1.3322241 0.17866045 21
-0.79442829 1.3387384 0.025480513 100
-0.80566627 1.3434925 0.0771432 95
-0.81337065 1.3467517 0.12951343 100
-0.76815623 1.3276246 0.17573559 20
-0.80173033 1.3471196 0.025655037 71
-0.79824656 1.3456322 0.07682918 47
-0.81145066 1.3512697 0.12951343 80
-0.76995116 1.3335515 0.17622307 13
-0.81807095 1.3597506 0.026004085 66
-0.81457001 1.3582414 0.077875905 59
-0.83319849 1.3662719 0.13177948 16
-0.78985113 1.3475856 0.17914793 5
-0.80296332 1.3594086 0.025759751 100
-0.80863923 1.3618813 0.077666558 100
-0.79984683 1.3580509 0.12881619 61
-0.7694245 1.3447976 0.17671055 15
-0.79174525 1.3601025 0.025585229 100
-0.81753439 1.3714447 0.07829459 100
-0.81237632 1.3691761 0.13021068 100
-0.78194696 1.3557932 0.17866045 38
-0.79354066 1.3659364 0.025655037 100
-0.80285805 1.3700693 0.077561885 100
-0.82141477 1.3783002 0.13125655 100
-0.78191465 1.3607796 0.17890419 38
-0.79692763 1.3730742 0.025759751 100
-0.80440098 1.3764203 0.077771232 100
-0.80837244 1.3781985 0.13021068 100
-0.78346795 1.3670477 0.17939167 35
-0.80028099 1.3802428 0.025864467 100
-0.80955607 1.3844345 0.078189917 100
-0.80624121 1.3829364 0.13021068 100
-0.76328629 1.3635235 0.17695428 18
-0.79257768 1.3826971 0.025759751 100
-0.81092888 1.3910718 0.078399263 100
-0.80036038 1.3862488 0.12986206 100
-0.77916139 1.3765744 0.17939167 15
-0.78669065 1.38594 0.025689943 100
-0.81589919 1.399399 0.078817949 100
-0.80171174 1.3928616 0.13021068 100
-0.76430899 1.3756266 0.1776855 13
-0.79167646 1.3942091 0.025829561 100
-0.80090708 1.3985037 0.078085244 100
-0.8030327 1.3994925 0.1305593 100
-0.77647918 1.3871386 0.17963541 12
-0.79343957 1.3998851 0.025899371 100
-0.80084461 1.403357 0.078189917 100
-0.81198269 1.4085791 0.13160518 100
-0.7602635 1.38433 0.1776855 5
-0.79654425 1.4073713 0.026004085 100
-0.80573517 1.4117217 0.07860861 100
-0.79522628 1.4067476 0.13021068 100
-0.79209369 1.4052646 0.18231654 1
-0.79442328 1.4118332 0.026004085 100
-0.81080931 1.4196558 0.079027295 100
-0.80389541 1.4163551 0.13125655 100
-0.78305465 1.4124157 0.025829561 100
-0.81381673 1.4272404 0.079341307 100
-0.79792756 1.4195832 0.13090792 100
-0.79530531 1.4238255 0.0261088 100
-0.80085164 1.4265211 0.078713275 100
-0.8065179 1.4292749 0.13195379 100
-0.79289991 1.4287519 0.0261088 100
-0.79126376 1.4279494 0.07829459 100
-0.82198006 1.443017 0.13369691 100
-0.79787761 1.436748 0.02624842 100
-0.80339617 1.4394779 0.079131968 100
-0.80902559 1.4422626 0.13265105 100
-0.78826827 1.4381111 0.0261088 100
-0.80272037 1.4453261 0.079236634 100
-0.79229182 1.4401197 0.13125655 100
-0.78247303 1.440747 0.026038991 100
-0.81296128 1.4560943 0.079969339 100
-0.79540104 1.4472548 0.13177948 100
-0.79070276 1.4510603 0.02624842 100
-0.79797274 1.4547533 0.079236634 100
-0.81244951 1.4621073 0.13369691 100
-0.79555625 1.4591486 0.026388038 100
-0.79569453 1.4592196 0.079236634 100
-0.81901354 1.4711628 0.13456847 100
-0.80012733 1.4677482 0.026527658 99
-0.80025667 1.467815 0.079655327 100
-0.80581445 1.4706873 0.1335226 100
-0.79083425 1.4682915 0.026388038 100
-0.80514354 1.4757438 0.080074012 100
-0.80183941 1.474023 0.13334829 100
-0.78472549 1.4713409 0.02631823 100
-0.80077964 1.4797767 0.079969339 100
-0.80101365 1.4798996 0.1335226 100
-0.78239244 1.4757632 0.02631823 67
-0.79488868 1.4823824 0.07976 74
-0.81097668 1.4909042 0.13474278 94
0.12021527 1.3045444 0.011972351 11
0.12312663 1.3009233 0.13242145 11
0.12027052 1.3044757 0.18376152 6
0.15951088 1.2591573 0.010925206 26
0.15001822 1.2710485 0.033599682 28
0.15596551 1.2635984 0.055256739 49
0.13387793 1.2912672 0.081896201 13
0.15809771 1.2609276 0.099492319 12
0.14457986 1.2778611 0.12631555 52
0.18891358 1.2223251 0.13362093 15
0.14503843 1.2772865 0.1739264 14
0.16494703 1.255816 0.010820492 100
0.16789734 1.2520936 0.032238949 90
0.15769088 1.2649709 0.055256739 99
0.15172949 1.2724924 0.078727596 28
0.16472176 1.2561002 0.098240845 36
0.17196396 1.2469628 0.11830158 100
0.18081105 1.2358005 0.13722014 30
0.15401143 1.2696133 0.17082056 36
0.16293532 1.2618715 0.010925206 100
0.17575812 1.2455766 0.031715591 100
0.1557247 1.2710345 0.055779677 100
0.17435509 1.2473595 0.074584037 30
0.17130727 1.2512326 0.096989371 25
0.15784797 1.2683363 0.12326261 100
0.18846482 1.2294292 0.13497064 45
0.15456316 1.2725105 0.1713382 43
0.16342348 1.2647953 0.010960111 100
0.17742047 1.2468801 0.031715591 100
0.14766294 1.2849679 0.057174169 100
0.16991296 1.2564893 0.075802729 30
0.18028635 1.2432119 0.095112152 25
0.17046818 1.2557786 0.11982805 100
0.19367003 1.2260816 0.13362093 31
0.15988776 1.269321 0.16978529 36
0.16620603 1.2644278 0.010925206 100
0.16177487 1.2701362 0.033180997 57
0.16516483 1.265769 0.054908119 100
0.17752931 1.2498404 0.074584037 30
0.18419737 1.2412502 0.094486415 26
0.18523836 1.2399091 0.11563025 67
0.18196034 1.244132 0.13856985 29
0.14487424 1.2919087 0.17703223 34
0.17769951 1.2530931 0.010645968 66
0.18546811 1.2430127 0.031296901 31
0.17662731 1.2544844 0.053513627 52
0.15981865 1.2762952 0.078483857 57
0.18343294 1.2456535 0.095112152 38
0.17010307 1.2629502 0.1209729 12
0.17529073 1.2562187 0.14171916 21
0.149057 1.2902594 0.17599694 55
0.18181831 1.2512134 0.010576159 67
0.17741233 1.2569721 0.032134276 30
0.17832077 1.2557847 0.053513627 52
0.18812576 1.2429696 0.073121607 62
0.18989688 1.2406547 0.093860678 52
0.20284352 1.2237334 0.11105084 21
0.2006734 1.2265699 0.13272113 31
0.16378835 1.2747786 0.17030293 58
0.1714046 1.2684196 0.010925206 65
0.18394682 1.2519078 0.031715591 30
0.15832603 1.2856376 0.056651235 47
0.19578263 1.2363261 0.071902916 48
0.17839849 1.2592123 0.097302236 50
0.19136667 1.2421397 0.11524864 13
0.19991177 1.23089 0.13362093 38
0.17139536 1.2684318 0.16771474 67
0.18277875 1.2569653 0.010645968 40
0.17120078 1.2723186 0.032971654 29
0.17212436 1.2710938 0.054908119 50
0.1914365 1.2454844 0.073121607 62
0.19675949 1.2384257 0.092922069 53
0.19301692 1.2433887 0.11524864 13
0.21090931 1.219662 0.13002171 40
0.17779014 1.2635806 0.16564418 68
0.17729029 1.267849 0.010855397 39
0.15619901 1.2960217 0.03443706 27
0.18462223 1.2580553 0.053339314 52
0.19309843 1.2467332 0.073121607 78
0.19129366 1.2491438 0.094799288 51
0.19231835 1.2477751 0.11601187 13
0.20780942 1.2270828 0.13182132 39
0.18183085 1.2617838 0.16460891 69
0.18746534 1.2579753 0.010611063 94
0.20100906 1.2397454 0.03066887 32
0.18997806 1.2545933 0.05281638 53
0.19248047 1.251225 0.073609084 77
0.20012051 1.2409414 0.092922069 79
0.21046332 1.2270198 0.11066922 14
0.20948702 1.228334 0.13182132 31
0.1836358 1.2631299 0.16460891 69
0.19391865 1.2528006 0.010471444 82
0.19198149 1.2554271 0.031610917 61
0.17866319 1.2734849 0.054733805 75
0.19298416 1.2540677 0.073852822 46
0.20411155 1.2389803 0.092296332 80
0.20856476 1.2329423 0.11181407 14
0.2099323 1.2310882 0.13227122 31
0.18879938 1.2597415 0.163056 70
0.19315842 1.2572052 0.010541254 81
0.2089352 1.2356648 0.030250182 65
0.17798027 1.2779284 0.055082429 75
0.20280212 1.2440385 0.072146654 95
0.20333418 1.243312 0.092922069 100
0.20894176 1.2356558 0.11219569 14
0.225281 1.2133474 0.12687239 16
0.18928391 1.2624953 0.16357364 69
0.19486126 1.2584479 0.010541254 81
0.21056277 1.2368525 0.030250182 65
0.18327054 1.2743895 0.054559495 100
0.20445892 1.2452475 0.072146654 79
0.20963508 1.2381284 0.091670595 100
0.2071057 1.2416072 0.11334054 13
0.2474584 1.1861073 0.11877415 17
0.19327736 1.2606263 0.16253836 70
0.18945944 1.2693505 0.010750682 92
0.21912771 1.2282598 0.029622151 67
0.19427565 1.2626801 0.053165004 100
0.20138866 1.2528285 0.073121607 78
0.21928379 1.2280437 0.089480512 100
0.21556702 1.2331914 0.11105084 14
0.2385731 1.2013278 0.12282328 8
0.19151369 1.2665054 0.16409127 69
0.19586438 1.2641046 0.010611063 81
0.21607536 1.2359054 0.03004084 99
0.19135493 1.2703965 0.053862248 100
0.19845054 1.2604964 0.07409656 76
0.20592487 1.2500678 0.093547814 100
0.21261114 1.2407389 0.1125773 13
0.2491625 1.1897409 0.11922406 17
0.19887599 1.2599027 0.16150309 70
0.19990978 1.262079 0.010541254 95
0.20496762 1.2549698 0.03119223 94
0.19541383 1.2683983 0.053513627 100
0.209371 1.2487805 0.072146654 79
0.20989299 1.2480468 0.092922069 100
0.20742768 1.2515119 0.11486702 20
0.23594341 1.2114309 0.12507279 16
0.19946828 1.2626995 0.16202073 70
0.20162958 1.263298 0.010541254 95
0.21818396 1.2398567 0.030145511 98
0.1994544 1.2663782 0.053165004 100
0.21104434 1.2499666 0.072146654 79
0.21270329 1.2476175 0.092609204 93
0.20005038 1.2655342 0.11791996 52
0.23186544 1.2204835 0.1273223 24
0.20564792 1.2576079 0.15995017 72
0.20105797 1.2677859 0.010611063 94
0.22326541 1.2361057 0.029831495 66
0.18975279 1.2839134 0.054908119 100
0.21386126 1.2495213 0.071902916 48
0.22004193 1.2407043 0.091044858 100
0.20290917 1.2651451 0.11753834 92
0.23120269 1.2247827 0.12822211 48
0.2029165 1.2651346 0.16202073 70
0.20279768 1.269001 0.010611063 94
0.2248944 1.2372434 0.029831495 99
0.20292827 1.2688133 0.053165004 100
0.21893847 1.2458034 0.071171694 65
0.22732812 1.2337457 0.089480512 97
0.21921656 1.2454036 0.1125773 82
0.22611406 1.2354906 0.13092151 88
0.2035436 1.267929 0.16253836 70
0.21127433 1.2602782 0.010401634 97
0.21736339 1.2514647 0.03066887 96
0.21137938 1.2601261 0.052119136 100
0.20697775 1.2664971 0.07409656 61
0.22774488 1.2364384 0.089793384 100
0.22637463 1.2384217 0.11066922 85
0.22655177 1.2381654 0.13137141 86
0.21068719 1.2611279 0.15995017 72
0.2152496 1.2581592 0.010331824 84
0.23485956 1.2295624 0.029203463 68
0.21083874 1.2645915 0.052467756 100
0.22218478 1.2480458 0.071171694 65
0.22825786 1.2391895 0.090106249 100
0.22579107 1.2427868 0.11143246 100
0.22598374 1.2425058 0.13227122 94
0.20803344 1.2686824 0.16202073 86
0.21808079 1.2576716 0.010296919 70
0.21848518 1.2570775 0.030878214 63
0.20359892 1.278949 0.053862248 100
0.23055708 1.2393408 0.069709264 83
0.22878614 1.2419428 0.090419121 100
0.22965267 1.2406696 0.11066922 92
0.23311746 1.235579 0.13002171 96
0.20542833 1.2762612 0.16409127 77
0.21978509 1.2588272 0.010296919 42
0.23360354 1.2383714 0.029622151 33
0.20649287 1.2785041 0.053687938 52
0.21664056 1.2634822 0.073121607 100
0.232647 1.2397873 0.089793384 100
0.22470373 1.251546 0.11295892 89
0.23801711 1.2318377 0.128672 97
0.21368599 1.2678559 0.16098544 80
0.21498647 1.2700596 0.010506349 40
0.22651109 1.2528572 0.030459527 32
0.2206462 1.2616115 0.051770512 54
0.2251671 1.2548634 0.071659178 80
0.23445317 1.2410024 0.089793384 100
0.22655514 1.2527915 0.11295892 100
0.23653883 1.2378893 0.13002171 96
0.2156001 1.2691436 0.16098544 80
0.21451968 1.2745563 0.010576159 40
0.21714008 1.2706152 0.031506244 31
0.22236428 1.2627581 0.051770512 54
0.22686157 1.2559943 0.071659178 80
0.23938039 1.2371662 0.088854775 98
0.23041639 1.2506479 0.11219569 91
0.237095 1.2406034 0.13047162 100
0.22483188 1.2590469 0.15736198 74
0.23373777 1.248909 0.010017681 43
0.20330584 1.2949915 0.032971654 29
0.2162284 1.275423 0.05299069 52
0.22948384 1.2553506 0.071415432 64
0.23867247 1.2414365 0.089480512 97
0.24166486 1.2369051 0.10876112 94
0.23750108 1.2432103 0.13092151 96
0.22743446 1.258454 0.15684435 74
0.22445014 1.2667351 0.010366729 27
0.23141551 1.2561071 0.030459527 32
0.22673166 1.2632539 0.051596198 54
0.24097311 1.2415237 0.069221787 83
0.24573398 1.2342595 0.087916173 98
0.24114424 1.2412627 0.10952436 92
0.24876857 1.2296292 0.12687239 90
0.21961099 1.2741189 0.16150309 70
0.23054716 1.2611632 0.01022711 42
0.23747009 1.250519 0.03004084 33
0.23497322 1.2543581 0.05055033 56
0.23829162 1.2492559 0.07019674 66
0.24627936 1.2369747 0.088229038 98
0.23850948 1.248921 0.11105084 84
0.24824983 1.2339451 0.1277722 97
0.21926612 1.2785079 0.16253836 70
0.2279259 1.2689958 0.010366729 41
0.24348176 1.2448947 0.029622151 33
0.22802216 1.2688466 0.051944822 54
0.24750197 1.2386662 0.068490572 67
0.25112498 1.233053 0.087290429 85
0.2412478 1.2483559 0.11066922 85
0.24987113 1.2349956 0.1277722 97
0.23361474 1.2601819 0.1563267 74
0.23622653 1.2600684 0.0101573 57
0.24091661 1.2527432 0.03004084 66
0.23307565 1.2649896 0.051421888 55
0.2460106 1.2447871 0.069221787 33
0.25282416 1.2341453 0.087290429 71
0.24935478 1.2395639 0.10837951 87
0.2484251 1.241016 0.1291219 96
0.23541349 1.2613382 0.1563267 74
0.24544573 1.2493458 0.0099129668 87
0.25117213 1.2403328 0.029203463 68
0.22839466 1.2761829 0.052467756 80
0.25299248 1.2374678 0.068003096 51
0.24809015 1.2451837 0.089167647 56
0.24152023 1.2555243 0.11181407 98
0.25216118 1.2387762 0.12822211 89
0.2360945 1.264064 0.15684435 66
0.24490342 1.2537359 0.0099827768 87
0.25806078 1.2328746 0.028680105 100
0.24070373 1.2603946 0.05072464 84
0.25454429 1.2384501 0.068003096 51
0.25177515 1.2428406 0.08854191 84
0.25360528 1.239939 0.10799789 79
0.25579649 1.2364647 0.1273223 97
0.22845939 1.2798082 0.16150309 70
0.2423504 1.2615783 0.010122396 85
0.25755918 1.2372769 0.028889447 100
0.23396155 1.2749825 0.052119136 81
0.2414377 1.2630366 0.071415432 48
0.25971526 1.2338319 0.086664692 57
0.24587372 1.2559485 0.11143246 91
0.26569718 1.2242736 0.12372308 83
0.23331553 1.2760147 0.15995017 64
0.24301326 1.264348 0.0101573 85
0.25497743 1.2450818 0.029308135 100
0.23677728 1.27439 0.051944822 81
0.24630231 1.2590516 0.070684217 49
0.26342031 1.2314861 0.086038955 72
0.25482184 1.2453324 0.10876112 79
0.26420048 1.2302297 0.12507279 83
0.23916036 1.2705524 0.15787962 65
0.25208372 1.2534993 0.0099129668 87
0.25244668 1.2529103 0.029726824 100
0.24167532 1.2703915 0.051421888 82
0.25425932 1.2499685 0.069221787 50
0.26296046 1.2358471 0.086664692 57
0.25236332 1.2530456 0.1102876 85
0.26171961 1.2378609 0.12687239 99
0.24698997 1.2617662 0.15477379 67
0.25585938 1.2511241 0.0098431576 88
0.25413418 1.2539459 0.029726824 100
0.24654162 1.2663651 0.050898954 83
0.2559365 1.2509979 0.069221787 83
0.2584061 1.2469584 0.08854191 56
0.25405127 1.2540816 0.1102876 100
0.26640394 1.2338763 0.12552269 82
0.24467775 1.2694138 0.15684435 66
0.24924389 1.2658259 0.010122396 85
0.25582528 1.2549758 0.029726824 100
0.24414289 1.2742352 0.051596198 82
0.26482391 1.2401407 0.067515619 51
0.26212174 1.2445954 0.087916173 56
0.26490656 1.2400044 0.10685304 73
0.26903558 1.2331973 0.12507279 92
0.24842671 1.2671731 0.15580906 67
0.2550154 1.2599678 0.0099827768 87
0.26876685 1.2371267 0.028575432 100
0.24992728 1.2684191 0.050898954 83
0.25307405 1.2631924 0.070684217 81
0.26777261 1.2387781 0.086664692 71
0.25229004 1.2644945 0.11219569 91
0.27559879 1.2257788 0.12282328 93
0.25206989 1.2648603 0.15477379 67
0.25467667 1.264428 0.010052586 86
0.26527825 1.2466788 0.029098792 100
0.25371227 1.2660426 0.05055033 84
0.26192302 1.2522962 0.068978049 50
0.2734625 1.2329769 0.085413218 58
0.26307866 1.2503614 0.10876112 79
0.27719143 1.2267339 0.12282328 93
0.25181779 1.2692143 0.15580906 67
0.26252091 1.2551339 0.0098431576 88
0.26490754 1.2511063 0.029308135 100
0.26052412 1.2585036 0.049678773 86
0.26563227 1.2498833 0.068490572 50
0.27608731 1.23224 0.085100345 58
0.2617546 1.256427 0.10990598 78
0.27680048 1.2310364 0.12372308 83
0.25750157 1.2636042 0.15373851 68
0.26826978 1.2492388 0.0097035384 90
0.26861301 1.248655 0.029098792 100
0.25819221 1.2663814 0.05037602 100
0.26026696 1.2628521 0.07019674 33
0.27069485 1.2451136 0.087290429 71
0.27041897 1.2455829 0.10723466 81
0.27643627 1.2353472 0.12462288 83
0.26118442 1.2612914 0.15270324 76
0.26499268 1.2589061 0.0098780617 73
0.27539858 1.2410557 0.028575432 100
0.25800666 1.2708901 0.05072464 84
0.27307242 1.245046 0.067515619 51
0.27343294 1.2444276 0.086977564 57
0.26919773 1.2516928 0.10837951 87
0.28305084 1.2279289 0.12237337 85
0.25228485 1.2807055 0.15839726 73
0.26569998 1.2616291 0.0099129668 87
0.27604473 1.2437403 0.028680105 100
0.26175168 1.2684567 0.05037602 84
0.27473235 1.2460098 0.067515619 51
0.28300175 1.2317098 0.084474608 59
0.26793242 1.2577686 0.10952436 85
0.28855315 1.22211 0.12057377 77
0.26083902 1.270035 0.15477379 67
0.26832715 1.2608348 0.0098780617 73
0.27364081 1.2515754 0.029098792 100
0.26737291 1.2624977 0.049678773 86
0.26643193 1.2641373 0.069953002 49
0.27961829 1.2411592 0.086038955 58
0.27736884 1.245079 0.10647142 73
0.28908387 1.2246647 0.12102367 86
0.26534122 1.2660379 -0.0099827768 86
0.27019113 1.2575867 0.15063268 70
0.2720207 1.2583393 0.0098082526 74
0.28125179 1.2421227 0.02847076 100
0.26810813 1.2652128 0.049853086 100
0.26914057 1.263399 0.069709264 49
0.28615069 1.2335165 0.084474608 59
0.27514395 1.2528526 0.10799789 87
0.28681639 1.232347 0.12282328 85
0.26905295 1.2635529 -0.0099129668 87
0.26807207 1.2652761 0.15270324 68
0.28159243 1.2453762 0.0095290141 76
0.27308163 1.2604496 0.029517479 100
0.2747364 1.257519 0.048981529 87
0.27964854 1.2488191 0.067515619 51
0.28194293 1.2447555 0.086351827 58
0.27490059 1.2572281 0.10876112 87
0.28843188 1.2332629 0.12282328 85
0.26980263 1.2662572 0.15270324 68
0.2744596 1.2620127 0.0098431576 88
0.28748205 1.2387595 0.028156744 100
0.26767811 1.274122 0.05055033 84
0.28132159 1.2497599 0.067515619 51
0.28649741 1.2405177 0.085413218 58
0.28235871 1.2479079 0.10647142 81
0.29671592 1.2222712 0.11967396 78
0.27153662 1.2672322 0.15270324 68
0.28394669 1.2489866 0.0095639192 91
0.28427085 1.2484031 0.028680105 100
0.27427679 1.2663957 0.049678773 86
0.28299788 1.2506948 0.067515619 51
0.2900598 1.237981 0.084787481 59
0.28402856 1.2488393 0.10647142 81
0.29924244 1.221449 0.11922406 87
0.27617872 1.2629716 -0.0098431576 87
0.26576954 1.2817117 0.15684435 66
0.27597141 1.2674274 0.0099129668 87
0.28786984 1.2458289 0.02847076 100
0.28177941 1.2568846 0.048632905 88
0.28084609 1.2585788 0.068490572 50
0.29360124 1.235425 0.084161744 59
0.2790705 1.2618018 0.10914274 78
0.295178 1.2325629 0.12192347 85
0.27983096 1.2604214 -0.0097733475 88
0.27687901 1.26578 0.15166797 69
0.28250328 1.2596066 0.0097384425 75
0.28953239 1.2467411 0.02847076 100
0.28348058 1.2578177 0.048632905 88
0.2844567 1.2560312 0.068003096 51
0.29428035 1.2380507 0.084474608 59
0.28926054 1.2472386 0.10570818 73
0.28154451 1.2613615 -0.0097733475 88
0.28138998 1.2616444 0.15011504 78
0.28992978 1.2499882 0.0095290141 76
0.28929517 1.2511594 0.028680105 100
0.28518501 1.2587452 0.048632905 88
0.29372033 1.2429923 0.066053182 52
0.29685676 1.2372037 0.084161744 59
0.29373384 1.2429674 0.10456333 75
0.29934186 1.2326171 0.12147357 77
0.27850619 1.2710717 0.15270324 68
0.29255334 1.2491316 0.0094941091 92
0.28719494 1.259104 0.029098792 100
0.28689265 1.2596666 0.048632905 88
0.29725212 1.2403867 0.065565705 71
0.2947492 1.2450448 0.085413218 58
0.29259861 1.2490473 0.10570818 81
0.28208569 1.2686129 0.15166797 69
0.28670466 1.2641457 0.0097733475 89
0.28954044 1.2588236 0.048458595 88
0.28956088 1.2587852 0.068003096 51
0.28965634 1.2586061 0.10761628 72
0.28576431 1.2659106 -0.0098082526 99
0.28564468 1.2661351 0.15063268 70
0.2902995 1.2615256 0.0097035384 90
0.29434806 1.2538631 0.028680105 100
0.28566375 1.2702996 0.049504463 86
0.29683277 1.2491604 0.066540658 52
0.29503208 1.2525685 0.1060898 73
0.2865628 1.268598 -0.0098431576 87
0.28918308 1.2636386 0.14959741 70
0.2975848 1.2518013 0.0094941091 92
0.29789233 1.2512143 0.02847076 100
0.29758242 1.2518058 0.047587037 90
0.29297957 1.2605915 0.068003096 51
0.29762921 1.2517165 0.10570818 73
0.28830484 1.2695146 -0.0098431576 97
0.29539037 1.2559899 0.14700922 81
0.29558092 1.2597775 0.0096337283 90
0.29773226 1.2556361 0.028680105 100
0.29375511 1.2632924 0.048632905 88
0.29652378 1.2579625 0.067515619 51
0.2961978 1.25859 0.14752686 79
0.29362968 1.2677737 0.0097733475 89
0.29821539 1.25887 0.048109971 59
0.2890594 1.2766476 0.15270324 68
0.2971876 1.2651037 0.0097035384 100
0.29176873 1.2757159 0.049678773 57
0.2926406 1.2740085 -0.0098780617 100
0.29785785 1.2637911 0.14856213 71
0.29530466 1.2731197 0.0098431576 100
0.29530466 1.2731197 -0.0098431576 100
0.29434785 1.2750096 0.15166797 69
0.29526854 1.2775801 -0.0099129668 100
0.29882327 1.2748854 -0.0098431576 100
0.29884142 1.2838129 -0.0099827768 100
