# .PCD v0.7 - Point Cloud Data file format
VERSION 0.7
FIELDS x y z intensity
SIZE 4 4 4 4
TYPE F F F F
COUNT 1 1 1 1
WIDTH 724
HEIGHT 1
VIEWPOINT 0 0 0 1 0 0 0
POINTS 724
DATA ascii
0.053199232 0.00059151649 0.015986403 123
0.048608661 0.010753989 0.015881689 9
0.042615831 0.0016791821 0.048253752 100
0.048177004 0.015838444 0.015811881 4
0.042149842 0.0067805052 0.04804441 90
0.046162128 0.018511415 0.047416378 69
0.035715938 0.0086895227 0.048149079 26
0.026318967 0.00058269501 0.048777111 16
0.033448279 0.022332907 0.047625721 9
0.042251647 0.040533066 0.046579 11
0.014480531 0.0063341856 0.048881784 7
-1.0444026 1.1354598 0.028552137 6
-1.0229924 1.1305523 0.084574908 5
-1.0269253 1.1314538 0.14154093 6
-1.0177987 1.1351266 0.028098375 10
-0.99643666 1.1301516 0.083214171 30
-1.0237136 1.1365042 0.14136662 40
-0.98732501 1.1336915 0.027574802 30
-0.98933917 1.134168 0.082900152 88
-1.0224245 1.1419952 0.14136662 86
-0.98799044 1.1395228 0.027609708 38
-0.99000067 1.1400057 0.083004825 100
-1.0094929 1.144689 0.14032075 87
-0.99251932 1.1463109 0.027714422 40
-0.98287863 1.1439589 0.082690813 100
-1.0023687 1.1487137 0.13979781 86
-0.98149115 1.1492894 0.027539898 22
-0.98737997 1.1507478 0.083004825 97
-0.99716932 1.1531723 0.13944919 91
-0.96076423 1.1497581 0.027190849 27
-0.98797852 1.1565988 0.083109498 45
-0.99582237 1.1585705 0.13944919 84
-0.96911758 1.1575006 0.027365373 44
-0.97694331 1.1594968 0.082586139 36
-0.99831778 1.1649491 0.13979781 74
-0.96388394 1.161799 0.027295563 61
-0.97170728 1.1638236 0.082376793 74
-0.98921436 1.1683545 0.13910057 94
-0.96444124 1.1675887 0.027330469 67
-0.9645279 1.1676115 0.082062781 100
-0.98010606 1.1717012 0.13840333 91
-0.95338231 1.1703 0.027155945 81
-0.95927078 1.171868 0.081853434 92
-0.95944148 1.1719134 0.1366602 100
-0.94425362 1.1734604 0.027016325 89
-0.95978695 1.1776545 0.081958108 100
-0.96957034 1.1802961 0.13770607 99
-0.9466936 1.1797298 0.027086135 92
-0.94487017 1.1792307 0.081225403 100
-0.97197229 1.18665 0.1380547 99
-0.94918066 1.1857595 0.027155945 92
-0.93773097 1.1825843 0.08091139 100
-0.97058231 1.1916947 0.1380547 91
-0.95542055 1.1931546 0.027295563 93
-0.94204992 1.1893964 0.081225403 84
-0.94992048 1.1916087 0.13631158 99
-0.93662554 1.1934764 0.026981421 71
-0.93289357 1.1924133 0.080806717 72
-0.94269115 1.1952043 0.13578865 100
-0.94858724 1.2025449 0.027225753 52
-0.94100457 1.2003564 0.081330076 36
-0.93928355 1.1998596 0.13561434 99
-0.93747157 1.2049671 0.027051231 49
-0.92607445 1.2016344 0.080597371 24
-0.95689708 1.2106476 0.13735744 84
-0.92827481 1.2078849 0.026911611 71
-0.91689879 1.2045152 0.080178685 26
-0.94961864 1.2142073 0.13683452 85
-0.92673737 1.2130424 0.026911611 75
-0.92302507 1.2119287 0.080597371 30
-0.93279213 1.214859 0.13544002 98
-0.91561514 1.2152879 0.026737086 81
-0.92147356 1.2170678 0.080597371 88
-0.92551118 1.2182946 0.1349171 100
-0.90258414 1.2168732 0.026527658 88
-0.92372197 1.223376 0.080806717 98
-0.92203301 1.2228565 0.13474278 98
-0.90483385 1.2231302 0.026597468 89
-0.9049682 1.2231722 0.079864666 91
-0.9242478 1.229177 0.13509139 70
-0.90324324 1.2282058 0.026597468 88
-0.89575821 1.2258458 0.07944598 72
-0.92643636 1.2355186 0.13544002 49
-0.90171582 1.2330225 0.026597468 83
-0.90184993 1.2330652 0.079864666 76
-0.90780097 1.2349633 0.13387123 43
-0.89247864 1.2356299 0.026457848 88
-0.90402609 1.2393574 0.080074012 90
-0.89668876 1.2369889 0.13299966 50
-0.88712472 1.2391696 0.026388038 99
-0.91195482 1.2472757 0.080597371 100
-0.91217834 1.2473487 0.13456847 64
-0.88168067 1.2429287 0.02631823 100
-0.89510816 1.2473643 0.07976 100
-0.91050321 1.2524498 0.13456847 80
-0.88389796 1.2489408 0.026388038 100
-0.8840453 1.2489901 0.079236634 100
-0.90889531 1.2572902 0.13456847 80
-0.87825984 1.2531614 0.02631823 96
-0.87841171 1.2532128 0.079027295 100
-0.88814026 1.2565038 0.13282534 88
-0.87286562 1.256601 0.02624842 93
-0.88625044 1.2611784 0.079550654 100
-0.88086349 1.2593361 0.13230242 100
-0.86729306 1.2605047 0.02617861 88
-0.8844406 1.2664392 0.079550654 100
-0.8903572 1.2684869 0.13334829 93
-0.8656587 1.2652019 0.02617861 81
-0.86958975 1.266577 0.078817949 91
-0.90938348 1.280497 0.13526571 52
-0.86769205 1.2714741 0.02624842 77
-0.85466713 1.2668669 0.078085244 53
-0.89256579 1.2802727 0.13387123 40
-0.86790425 1.2768457 0.026283324 90
-0.8567732 1.2728668 0.07829459 19
-0.89837033 1.2877362 0.13456847 38
-0.85287338 1.2772793 0.026038991 92
-0.86994654 1.283453 0.079131968 48
-0.87397903 1.2849112 0.13247673 26
-0.84742695 1.2805561 0.025969181 99
-0.85885614 1.2847319 0.07860861 85
-0.86664957 1.2875792 0.13195379 15
-0.84188455 1.2840453 0.025899371 100
-0.85143012 1.2875707 0.07829459 100
-0.87044126 1.2945918 0.13247673 5
-0.84017223 1.2886581 0.025899371 100
-0.8328647 1.2859318 0.077352546 78
-0.87242717 1.3006921 0.13282534 1
-0.84556192 1.2970605 0.026038991 100
-0.83638781 1.2935958 0.077666558 46
-0.84046322 1.2951349 0.13003637 1
-0.84380645 1.3016856 0.026038991 81
-0.84397441 1.3017496 0.078189917 53
-0.83685261 1.2990329 0.12986206 13
-0.8287881 1.3017535 0.025794657 72
-0.83642572 1.3046992 0.077875905 68
-0.84791678 1.3091309 0.13108224 52
-0.82515389 1.3055971 0.025759751 78
-0.83278388 1.308569 0.077771232 68
-0.85354739 1.3166559 0.13177948 100
-0.83081394 1.313082 0.025899371 96
-0.81797963 1.3080342 0.077038527 69
-0.84616452 1.3191195 0.13125655 100
-0.82900542 1.3176579 0.025899371 100
-0.8310377 1.3184651 0.077875905 89
-0.83692902 1.3208048 0.1305593 100
-0.81575853 1.3184776 0.025689943 100
-0.82706827 1.3230195 0.077771232 91
-0.82555956 1.3224137 0.12968774 100
-0.80651945 1.3199983 0.025550323 100
-0.83263046 1.3305848 0.078189917 95
-0.83110577 1.3299667 0.130385 100
-0.78373581 1.3107606 0.17671055 13
-0.80819529 1.3264828 0.025620133 100
-0.81762952 1.330348 0.077457212 97
-0.82535678 1.3335142 0.13003637 100
-0.77807111 1.3141401 0.17622307 15
-0.8026467 1.329455 0.025550323 100
-0.79177064 1.3249567 0.076096483 100
-0.81611603 1.3350259 0.12933913 100
-0.78726572 1.3230934 0.1776855 16
-0.81185609 1.3385599 0.025759751 100
-0.79360908 1.330942 0.076305822 100
-0.81055766 1.3380178 0.1289905 100
-0.77809674 1.3244658 0.17671055 20
-0.79522103 1.3368607 0.025480513 100
-0.80278474 1.340048 0.076933853 96
-0.8013224 1.3394318 0.12829325 100
-0.77808005 1.3296378 0.17695428 18
-0.79681414 1.343354 0.025550323 89
-0.80803698 1.3481317 0.077352546 68
-0.80105942 1.3451612 0.12846756 95
-0.77601999 1.3345016 0.17695428 16
-0.81695312 1.3572893 0.025969181 57
-0.80427724 1.3518434 0.077247873 46
-0.81562001 1.3567166 0.13003637 24
-0.77414078 1.3388958 0.17695428 3
-0.81101948 1.3609409 0.025899371 94
-0.80386525 1.3578346 0.077352546 100
-0.83711535 1.3722715 0.13230242 61
-0.79197615 1.3526725 0.17963541 14
-0.79989427 1.3614385 0.025724847 100
-0.81105536 1.3663285 0.077875905 100
-0.82233614 1.3712711 0.13108224 100
-0.7900365 1.3571194 0.17963541 29
-0.78867763 1.3621025 0.025550323 100
-0.81261855 1.3726916 0.078085244 100
-0.80382997 1.3688045 0.12951343 100
-0.77527088 1.3561726 0.17792924 30
-0.79401118 1.3697982 0.025689943 100
-0.81426018 1.378835 0.07829459 100
-0.80547565 1.3749145 0.12986206 100
-0.77150697 1.3597552 0.1776855 24
-0.79352123 1.3757763 0.025724847 100
-0.81009167 1.3832479 0.078189917 100
-0.81040817 1.3833904 0.1305593 100
-0.76380378 1.3623772 0.17695428 18
-0.79878587 1.3835403 0.025864467 100
-0.80259663 1.3852737 0.077875905 100
-0.81562084 1.3911983 0.13125655 100
-0.76544601 1.3683746 0.17744176 16
-0.79663604 1.3882446 0.025864467 100
-0.80407089 1.3916581 0.078085244 100
-0.80982286 1.3942988 0.13090792 100
-0.77597767 1.3787603 0.17914793 14
-0.79639298 1.3935473 0.025899371 100
-0.81106359 1.4003415 0.07860861 100
-0.79689759 1.3937809 0.12986206 100
-0.78836197 1.389828 0.18109785 14
-0.79228705 1.3976308 0.025864467 100
-0.81417185 1.4078639 0.078922622 100
-0.80543131 1.4037769 0.13090792 100
-0.77169544 1.3880026 0.17914793 5
-0.78838974 1.4012256 0.025829561 100
-0.80301696 1.4081242 0.078399263 100
-0.80692619 1.4099679 0.13125655 100
-0.76784343 1.3915353 0.17890419 3
-0.80412215 1.4147232 0.02617861 100
-0.80247241 1.4139376 0.078503937 100
-0.8153649 1.4200759 0.13230242 100
-0.77631038 1.4014814 0.18036664 1
-0.80017406 1.4183443 0.026143705 100
-0.80212992 1.4192836 0.07860861 100
-0.80242532 1.4194254 0.13125655 100
-0.78890473 1.4186939 0.025969181 100
-0.80704492 1.4274828 0.079027295 100
-0.80373627 1.4258797 0.13160518 100
-0.78315276 1.4213746 0.025899371 100
-0.80844623 1.4337329 0.079236634 100
-0.81229466 1.4356132 0.13265105 100
-0.79498845 1.4335668 0.02617861 100
-0.79872316 1.4354093 0.078817949 100
-0.80615526 1.4390761 0.13230242 100
-0.78919977 1.4362419 0.0261088 100
-0.79829735 1.4407678 0.078922622 100
-0.81463212 1.4488943 0.13334829 100
-0.7975896 1.4462941 0.02631823 100
-0.80487305 1.4499494 0.07944598 100
-0.79800826 1.4465042 0.13195379 100
-0.79533952 1.4507592 0.02631823 100
-0.80617505 1.4562421 0.079655327 100
-0.80286843 1.4545689 0.13265105 100
-0.7928353 1.4556855 0.02631823 100
-0.8107658 1.4648412 0.080074012 100
-0.81099695 1.4649593 0.13369691 100
-0.7904337 1.4603686 0.02631823 100
-0.79767853 1.4641001 0.07944598 100
-0.81387657 1.4724426 0.13421984 100
-0.79866296 1.4705744 0.026527658 100
-0.7952475 1.4688001 0.07944598 100
-0.81318432 1.4781176 0.13439415 100
-0.79620928 1.4752778 0.026527658 100
-0.79633838 1.4753454 0.079655327 100
-0.80540973 1.4800978 0.13387123 100
-0.78679019 1.4760027 0.026388038 88
-0.79929012 1.4826043 0.079969339 100
-0.79952389 1.4827278 0.1335226 100
-0.79702777 1.4874341 0.1335226 43
0.13585162 1.283443 0.12822364 5
0.15124285 1.2679083 0.011134636 12
0.16296518 1.2532713 0.032448292 29
0.12903607 1.2956369 0.05891728 22
0.12769133 1.297316 0.10700117 10
0.14255536 1.2787559 0.12669717 23
0.20282155 1.2035046 0.12822211 8
0.13458118 1.288713 0.17806751 6
0.16169527 1.2583408 0.010890301 78
0.16465446 1.2546194 0.032448292 59
0.15071377 1.2721515 0.056128297 72
0.16453093 1.2547747 0.076046467 29
0.17502353 1.2415789 0.095425025 25
0.15655258 1.2648084 0.122881 85
0.18735695 1.2260681 0.13452072 23
0.14481074 1.2795752 0.17444403 21
0.15844586 1.2659714 0.011029921 100
0.16139811 1.2622319 0.032866981 100
0.15740731 1.267287 0.055431053 100
0.16745549 1.2545592 0.075802729 30
0.18279207 1.2351327 0.093860678 26
0.16193172 1.261556 0.12173614 100
0.18532857 1.2319199 0.13587044 45
0.15736547 1.2673399 0.16978529 44
0.16881478 1.2563183 0.010785587 100
0.17051131 1.2541538 0.032238949 100
0.15668735 1.2717905 0.055779677 98
0.16670007 1.2590163 0.076290213 29
0.16979465 1.2550682 0.097615108 24
0.17576125 1.247456 0.11791996 100
0.18574101 1.2347237 0.13632034 38
0.15552863 1.2732688 0.1713382 43
0.16428766 1.2654693 0.010960111 100
0.16843826 1.2601377 0.032552965 88
0.15712962 1.2746642 0.055953987 97
0.17564029 1.2508862 0.074827775 30
0.17140529 1.2563263 0.097615108 24
0.17975861 1.2455961 0.11715672 100
0.19446659 1.2267028 0.13362093 38
0.14295921 1.2928669 0.17754987 40
0.17213386 1.2589016 0.010785587 65
0.18969351 1.2361821 0.030878214 63
0.15523842 1.2807617 0.056476921 48
0.18339086 1.2443368 0.073609084 31
0.1706892 1.2607708 0.098240845 24
0.17541808 1.2546524 0.11906482 19
0.19129613 1.2341086 0.13542053 22
0.14124268 1.2988701 0.17910278 33
0.16906008 1.2666301 0.010925206 65
0.16101515 1.2771182 0.033495013 28
0.166814 1.2695582 0.055082429 50
0.16217655 1.275604 0.078240119 85
0.19413117 1.2339449 0.092609204 53
0.17600206 1.2575798 0.11944643 12
0.19537166 1.2323277 0.13452072 23
0.16082039 1.2773721 0.1713382 58
0.17806503 1.2584112 0.010715778 66
0.16520777 1.275295 0.03328567 28
0.17942393 1.2566268 0.053513627 52
0.16995716 1.2690582 0.077021427 87
0.19096568 1.2414706 0.093860678 52
0.18841124 1.244825 0.11601187 13
0.20171022 1.2273612 0.13272113 47
0.17429793 1.2633581 0.16616182 61
0.18451163 1.2532623 0.010576159 40
0.17170456 1.2701962 0.032866981 29
0.17503056 1.2657984 0.054385185 51
0.18718067 1.2497331 0.073852822 46
0.19372267 1.241083 0.093547814 52
0.19117203 1.2444556 0.11563025 13
0.2032288 1.2285137 0.13272113 47
0.17477071 1.266142 0.16667947 67
0.18620077 1.2545351 0.010576159 40
0.17105448 1.274708 0.033076324 29
0.16719332 1.2798506 0.055779677 49
0.1983926 1.2382971 0.071902916 48
0.19181105 1.2470629 0.094486415 52
0.20226061 1.2331454 0.1125773 13
0.21185181 1.2203711 0.13002171 40
0.17882472 1.264359 0.16564418 68
0.18789434 1.255802 0.010576159 67
0.19430357 1.2472034 0.03119223 31
0.17016608 1.2795863 0.055605363 49
0.19647038 1.2442963 0.072634131 78
0.20056173 1.2388074 0.092609204 53
0.19449309 1.2469491 0.11563025 13
0.21342596 1.2215487 0.13002171 32
0.1805526 1.2656517 0.16564418 68
0.18364498 1.2651004 0.010750682 79
0.19121942 1.2548641 0.031610917 30
0.17787278 1.2729011 0.054733805 75
0.193405 1.2519104 0.073609084 93
0.20572528 1.2352606 0.091670595 81
0.20316684 1.238718 0.11334054 13
0.21616337 1.2211543 0.12957181 32
0.18917966 1.2576207 0.16253836 70
0.19603005 1.2518717 0.010436539 68
0.20119092 1.244846 0.030878214 63
0.19024616 1.2597455 0.053165004 79
0.19743976 1.2499526 0.073121607 93
0.20852089 1.2348675 0.09135773 94
0.20131826 1.2446727 0.1144854 13
0.22120127 1.2176052 0.12822211 24
0.19088396 1.2588773 0.16253836 70
0.19182318 1.261183 0.010611063 81
0.20755768 1.2396057 0.030459527 65
0.18843618 1.2658278 0.053687938 78
0.20613492 1.2415568 0.071659178 80
0.20549014 1.2424409 0.092609204 93
0.20760429 1.2395418 0.11295892 13
0.23080304 1.2077283 0.12507279 16
0.1903162 1.2632496 0.16357364 69
0.20292044 1.2494717 0.010331824 84
0.21271241 1.2359445 0.030145511 65
0.18315944 1.2767704 0.054733805 75
0.21011105 1.2395382 0.071171694 81
0.19671661 1.2580419 0.095425025 100
0.21960616 1.2264211 0.10952436 14
0.24261713 1.1946328 0.12102367 17
0.19204015 1.2645022 0.16357364 69
0.19992861 1.2571759 0.010471444 96
0.21084446 1.2419848 0.030459527 97
0.18725592 1.2748117 0.054385185 100
0.20943537 1.2439458 0.071659178 64
0.21571302 1.2352095 0.090731993 95
0.21318191 1.238732 0.11219569 14
0.25319859 1.1830429 0.11742445 17
0.1903865 1.2704551 0.16512655 68
0.19913724 1.2615285 0.010541254 81
0.20884776 1.2479248 0.030773543 96
0.1969465 1.2645974 0.053165004 100
0.210926 1.2450135 0.071659178 64
0.21832386 1.2346497 0.090419121 100
0.20210925 1.2573649 0.11639348 19
0.24204355 1.2014204 0.12237337 17
0.19645002 1.265293 0.163056 70
0.20316735 1.2594869 0.010471444 96
0.20820871 1.252372 0.030982886 95
0.1986751 1.2658268 0.053165004 100
0.20570016 1.2559123 0.073121607 62
0.21766371 1.2390281 0.091044858 100
0.21062282 1.248965 0.11410378 27
0.23453817 1.2152131 0.12597258 24
0.20041487 1.2633716 0.16202073 78
0.20717892 1.2574233 0.010401634 97
0.21678862 1.2437602 0.030354854 97
0.20270041 1.2637908 0.05281638 100
0.21310842 1.2489927 0.071902916 48
0.21475729 1.2466483 0.092296332 100
0.20552015 1.2597817 0.11639348 79
0.23048872 1.2242814 0.12822211 40
0.19991642 1.2677491 0.163056 78
0.20888242 1.258617 0.010401634 83
0.21958768 1.2432828 0.030250182 98
0.19758314 1.2748022 0.053862248 100
0.21364614 1.2517934 0.072146654 63
0.22207698 1.2397171 0.090731993 95
0.21060339 1.2561519 0.11524864 100
0.22649878 1.2333833 0.13047162 72
0.20276186 1.2673841 0.16253836 70
0.21059009 1.2598047 0.010401634 97
0.22579205 1.2378666 0.029831495 99
0.19707778 1.2793045 0.054210871 100
0.21532997 1.2529646 0.072146654 63
0.21921816 1.2473536 0.091983467 100
0.22124809 1.2444241 0.11219569 84
0.23033816 1.2313062 0.12957181 96
0.20339987 1.2701809 0.163056 70
0.2055026 1.2708721 0.010611063 81
0.22289985 1.2455779 0.030250182 98
0.20563218 1.2706838 0.053165004 100
0.21926776 1.2508588 0.071659178 64
0.22984192 1.2354847 0.089480512 97
0.21289304 1.2601271 0.11563025 100
0.22863734 1.237236 0.13092151 88
0.21062177 1.2634293 0.1604678 72
0.21410373 1.262221 0.010401634 97
0.22577092 1.2451239 0.030145511 65
0.21420789 1.2620683 0.052119136 100
0.21991348 1.2537074 0.071902916 64
0.23377708 1.2333918 0.088854775 98
0.22797126 1.2418995 0.11105084 91
0.22815511 1.2416301 0.13182132 100
0.21787721 1.2566913 0.15787962 73
0.22134626 1.2550547 0.01022711 42
0.22286698 1.2528104 0.030564198 32
0.20801839 1.2747252 0.053339314 78
0.22040582 1.2564428 0.072146654 63
0.22866723 1.2442498 0.090731993 100
0.23394287 1.2364635 0.10952436 92
0.23190707 1.2394682 0.13092151 96
0.21515843 1.2641872 0.15995017 72
0.21857783 1.2628365 0.010366729 41
0.22678339 1.2506346 0.030354854 32
0.20755863 1.2792225 0.053687938 52
0.22875234 1.2477067 0.070684217 81
0.23032463 1.2453686 0.090731993 95
0.23228636 1.2424514 0.11066922 100
0.2346352 1.2389586 0.13047162 96
0.20933923 1.2765746 0.16357364 69
0.21799317 1.267259 0.010436539 41
0.21507055 1.2716362 0.031610917 30
0.21035549 1.2786982 0.053513627 52
0.22923595 1.2504203 0.070927955 97
0.23409653 1.2431405 0.090106249 96
0.23603514 1.2402369 0.10990598 85
0.23943835 1.2351397 0.1291219 96
0.21423912 1.2728815 0.16202073 70
0.22652894 1.2585262 0.01022711 42
0.24125752 1.2362822 0.029308135 34
0.21781108 1.2716925 0.05264207 53
0.23656267 1.2433727 0.069709264 83
0.24573073 1.2295265 0.087290429 85
0.22592038 1.2594453 0.11410378 96
0.24337837 1.2330791 0.12822211 100
0.22470486 1.261281 0.15787962 73
0.21826455 1.274635 0.010541254 27
0.21428025 1.2806959 0.032029606 30
0.22932661 1.2578074 0.051073264 55
0.22177756 1.269291 0.073365346 100
0.24400094 1.2354848 0.088229038 100
0.24156499 1.2391905 0.10914274 85
0.24384522 1.2357217 0.128672 89
0.23058057 1.2558999 0.15580906 75
0.23431665 1.2540725 0.010087491 28
0.2052443 1.2986524 0.033076324 29
0.23329335 1.2556417 0.05072464 56
0.23879069 1.2472121 0.069953002 99
0.24139288 1.2432218 0.089480512 97
0.24006945 1.2452512 0.1102876 85
0.24236074 1.2417376 0.13002171 96
0.2291978 1.2619219 0.15736198 74
0.2337501 1.258474 0.0101573 42
0.23956263 1.249496 0.029936166 33
0.22299474 1.2750864 0.05264207 53
0.2468479 1.2382433 0.068490572 67
0.2461845 1.2392681 0.08854191 100
0.23737928 1.2528684 0.11181407 98
0.24922216 1.2345761 0.1277722 97
0.22978094 1.2646047 0.15787962 73
0.23320928 1.2628844 0.01022711 42
0.24655381 1.2421221 0.029412808 67
0.22682598 1.2728159 0.052293446 53
0.24196249 1.2492656 0.069953002 49
0.24774233 1.2402729 0.08854191 84
0.24535123 1.2439932 0.10952436 85
0.25497898 1.2290136 0.12597258 90
0.22202224 1.2802899 0.16253836 70
0.23054305 1.2706753 0.010366729 69
0.24489817 1.2481769 0.029726824 67
0.2306385 1.2705257 0.051944822 54
0.24462125 1.248611 0.069709264 66
0.25780374 1.2279505 0.086038955 72
0.2469247 1.2450008 0.10952436 71
0.25964737 1.2250609 0.12462288 83
0.23306832 1.2667176 0.15787962 73
0.24315917 1.2549993 0.010017681 58
0.25421131 1.23753 0.028994121 100
0.24108455 1.2582785 0.05055033 84
0.24221593 1.2564902 0.070684217 81
0.25533977 1.2357464 0.087290429 57
0.24560186 1.2511383 0.11066922 85
0.25514549 1.2360535 0.1273223 97
0.2349779 1.2679307 0.15787962 65
0.24157861 1.2610945 0.010122396 85
0.24620327 1.2537307 0.029936166 99
0.23528796 1.2711109 0.051770512 81
0.24805391 1.2507839 0.069709264 66
0.25268349 1.2434123 0.08854191 70
0.25555217 1.2388445 0.10761628 87
0.25254691 1.2436298 0.1291219 96
0.23663083 1.2689726 0.15787962 65
0.24646753 1.2570766 0.010017681 72
0.25634417 1.2412276 0.029098792 100
0.23493162 1.2755883 0.052119136 100
0.25078389 1.2501502 0.069465525 49
0.25433782 1.2444472 0.08854191 70
0.25096056 1.2498667 0.10990598 92
0.26038593 1.2347419 0.12642249 90
0.23633102 1.2733426 0.15891489 65
0.24913639 1.2563798 0.0099827768 87
0.25160432 1.2523901 0.029726824 100
0.24080244 1.2698526 0.051421888 82
0.25446635 1.2477634 0.068978049 50
0.26006949 1.2387053 0.087290429 71
0.25461909 1.2475164 0.10914274 71
0.26602933 1.2290705 0.12462288 92
0.24003446 1.2710941 0.15787962 65
0.24473354 1.2677594 0.010192205 85
0.25137043 1.2569375 0.029936166 100
0.24793208 1.262544 0.05055033 100
0.25630301 1.2488947 0.068978049 50
0.26290405 1.2381312 0.086977564 57
0.24824375 1.2620358 0.11219569 91
0.26881289 1.2284963 0.12417299 100
0.24802059 1.2623997 0.15477379 67
0.25470406 1.2551041 0.0099129668 87
0.25921786 1.247689 0.029308135 100
0.25163904 1.2601392 0.050201707 85
0.25995705 1.2464746 0.068490572 50
0.264458 1.2390807 0.086977564 57
0.26212698 1.2429099 0.10761628 65
0.26830831 1.2327554 0.12507279 92
0.25769109 1.2501972 0.15063268 70
0.25958455 1.2510474 0.0098082526 89
0.25271264 1.2624302 0.030145511 100
0.25137803 1.2646408 0.05055033 84
0.26170537 1.2475345 0.068490572 50
0.2723048 1.2299775 0.085100345 58
0.26386222 1.2439619 0.10761628 87
0.26899913 1.235453 0.12552269 90
0.24447641 1.2760727 0.15839726 73
0.25809789 1.2571539 0.0099129668 87
0.26871926 1.2394279 0.028680105 100
0.24482742 1.2793009 0.051944822 81
0.26124987 1.2518935 0.068978049 50
0.26367843 1.2478405 0.088229038 56
0.26139912 1.2516444 0.10914274 92
0.27855724 1.2230093 0.12192347 85
0.25112107 1.2687974 0.15580906 67
0.25971496 1.2581191 0.0099129668 87
0.26619393 1.2472246 0.029098792 100
0.24651799 1.2803102 0.051944822 100
0.26487881 1.249436 0.068490572 50
0.26829368 1.2436938 0.087290429 71
0.26901892 1.2424743 0.10685304 66
0.27806881 1.2272569 0.12282328 85
0.25277677 1.2697859 0.15580906 67
0.26133522 1.2590791 0.0099129668 87
0.26574767 1.2516031 0.029308135 100
0.25226274 1.2744503 0.051247578 82
0.26243424 1.257217 0.069465525 49
0.27990669 1.2276138 0.084161744 59
0.26260403 1.2569294 0.10990598 78
0.27760556 1.2315125 0.12372308 83
0.26235163 1.257357 -0.0098780617 87
0.2603274 1.2607865 0.15270324 76
0.26927412 1.2498279 0.0097035384 90
0.26759899 1.252691 0.029308135 100
0.26023859 1.2652717 0.050201707 85
0.2572901 1.2703114 0.071171694 81
0.27568063 1.2388775 0.086038955 72
0.27042425 1.247862 0.10761628 79
0.27839556 1.2342371 0.12417299 92
0.2641651 1.2585604 0.15166797 69
0.27287495 1.2472975 0.0096337283 90
0.26518977 1.2605338 0.029726824 100
0.2668846 1.2576149 0.049330149 100
0.26792151 1.2558289 0.068978049 50
0.2712858 1.2500346 0.087916173 56
0.2680673 1.2555778 0.10914274 85
0.27895805 1.2368205 0.12462288 83
0.26481679 1.2611762 0.1521856 69
0.26855454 1.2586589 0.0098431576 88
0.27487832 1.2476792 0.028889447 100
0.2616277 1.2706857 0.05055033 84
0.27358207 1.2499299 0.068003096 51
0.27690673 1.2441574 0.086664692 57
0.26780432 1.2599615 0.10990598 92
0.28350699 1.2326977 0.12327318 85
0.25689134 1.2789091 0.15736198 74
0.2671997 1.2647979 0.0099478718 73
0.28241032 1.2381848 0.028261416 100
0.25834635 1.280288 0.051421888 82
0.27517509 1.2508439 0.068003096 51
0.2853421 1.2330554 0.084474608 59
0.27430165 1.252372 0.10799789 72
0.2908448 1.2234275 0.12057377 86
0.26819196 1.2630618 -0.0099129668 87
0.26337361 1.2714921 0.15477379 67
0.26713043 1.2693601 0.010017681 87
0.27830356 1.2496357 0.028889447 100
0.26914594 1.265802 0.049853086 100
0.27506658 1.25535 0.068490572 50
0.29199016 1.2254742 0.082910269 60
0.27615583 1.2534271 0.10799789 87
0.29162726 1.2261149 0.12102367 86
0.27600092 1.2537006 -0.0097035384 89
0.26530132 1.272589 0.15477379 67
0.28160912 1.2476807 0.0095639192 91
0.27606609 1.2575462 0.029308135 100
0.27575806 1.2580944 0.048981529 87
0.27481771 1.259768 0.068978049 50
0.28390548 1.2435937 0.086038955 58
0.28457674 1.242399 0.10532656 67
0.28940269 1.2338097 0.12282328 93
0.28030556 1.2500007 0.14752686 71
0.28522506 1.2451211 0.0094941091 92
0.28554764 1.2445422 0.02847076 100
0.27649361 1.2607892 0.049155839 87
0.27846166 1.2572576 0.068490572 50
0.28556025 1.2445196 0.086038955 58
0.28240454 1.2501824 0.10685304 81
0.29102328 1.2347165 0.12282328 85
0.27445945 1.2644393 0.15166797 77
0.28204846 1.2547932 0.0096686333 75
0.2872057 1.2454624 0.02847076 100
0.27242565 1.2722034 0.050201707 85
0.28592578 1.2477782 0.067028143 51
0.29008493 1.2402532 0.085100345 58
0.28408232 1.2511134 0.10685304 88
0.29830313 1.2253844 0.12012386 77
0.27244896 1.2721612 0.15373851 68
0.28077301 1.2609391 0.0097733475 89
0.29070455 1.2428288 0.028261416 100
0.27888259 1.2643864 0.049330149 87
0.29132962 1.2416891 0.066053182 52
0.2916458 1.2411125 0.085100345 58
0.2828472 1.2571568 0.10799789 79
0.27500385 1.2714593 -0.0099827768 86
0.27225792 1.2764666 0.15477379 67
0.28153294 1.2636327 0.0098082526 59
0.28853968 1.2507493 0.028680105 100
0.28346571 1.2600789 0.048807215 88
0.28539032 1.2565401 0.068003096 51
0.29895452 1.2315995 0.083223134 60
0.28642529 1.254637 0.10723466 81
0.29582232 1.2373587 0.12282328 85
0.28630993 1.2548492 -0.0096337283 89
0.28141138 1.2638562 0.15063268 70
0.28619087 1.2593328 0.0097035384 90
0.28840786 1.2552205 0.028889447 100
0.28620923 1.2592987 0.048632905 88
0.28529131 1.2610013 0.068490572 50
0.28913501 1.2538717 0.10685304 81
0.29846177 1.2365718 0.12237337 68
0.28049713 1.2698939 -0.0099129668 87
0.29055732 1.2512336 0.14649157 72
0.29355738 1.2496697 0.0094941091 92
0.29386982 1.2490853 0.02847076 100
0.28040391 1.2742729 0.050027397 85
0.285135 1.2654235 0.068978049 50
0.28495219 1.2657654 0.15063268 70
0.29429665 1.2523286 0.0095290141 76
0.29741469 1.2464472 0.028261416 100
0.28403226 1.2716904 0.049678773 86
0.29058516 1.2593297 0.068003096 51
0.29619771 1.2487428 0.10532656 67
0.28487462 1.2701013 0.15166797 69
0.29319045 1.2585285 0.0096337283 90
0.29722068 1.2508618 0.02847076 100
0.29227459 1.2602707 0.048458595 88
0.29414219 1.2567179 0.067515619 51
0.29512984 1.2548392 0.10647142 81
0.28760764 1.2691486 -0.0098431576 87
0.28752083 1.2693138 0.15115032 77
0.29120016 1.266515 0.0097733475 89
0.29400763 1.2611288 0.068003096 51
0.29863867 1.252244 0.10570818 73
0.28842729 1.2718347 -0.0098780617 97
0.29015827 1.2685138 0.15063268 70
0.29783294 1.2579377 0.028784776 100
0.29936251 1.2549781 0.047761347 60
0.29390076 1.2655463 0.068490572 50
0.29278693 1.2677016 0.15011504 78
0.29763022 1.2623259 0.028994121 100
0.29826206 1.2610934 0.067759357 85
0.29532003 1.2668327 0.14959741 70
0.29183742 1.277987 0.049853086 57
0.29530537 1.271163 0.15063268 78
0.29348299 1.2789204 -0.0099478718 100
0.29957727 1.2668296 0.14907977 78
0.29973012 1.2708687 -0.0097733475 100
0.29721633 1.2805712 0.069953002 99
0.29713127 1.280743 -0.0099478718 100
0.29803464 1.2834177 -0.0099827768 100
