# .PCD v0.7 - Point Cloud Data file format
VERSION 0.7
FIELDS x y z intensity
SIZE 4 4 4 4
TYPE F F F F
COUNT 1 1 1 1
WIDTH 722
HEIGHT 1
VIEWPOINT 0 0 0 1 0 0 0
POINTS 722
DATA ascii
0.054587156 0.0068395138 0.015881689 100
0.050840765 0.0010684133 0.04804441 52
0.049253106 0.0044869184 0.047939736 31
0.051244944 0.012735724 0.047521047 20
0.035978675 0.0012936592 0.048463095 68
0.044458389 0.019656479 0.047416378 39
0.030491114 0.004991591 0.048463095 25
0.032467186 0.013312757 0.04804441 18
0.03889519 0.028280795 0.047207031 10
0.015941441 0.00044459105 0.049091127 7
0.0082817078 0.00092601776 0.049300469 7
-1.0545325 1.1360136 0.028726662 3
-1.0038967 1.124463 0.083528183 5
-1.0409005 1.1329039 0.14276111 6
-1.0395446 1.138729 0.028482327 8
-0.99285907 1.1278993 0.083004825 15
-1.0220919 1.1346805 0.1411923 24
-0.99159795 1.1329981 0.027644612 22
-1.0072165 1.1366758 0.083842203 82
-1.0169952 1.1389784 0.14084367 81
-0.97664374 1.1353877 0.027400278 41
-1.009747 1.1433105 0.084051549 100
-1.0098193 1.143328 0.14032075 95
-0.98125333 1.1418639 0.027504992 43
-0.9793877 1.1414108 0.082481466 100
-1.0027645 1.1470878 0.13979781 86
-0.98965365 1.1496001 0.027679516 26
-0.97032517 1.1448348 0.082062781 100
-1.011111 1.1548904 0.14066938 87
-0.97868663 1.1522782 0.027504992 23
-0.97682422 1.1518124 0.082481466 66
-0.99436313 1.1561983 0.13927488 84
-0.96758443 1.1554173 0.027330469 38
-0.98315769 1.1593724 0.082900152 35
-0.99486834 1.1623466 0.13944919 78
-0.96242493 1.1594504 0.027260659 59
-0.98766059 1.1659486 0.083214171 50
-0.98391145 1.1649832 0.13857763 91
-0.96091837 1.1652548 0.027260659 67
-0.97646779 1.1693225 0.082690813 100
-0.98045605 1.1703658 0.13840333 91
-0.95766646 1.1697505 0.027225753 78
-0.95196849 1.1682397 0.081434749 92
-0.98489743 1.1769707 0.13892625 98
-0.95426017 1.1747541 0.027190849 83
-0.95628482 1.1752989 0.081748761 96
-0.96607989 1.1779344 0.13735744 100
-0.94712192 1.1781622 0.027086135 96
-0.94915169 1.1787157 0.081434749 100
-0.95702988 1.1808635 0.1366602 100
-0.93790644 1.1815145 0.026946515 93
-0.95726854 1.1868696 0.081958108 100
-0.96319503 1.1885087 0.13735744 92
-0.94423586 1.1886041 0.027086135 93
-0.94433862 1.1886328 0.081330076 86
-0.9560433 1.1919119 0.13683452 94
-0.94661289 1.1949097 0.027155945 77
-0.93134028 1.1905736 0.080702044 78
-0.95647806 1.1977105 0.13700883 99
-0.96049458 1.2045542 0.027435184 50
-0.93562144 1.1973984 0.081016064 50
-0.95114642 1.2018648 0.1366602 100
-0.94936949 1.2070264 0.027260659 39
-0.92836803 1.200905 0.080702044 24
-0.95154256 1.2076597 0.13683452 84
-0.92673856 1.2060285 0.026876707 68
-0.91919285 1.2038004 0.080283359 26
-0.94427329 1.2112058 0.13631158 84
-0.91953665 1.2092053 0.026771991 75
-0.91583258 1.2080982 0.080178685 28
-0.94280189 1.2161586 0.13631158 92
-0.92182249 1.2154908 0.026841801 75
-0.91620606 1.2137909 0.080283359 74
-0.94123548 1.2213668 0.13631158 99
-0.91834658 1.2200397 0.026806897 81
-0.91846722 1.2200767 0.080492698 100
-0.92441136 1.2218986 0.1349171 99
-0.90530759 1.2216065 0.026597468 88
-0.91116458 1.2234241 0.080178685 90
-0.9209221 1.226452 0.13474278 84
-0.89227563 1.2230878 0.026388038 85
-0.91719478 1.230916 0.080597371 74
-0.92882389 1.2345693 0.13561434 52
-0.89830798 1.2305434 0.026527658 79
-0.90606016 1.2330085 0.080074012 70
-0.91200358 1.2348984 0.13421984 43
-0.90058011 1.2365682 0.026597468 81
-0.89501017 1.2347767 0.079550654 91
-0.91424721 1.2409642 0.13456847 43
-0.90274566 1.2428668 0.026667276 93
-0.89147979 1.2391998 0.07944598 100
-0.91259438 1.2460725 0.13456847 57
-0.885809 1.243181 0.026388038 99
-0.89544111 1.2463553 0.07976 100
-0.90516275 1.2495592 0.13404553 78
-0.87276644 1.2443948 0.02617861 100
-0.89755887 1.2526615 0.079969339 100
-0.90726012 1.2558961 0.13439415 87
-0.87489134 1.2506366 0.02624842 93
-0.88451034 1.2538812 0.079341307 100
-0.90177935 1.2597063 0.13404553 78
-0.88077515 1.2581905 0.026388038 93
-0.87147099 1.2550159 0.078713275 100
-0.90571815 1.2667012 0.13456847 89
-0.87906235 1.2631819 0.026388038 93
-0.87543327 1.2619294 0.079027295 100
-0.88890833 1.2665797 0.13317397 100
-0.8622281 1.2628956 0.0261088 83
-0.8774789 1.2682184 0.079236634 100
-0.89280945 1.2735691 0.13369691 68
-0.85484189 1.2658255 0.026004085 74
-0.87573105 1.2731981 0.079236634 63
-0.89104289 1.2786024 0.13369691 36
-0.86063606 1.2734149 0.026143705 88
-0.84951204 1.2694449 0.077875905 25
-0.89113528 1.2842991 0.13387123 36
-0.8646912 1.2798781 0.02624842 99
-0.85920972 1.2779025 0.078503937 36
-0.88388938 1.2867974 0.13334829 28
-0.86290282 1.2848132 0.02624842 96
-0.85179859 1.2807672 0.078189917 78
-0.86897272 1.2870247 0.1321281 16
-0.84590596 1.2847002 0.025969181 100
-0.85732275 1.2889097 0.07860861 100
-0.86884636 1.2931588 0.13230242 13
-0.84035319 1.288173 0.025899371 100
-0.84614533 1.2903316 0.078085244 99
-0.89874965 1.3099368 0.13526571 1
-0.83862728 1.2927806 0.025899371 100
-0.82945865 1.2893288 0.077247873 42
-0.87084633 1.3049102 0.13282534 1
-0.84426993 1.3004689 0.026038991 85
-0.83323759 1.2962716 0.077561885 53
-0.84662455 1.3013649 0.13073361 9
-0.83681017 1.3031799 0.025934275 74
-0.83884901 1.3039637 0.077980578 57
-0.8614983 1.3126715 0.13230242 46
-0.8312127 1.3065692 0.025864467 72
-0.83511502 1.3080852 0.077875905 63
-0.84659523 1.3125451 0.13108224 100
-0.82560843 1.309926 0.025794657 90
-0.82021409 1.3078089 0.0771432 61
-0.84283823 1.3166888 0.13090792 100
-0.82185644 1.3139875 0.025759751 99
-0.82204169 1.3140609 0.077352546 80
-0.84277362 1.3222818 0.13108224 99
-0.82366174 1.32026 0.025829561 100
-0.8201341 1.3188469 0.077352546 97
-0.83898777 1.3263993 0.13090792 100
-0.8217327 1.3250515 0.025829561 100
-0.8256157 1.3266228 0.077771232 97
-0.82964939 1.3282549 0.13021068 100
-0.80877727 1.3250601 0.025620133 100
-0.8108198 1.3258944 0.077038527 100
-0.82779056 1.3328271 0.13021068 100
-0.80069238 1.3217573 0.17914793 22
-0.80313438 1.3282745 0.025550323 100
-0.80887097 1.3306413 0.077038527 100
-0.81292504 1.3323138 0.1289905 100
-0.7877478 1.3219262 0.1776855 15
-0.79758364 1.3312209 0.025480513 100
-0.79409808 1.3297694 0.076305822 100
-0.81840986 1.3398943 0.12968774 100
-0.78774279 1.3271224 0.17792924 22
-0.79930311 1.337472 0.025550323 100
-0.78661281 1.3321347 0.075991809 100
-0.81457561 1.343895 0.12951343 100
-0.78030032 1.3294799 0.17719802 20
-0.79721409 1.3424135 0.025550323 99
-0.78638166 1.337811 0.076096483 81
-0.80329436 1.3449969 0.12864187 100
-0.76910573 1.3304706 0.17597933 20
-0.80990952 1.35342 0.025829561 59
-0.81192368 1.354284 0.077666558 38
-0.80127901 1.3497174 0.12864187 37
-0.78903276 1.3444636 0.17890419 7
-0.80796736 1.3579264 0.025829561 86
-0.81364435 1.3603842 0.077875905 85
-0.82677501 1.3660691 0.13125655 43
-0.77801198 1.3449574 0.1776855 13
-0.79124838 1.3562558 0.025550323 100
-0.80974513 1.3643407 0.077771232 100
-0.8228603 1.3700733 0.13108224 100
-0.77781588 1.3503845 0.17792924 30
-0.80200034 1.366585 0.025794657 100
-0.80400759 1.3674707 0.077561885 100
-0.8189345 1.3740575 0.13090792 100
-0.76851732 1.3518103 0.17695428 35
-0.80721623 1.3745555 0.025934275 100
-0.80738717 1.3746316 0.077875905 100
-0.80589765 1.3739681 0.12986206 100
-0.77191836 1.3588324 0.1776855 30
-0.79780239 1.3760092 0.025794657 100
-0.80708998 1.3801851 0.077980578 100
-0.80378109 1.3786974 0.12986206 100
-0.78071791 1.3683275 0.17914793 28
-0.79021603 1.378231 0.025689943 100
-0.80858916 1.3865693 0.078189917 100
-0.8089053 1.3867128 0.1305593 100
-0.75873715 1.3639449 0.17646681 22
-0.78808469 1.3829055 0.025689943 100
-0.80098122 1.3888128 0.077875905 100
-0.81036705 1.3931119 0.13090792 100
-0.75485116 1.3676829 0.17622307 15
-0.79864305 1.3934462 0.025934275 100
-0.79881293 1.3935246 0.077875905 100
-0.80999225 1.3986926 0.13108224 100
-0.75996441 1.375566 0.17719802 13
-0.80370742 1.4015317 0.026073895 100
-0.80748802 1.4032955 0.078503937 100
-0.80237275 1.4009092 0.1305593 100
-0.77403325 1.3876882 0.17939167 8
-0.80149466 1.4062533 0.026073895 100
-0.80888325 1.4097316 0.078713275 100
-0.80016214 1.4056259 0.1305593 100
-0.78444117 1.3982248 0.18109785 5
-0.78853899 1.4055851 0.025864467 100
-0.81036276 1.4159477 0.078922622 100
-0.80164653 1.411809 0.13090792 100
-0.77338451 1.3983891 0.17987914 1
-0.78631228 1.4102535 0.025864467 100
-0.8044973 1.4189663 0.078713275 100
-0.80299157 1.418245 0.13125655 100
-0.79667169 1.4210066 0.0261088 100
-0.79862732 1.421952 0.078503937 100
-0.8114832 1.4281666 0.13230242 100
-0.79798573 1.4274566 0.02617861 100
-0.79813856 1.427531 0.07860861 100
-0.80559605 1.4311683 0.13195379 100
-0.79209405 1.4303921 0.0261088 100
-0.79941922 1.4339966 0.078817949 100
-0.80327982 1.4358962 0.13195379 100
-0.78619844 1.4332947 0.026038991 100
-0.80603808 1.4431431 0.079341307 100
-0.80451638 1.4423878 0.13230242 100
-0.79102701 1.4415363 0.02617861 100
-0.7983225 1.4451896 0.079027295 100
-0.8164131 1.4542487 0.13369691 100
-0.79938418 1.451623 0.026388038 100
-0.79774016 1.4507926 0.079131968 100
-0.81401628 1.4590142 0.13369691 100
-0.80068022 1.4579091 0.026457848 100
-0.79903466 1.4570708 0.079341307 100
-0.81172401 1.4635336 0.13369691 100
-0.79115587 1.4589646 0.02631823 100
-0.80018121 1.463601 0.079550654 100
-0.8004337 1.4637307 0.13282534 100
-0.7924152 1.4652475 0.026388038 100
-0.80319422 1.4708301 0.079864666 100
-0.8105101 1.474619 0.13404553 100
-0.78998011 1.4699292 0.026388038 100
-0.79542881 1.4727752 0.079550654 100
-0.80980819 1.4802862 0.13421984 100
-0.79106718 1.4764664 0.026457848 93
-0.78766626 1.4746747 0.079236634 100
-0.81437165 1.4887431 0.1349171 100
-0.80448657 1.4895868 0.026771991 34
-0.78696209 1.4802768 0.079341307 34
-0.79074043 1.4822841 0.13282534 71
0.12315676 1.2984263 0.13203983 5
0.17333341 1.2394847 0.010506349 13
0.13879624 1.2825325 0.03443706 27
0.13107115 1.2921612 0.05856866 22
0.15562591 1.2615557 0.12249938 18
0.19024843 1.2184014 0.13272113 7
0.12324831 1.3019117 0.18272625 6
0.15503961 1.2658224 0.011064826 38
0.16920936 1.248034 0.032029606 60
0.15151709 1.2702444 0.055953987 48
0.14926603 1.2730703 0.078971334 14
0.16353512 1.2551574 0.098240845 12
0.15367448 1.2675362 0.12364423 73
0.19060165 1.2211788 0.13317102 15
0.15279183 1.2686441 0.17082056 14
0.15429181 1.270335 0.011134636 100
0.17459717 1.2446607 0.031715591 100
0.14708602 1.2794459 0.056825545 95
0.15841293 1.2651241 0.077508904 14
0.17258328 1.2472072 0.096363634 25
0.15906721 1.2642969 0.12249938 100
0.18976104 1.2254875 0.13407083 46
0.14854297 1.2776039 0.17340876 42
0.16098064 1.2654221 0.010995016 100
0.17378938 1.24911 0.031924933 100
0.15624961 1.2714472 0.055779677 98
0.16872537 1.255559 0.075802729 30
0.17913118 1.2423071 0.095112152 38
0.16200748 1.2641144 0.12211776 100
0.18894616 1.2298076 0.13497064 45
0.15508959 1.2729244 0.1713382 43
0.16262567 1.2667093 0.010995016 100
0.16923892 1.2582295 0.032448292 89
0.16036516 1.2696079 0.055431053 100
0.16179219 1.2677782 0.077508904 29
0.19284749 1.2279575 0.091983467 26
0.17451429 1.2514652 0.1186832 100
0.18208393 1.2417591 0.13811995 30
0.15200737 1.2803247 0.17340876 42
0.17048311 1.2601528 0.010820492 78
0.16116345 1.2721894 0.03328567 57
0.16577083 1.2662389 0.054908119 75
0.17082396 1.2597126 0.076046467 29
0.15816745 1.2760587 0.10136953 23
0.18941852 1.2356974 0.1144854 33
0.18611905 1.2399588 0.13722014 22
0.15024304 1.2862933 0.17496167 35
0.17828998 1.2535477 0.010645968 66
0.17874286 1.2529585 0.031924933 30
0.16629109 1.2691567 0.055082429 50
0.19068304 1.2374258 0.072390392 47
0.18160653 1.2492332 0.095737889 38
0.18626028 1.2431793 0.11601187 19
0.18776172 1.2412261 0.13722014 22
0.14969292 1.2907488 0.17599694 61
0.17998013 1.2548422 0.010645968 53
0.16346714 1.2764795 0.033390339 28
0.16440958 1.2752445 0.055605363 49
0.18990821 1.2418333 0.072877869 47
0.1964643 1.2332428 0.092296332 53
0.19029632 1.2413247 0.11524864 20
0.20596054 1.2207997 0.13092151 48
0.16323331 1.2767859 0.17082056 65
0.17442906 1.2656941 0.010855397 39
0.17247435 1.2682741 0.032762308 29
0.17219159 1.2686472 0.054733805 50
0.17237651 1.2684031 0.076777689 100
0.20046934 1.231325 0.091670595 54
0.20261431 1.228494 0.11181407 14
0.20635936 1.2235512 0.13137141 47
0.17550457 1.2642746 0.16616182 61
0.17616165 1.2670021 0.010855397 39
0.15500653 1.2951269 0.03443706 27
0.18112049 1.2604095 0.053687938 52
0.18485802 1.2554406 0.074584037 61
0.19970691 1.2356997 0.092296332 53
0.1900551 1.2485313 0.11639348 13
0.20208752 1.2325346 0.13362093 31
0.17723218 1.2655789 0.16616182 68
0.19464934 1.2458723 0.010366729 55
0.18074214 1.2644962 0.032343622 30
0.17568201 1.2712727 0.054733805 50
0.1960566 1.2439877 0.072634131 63
0.19778889 1.2416679 0.093234941 53
0.20582363 1.230908 0.11181407 14
0.20370421 1.2337463 0.13362093 38
0.17780846 1.2684249 0.16667947 67
0.18797654 1.2583548 0.010611063 94
0.20150116 1.2401106 0.03066887 32
0.18218011 1.2661738 0.054036561 51
0.2048063 1.2356521 0.071171694 81
0.18885002 1.2571764 0.096050762 76
0.2039271 1.2368381 0.11295892 13
0.21460927 1.2224283 0.13002171 32
0.18415242 1.2635133 0.16460891 69
0.19205391 1.2563944 0.010541254 81
0.20669571 1.2364984 0.030354854 65
0.17446694 1.2802924 0.055431053 99
0.19231468 1.25604 0.07409656 76
0.21396953 1.2266144 0.089793384 83
0.2078861 1.2348808 0.11219569 14
0.22081077 1.2173182 0.12822211 24
0.18358725 1.2678993 0.16564418 68
0.18431696 1.2705585 0.010820492 78
0.20596981 1.2409194 0.030564198 64
0.18917894 1.2639033 0.053513627 100
0.20103949 1.2476681 0.072634131 78
0.21556547 1.2277845 0.089793384 83
0.20603654 1.240828 0.11334054 13
0.23042116 1.2074496 0.12507279 16
0.1910255 1.2613757 0.163056 78
0.20007002 1.2523451 0.010401634 83
0.20636049 1.2436743 0.03066887 64
0.18379894 1.2747732 0.054559495 100
0.20262542 1.2488227 0.072634131 94
0.21128547 1.2368857 0.09135773 94
0.21451694 1.2324314 0.11105084 14
0.2421726 1.1943107 0.12102367 17
0.19606018 1.2578722 0.16150309 70
0.19708142 1.2600543 0.010541254 95
0.19517705 1.2626988 0.03182026 91
0.1972065 1.2598808 0.05281638 100
0.20313889 1.2516432 0.072877869 94
0.21291727 1.2380651 0.09135773 100
0.21842778 1.2304134 0.1102876 14
0.24365559 1.1953826 0.12102367 8
0.19889429 1.2575371 0.16098544 72
0.19879419 1.2612834 0.010541254 95
0.20967573 1.2460618 0.03066887 64
0.18964916 1.2740757 0.054210871 100
0.2117489 1.2431617 0.071415432 96
0.2122556 1.2424529 0.091983467 100
0.21661171 1.2363594 0.11143246 21
0.23607594 1.2091318 0.12462288 16
0.19610435 1.265046 0.163056 70
0.19819674 1.2657679 0.010611063 94
0.21249539 1.245618 0.030564198 97
0.18910488 1.2785803 0.054559495 100
0.20076582 1.2621475 0.07409656 92
0.22076586 1.233963 0.090106249 96
0.20233542 1.2599356 0.1167751 26
0.22520536 1.2277069 0.12957181 16
0.19559854 1.2694293 0.16409127 69
0.19532323 1.2735324 0.010750682 79
0.2153078 1.2451603 0.030459527 65
0.19776639 1.2700638 0.053513627 100
0.20705843 1.2568719 0.073121607 78
0.22352496 1.2334945 0.089793384 100
0.19613379 1.2723815 0.11944643 51
0.23353827 1.2192787 0.12687239 33
0.20624387 1.2580283 0.15995017 72
0.20281222 1.266573 0.010576159 100
0.22040179 1.2414151 0.030145511 98
0.2040807 1.2647588 0.05281638 100
0.21558481 1.2483047 0.071659178 64
0.22061723 1.241107 0.091044858 100
0.20351437 1.2655687 0.11753834 99
0.22840863 1.2299632 0.12957181 64
0.20352167 1.2655582 0.16202073 70
0.21920279 1.2463095 0.010122396 99
0.21960583 1.2457292 0.030354854 97
0.21245581 1.2560244 0.051770512 100
0.21708909 1.2493529 0.071659178 64
0.22435251 1.2388945 0.090419121 96
0.22411111 1.2392421 0.11105084 91
0.22207394 1.2421753 0.13272113 78
0.20948815 1.2602974 0.15995017 72
0.21859756 1.2507541 0.010192205 99
0.22126845 1.2468796 0.030354854 97
0.20397726 1.2719634 0.053339314 78
0.22101769 1.2472434 0.071171694 97
0.22150669 1.246534 0.091670595 100
0.22686532 1.2387604 0.11066922 85
0.23257229 1.2304814 0.1291219 88
0.20681593 1.2678453 0.16202073 70
0.21141708 1.2652292 0.010471444 82
0.23324707 1.2332995 0.029412808 67
0.20253375 1.2782224 0.053862248 100
0.22733405 1.2419481 0.07019674 82
0.22333887 1.2477918 0.091670595 100
0.22423545 1.2464803 0.11219569 91
0.23874217 1.225262 0.1273223 97
0.20873004 1.2691593 0.16202073 70
0.21202499 1.2680627 0.010506349 54
0.22028705 1.2558872 0.030773543 64
0.20542863 1.2777836 0.053687938 100
0.22118095 1.2545699 0.071902916 96
0.23499131 1.234218 0.088854775 98
0.22590065 1.2476146 0.11219569 100
0.23814476 1.2295709 0.12822211 97
0.2148135 1.2639533 0.15995017 72
0.22046795 1.2592878 0.010296919 42
0.23425779 1.2388127 0.029622151 33
0.21610704 1.2657629 0.052293446 53
0.22620112 1.2507752 0.071171694 81
0.2355102 1.2369531 0.089167647 100
0.23524672 1.2373444 0.10952436 85
0.2353965 1.2371221 0.13002171 96
0.21653977 1.2651204 0.15995017 72
0.22440043 1.2571101 0.01022711 42
0.21369803 1.2731214 0.031715591 30
0.22337562 1.2586433 0.051421888 55
0.2322939 1.2453012 0.07019674 66
0.23494658 1.2413327 0.089793384 100
0.23687997 1.2384403 0.10952436 99
0.23269719 1.2446978 0.13182132 100
0.2204172 1.2630692 0.15891489 81
0.22159454 1.2648518 0.010366729 41
0.22641224 1.2575924 0.03066887 32
0.22059101 1.2663641 0.052119136 54
0.23277414 1.2480061 0.070440479 98
0.23541901 1.2440207 0.090106249 96
0.23734951 1.2411118 0.10990598 85
0.23858336 1.2392526 0.13002171 96
0.21671295 1.2722076 0.16150309 70
0.21452457 1.2793553 0.010645968 26
0.22152475 1.2687268 0.031296901 31
0.22013384 1.2708387 0.052467756 53
0.23772028 1.244137 0.069709264 99
0.2403352 1.2401668 0.089167647 100
0.22711727 1.2602357 0.11410378 100
0.2466546 1.230572 0.1273223 97
0.21740541 1.2749813 0.16202073 70
0.21192825 1.2872186 0.010785587 26
0.21889663 1.2765577 0.031715591 30
0.21970391 1.2753226 0.05281638 53
0.22525799 1.2668253 0.072877869 100
0.24413985 1.2379379 0.08854191 100
0.22990462 1.2597165 0.11372216 100
0.2397345 1.2446777 0.13092151 96
0.22973981 1.2599686 0.15684435 74
0.23114747 1.261553 0.01022711 42
0.2380574 1.2509005 0.03004084 33
0.24207073 1.2447134 0.049504463 57
0.23239565 1.2596289 0.071659178 64
0.2425501 1.2439744 0.089480512 100
0.24230003 1.24436 0.10990598 92
0.24351433 1.2424879 0.13002171 96
0.22934943 1.264325 0.15787962 73
0.24368897 1.2458487 0.0098780617 44
0.24730533 1.2402308 0.029308135 68
0.2318671 1.2642138 0.051421888 55
0.24162799 1.2490504 0.069953002 49
0.24955249 1.2367398 0.087916173 84
0.25033361 1.2355263 0.10761628 87
0.25043947 1.2353619 0.1277722 97
0.23630515 1.2573193 0.15529142 75
0.23889288 1.2570262 0.010087491 71
0.2478734 1.2429676 0.029412808 67
0.22608623 1.2770746 0.05264207 53
0.24543932 1.246778 0.069465525 49
0.25118357 1.2377857 0.087916173 70
0.25090355 1.238224 0.10799789 79
0.25206569 1.2364048 0.1277722 89
0.22968835 1.2714356 0.15943253 73
0.23845363 1.2614872 0.0101573 57
0.2495262 1.2440194 0.029412808 100
0.23212501 1.271471 0.051944822 54
0.24179152 1.2562214 0.070684217 65
0.25281826 1.2388259 0.087916173 70
0.24097773 1.2575052 0.11219569 91
0.25786886 1.2308582 0.12597258 99
0.23247492 1.2709191 0.15891489 65
0.24442995 1.255801 0.010017681 72
0.24799246 1.2501372 0.029726824 100
0.23812065 1.2658316 0.051247578 82
0.24666142 1.2522533 0.069953002 49
0.2607671 1.2298278 0.086038955 58
0.25208902 1.2436243 0.10876112 79
0.25844178 1.2335247 0.12642249 99
0.23833972 1.2654833 0.15684435 66
0.2533733 1.2448864 0.0097733475 89
0.24738616 1.2544715 0.029936166 99
0.24284643 1.2617395 0.05072464 84
0.24607465 1.2565712 0.070440479 49
0.26221314 1.2307342 0.086038955 72
0.25461853 1.2428929 0.10837951 87
0.25783464 1.237744 0.1273223 89
0.23785096 1.2697369 0.15787962 65
0.24976549 1.2544174 0.0099478718 73
0.25013128 1.2538272 0.029831495 100
0.23826715 1.2729696 0.051770512 81
0.25195801 1.2508799 0.069465525 49
0.26174185 1.2350941 0.086664692 57
0.25523674 1.2455897 0.10876112 87
0.25638932 1.2437302 0.128672 89
0.24570358 1.2609712 0.15477379 67
0.24831572 1.2605727 0.010052586 86
0.25391448 1.2514684 0.029622151 100
0.23793736 1.277449 0.052119136 100
0.25779787 1.2451535 0.068490572 50
0.25301933 1.252924 0.089793384 69
0.25175655 1.2549775 0.11066922 100
0.26825297 1.2281524 0.12417299 75
0.24539527 1.2653216 0.15580906 67
0.25002998 1.2616227 0.010052586 86
0.26287895 1.2405645 0.028889447 100
0.25216368 1.2581258 0.050027397 85
0.2532545 1.256338 0.069953002 49
0.26911139 1.23035 0.085413218 58
0.26060933 1.2442842 0.10799789 72
0.272899 1.2241426 0.12282328 93
0.23907632 1.2795746 0.15995017 64
0.25493976 1.2575864 0.0099478718 73
0.26046944 1.2484486 0.029308135 100
0.25086021 1.2643279 0.05055033 84
0.25401127 1.2591207 0.07019674 82
0.26466432 1.2415166 0.087290429 57
0.25320172 1.2604585 0.11143246 84
0.26952079 1.2334913 0.12507279 92
0.25394836 1.2592247 0.15322088 76
0.25870222 1.2551845 0.0098780617 73
0.26214132 1.2494564 0.029308135 100
0.25463867 1.2619526 0.050201707 85
0.26287305 1.2482375 0.068490572 50
0.26631194 1.2425097 0.087290429 57
0.26300004 1.248026 0.10837951 79
0.27214345 1.2327968 0.12462288 92
0.2506859 1.2685364 0.15580906 67
0.26551422 1.2476083 0.0097035384 90
0.26586086 1.2470264 0.029098792 100
0.25431854 1.2664042 0.05055033 100
0.26556003 1.2475314 0.068246834 34
0.26998481 1.2401029 0.086664692 57
0.26266104 1.2523984 0.10914274 78
0.27076885 1.2387866 0.12597258 90
0.25242794 1.2695782 0.15580906 67
0.26107916 1.2589278 0.0099129668 87
0.2675277 1.2480153 0.029098792 100
0.2469306 1.2828708 0.052119136 81
0.26823854 1.2468123 0.068003096 51
0.27062252 1.2427781 0.086977564 57
0.2623491 1.2567788 0.10990598 78
0.27934676 1.2280145 0.12282328 85
0.25024235 1.2772665 0.15787962 65
0.26481023 1.2564832 0.0098431576 88
0.26717785 1.2524445 0.029308135 100
0.25678363 1.2701751 0.05072464 84
0.26990464 1.247793 0.068003096 51
0.27926761 1.2318214 0.084787481 59
0.26007852 1.2645546 0.11143246 91
0.28587487 1.2205507 0.12057377 77
0.25103787 1.2799764 0.15839726 65
0.26047841 1.2678475 0.010052586 86
0.27287987 1.2465227 0.028889447 100
0.26153621 1.2660286 0.050201707 85
0.26957828 1.2521999 0.068490572 50
0.28286746 1.2293484 0.084161744 59
0.27167624 1.2485924 0.10761628 72
0.28157121 1.2315774 0.12327318 85
0.26651013 1.2574757 -0.0098431576 87
0.25767574 1.2726669 0.15580906 67
0.26921269 1.2567302 0.0098082526 74
0.27055281 1.2544072 0.029308135 100
0.26625618 1.2618551 0.049678773 86
0.26729539 1.2600536 0.069465525 49
0.27756286 1.2422556 0.086351827 58
0.27432957 1.2478603 0.10723466 81
0.28707916 1.2257595 0.12147357 69
0.2632935 1.2669908 0.15373851 68
0.27091342 1.2577074 0.0098082526 74
0.27224541 1.2553797 0.029308135 100
0.26797482 1.2628425 0.049678773 86
0.27097961 1.2575917 0.068978049 50
0.27921301 1.2432036 0.086351827 58
0.27794948 1.2454118 0.10647142 81
0.28770378 1.2283659 0.12192347 85
0.27078703 1.2579281 0.15063268 70
0.27450711 1.2551523 0.0097384425 90
0.27780142 1.2493509 0.028889447 100
0.26764306 1.2672402 0.050027397 85
0.27847937 1.248157 0.067515619 51
0.28468537 1.237228 0.085100345 58
0.27564976 1.2531401 0.10799789 79
0.29018748 1.2275386 0.12147357 77
0.26477519 1.2722906 0.15477379 75
0.27423957 1.2595958 0.0098082526 74
0.2873176 1.2363765 0.028052073 100
0.26644716 1.2734306 0.05055033 100
0.27820173 1.2525611 0.068003096 51
0.28922617 1.2329879 0.084161744 59
0.28022829 1.2489631 0.10685304 81
0.29465523 1.223349 0.12012386 77
0.2646341 1.2766496 0.15580906 67
0.27790079 1.2570639 0.0097384425 75
0.27920637 1.2547268 0.029098792 100
0.26917788 1.272678 0.05037602 84
0.2837604 1.2465749 0.067028143 51
0.2908439 1.2338953 0.084161744 74
0.27519938 1.2618994 0.10952436 85
0.29053676 1.2344451 0.12282328 85
0.27302447 1.2657926 -0.0099129668 87
0.27205744 1.2675235 0.15270324 68
0.27960262 1.2580106 0.0097384425 90
0.28477198 1.2486811 0.028680105 100
0.27769366 1.2614559 0.049155839 87
0.27869096 1.259656 0.068734311 50
0.29055002 1.2382529 0.084787481 59
0.28643316 1.245683 0.10570818 81
0.29499298 1.2302343 0.12147357 77
0.27281845 1.2702546 -0.0099827768 86
0.28128612 1.2549722 0.14856213 71
0.28901216 1.2449315 0.009459204 77
0.28836825 1.2461032 0.02847076 100
0.27845126 1.2641495 0.049330149 100
0.28900602 1.2449427 0.066540658 52
0.29313743 1.2374245 0.084474608 59
0.28809521 1.2466002 0.10570818 81
0.29190847 1.2396609 0.12372308 83
0.28111985 1.2592934 0.14959741 70
0.28397307 1.2581306 0.0097035384 90
0.28812024 1.2505209 0.028680105 100
0.27827096 1.2685933 0.049678773 86
0.28686571 1.2528229 0.067515619 51
0.29666123 1.2348492 0.083848871 59
0.28788146 1.2509592 0.10647142 81
0.29727966 1.2337145 0.12192347 93
0.27728266 1.2704067 0.15270324 68
0.29043257 1.2502602 0.0095290141 92
0.29739627 1.2373757 0.027842728 100
0.28001302 1.2695389 0.049678773 86
0.28760883 1.2554848 0.067759357 51
0.28582802 1.2587798 0.10799789 79
0.27902299 1.2713706 -0.0099478718 96
0.27719399 1.2747548 0.15373851 68
0.28455338 1.2652634 0.0098082526 89
0.29525527 1.2452961 0.028261416 100
0.28740558 1.2599418 0.048632905 88
0.29024285 1.2546482 0.067515619 51
0.29897946 1.2383475 0.084161744 59
0.29124555 1.2527773 0.10647142 73
0.28171942 1.270551 -0.0099129668 97
0.28534576 1.263785 0.15011504 78
0.28909925 1.2608896 0.0097035384 90
0.2912918 1.2567643 0.028889447 100
0.29379272 1.2520587 0.047761347 90
0.28820962 1.2625635 0.068490572 50
0.29968876 1.2409652 0.084474608 59
0.29201093 1.2554111 0.10685304 66
0.28534529 1.2679528 -0.0098431576 87
0.28707102 1.2647058 0.15011504 78
0.29454365 1.2547212 0.0095639192 91
0.29671726 1.2505968 0.02847076 100
0.29826373 1.2476624 0.047238413 91
0.2917816 1.2599621 0.068003096 51
0.29553759 1.2528352 0.1060898 73
0.28970015 1.2639115 0.14959741 70
0.29808947 1.2520653 0.0094941091 92
0.29070503 1.2661965 0.048981529 87
0.29900971 1.2503042 0.066540658 52
0.29904306 1.2502404 0.10532656 75
0.28695223 1.2733779 0.1521856 77
0.29701391 1.2582682 0.0095988233 76
0.29335526 1.2653295 0.048807215 58
0.29137716 1.2691473 0.15063268 78
0.29963356 1.2573696 0.0095639192 91
0.29599625 1.2644501 0.048632905 59
0.29791638 1.2607123 0.10723466 66
0.29841754 1.2597368 0.14752686 71
0.2995486 1.2617507 0.067759357 68
0.29135346 1.2778416 -0.0099478718 100
0.29404804 1.2813472 0.15322088 76
0.29748571 1.2786868 -0.0099129668 100
