# .PCD v0.7 - Point Cloud Data file format
VERSION 0.7
FIELDS x y z intensity
SIZE 4 4 4 4
TYPE F F F F
COUNT 1 1 1 1
WIDTH 726
HEIGHT 1
VIEWPOINT 0 0 0 1 0 0 0
POINTS 726
DATA ascii
0.08176735 0.00049775839 0.047207031 30
0.055683732 0.00031876564 0.047939736 79
0.055653214 0.0061485171 0.015881689 120
0.048140407 0.00044256449 0.048149079 37
0.049844563 0.0088756084 0.047730394 25
0.049396098 0.013956666 0.047521047 100
0.04343468 0.010724425 0.047835063 75
0.03967315 0.01083976 0.047939736 54
0.032679498 0.0059208274 0.048358422 25
0.032266557 0.011031091 0.048149079 17
0.04206425 0.030948877 0.046997689 10
0.02584362 0.013022006 0.048253752 8
0.014062703 0.0017518401 0.049091127 7
0.0090873837 0.00035917759 0.049300469 7
-1.0354302 1.12991 0.08520294 5
-1.0432224 1.1316788 0.14293543 4
-1.0361605 1.1356108 0.028412517 8
-0.99335736 1.1257447 0.083004825 7
-1.0323069 1.1347226 0.14206386 11
-1.0135214 1.135857 0.028028565 13
-1.0018928 1.133136 0.083528183 63
-1.0233288 1.1381519 0.14136662 53
-1.0004973 1.1388087 0.027819136 36
-0.9966653 1.1378971 0.083318844 100
-1.0200305 1.1434549 0.1411923 100
-0.97982711 1.1392564 0.027470088 38
-1.0032029 1.1448985 0.08373753 100
-1.0032895 1.1449194 0.13979781 86
-0.98234779 1.1458136 0.027539898 36
-0.99211949 1.1482102 0.083214171 100
-1.0019047 1.15061 0.13979781 86
-0.98497421 1.1518584 0.027609708 23
-0.9772895 1.1499467 0.082481466 72
-0.99870068 1.1552732 0.13962349 82
-0.97193176 1.1545427 0.027400278 30
-0.97975951 1.1565205 0.082690813 35
-1.0011415 1.1619231 0.13997212 68
-0.97251719 1.1603495 0.027435184 43
-0.97259694 1.16037 0.082376793 36
-0.98432428 1.1633767 0.13857763 87
-0.95953351 1.1626414 0.027225753 61
-0.9750908 1.166688 0.082586139 84
-0.97330064 1.1662223 0.13770607 92
-0.95235318 1.1663778 0.027121039 71
-0.97369689 1.1720091 0.082586139 98
-0.9796142 1.1735704 0.13840333 92
-0.94895858 1.1713643 0.027086135 81
-0.95099097 1.1719085 0.081434749 94
-0.98004931 1.1796893 0.13857763 100
-0.95912749 1.179738 0.027295563 92
-0.93994147 1.1745288 0.08091139 100
-0.97476441 1.1839836 0.13822901 100
-0.95383197 1.183942 0.027225753 93
-0.94429725 1.1813174 0.081225403 100
-0.96562618 1.1871884 0.13753176 94
-0.94467348 1.1870391 0.027086135 92
-0.94669992 1.1876045 0.081434749 92
-0.9526462 1.1892636 0.13648589 94
-0.92796046 1.187385 0.026806897 89
-0.94153649 1.1912189 0.081225403 84
-0.95323902 1.1945238 0.1366602 100
-0.95725483 1.2013444 0.027365373 60
-0.93237633 1.1942247 0.080806717 68
-0.95174795 1.1997684 0.1366602 100
-0.9576605 1.20716 0.027400278 42
-0.92321354 1.1971717 0.080388032 26
-0.95406586 1.2061176 0.13700883 92
-0.94269496 1.2084749 0.027155945 61
-0.91788083 1.2011858 0.080178685 24
-0.94488782 1.209119 0.13631158 84
-0.92390543 1.2085501 0.026841801 75
-0.91828114 1.2068766 0.080283359 26
-0.92997831 1.2103571 0.13509139 89
-0.91279238 1.2108074 0.026667276 78
-0.92630869 1.2148806 0.080806717 46
-0.93033987 1.2160953 0.13526571 100
-0.91132253 1.2156558 0.026667276 88
-0.91145259 1.2156955 0.080074012 98
-0.93266386 1.2221642 0.13561434 99
-0.90975803 1.220754 0.026667276 88
-0.90034622 1.2178478 0.079550654 95
-0.93678755 1.2291005 0.13613728 89
-0.91581017 1.2282335 0.026806897 85
-0.90449291 1.2246956 0.079864666 80
-0.92186457 1.2301261 0.1349171 59
-0.90276259 1.2297274 0.026597468 83
-0.90480107 1.2303724 0.079969339 64
-0.90695256 1.2310534 0.13369691 45
-0.90106791 1.235049 0.026597468 81
-0.90690786 1.2369206 0.080178685 80
-0.90715033 1.2369983 0.13387123 43
-0.8994357 1.2401114 0.026597468 92
-0.89577001 1.2389224 0.079655327 100
-0.91498727 1.2451553 0.13474278 54
-0.89026839 1.2424222 0.026457848 100
-0.88661593 1.2412242 0.079236634 100
-0.92476243 1.2537366 0.13578865 71
-0.88861066 1.2474468 0.026457848 100
-0.88875347 1.2474942 0.07944598 100
-0.90604621 1.2532333 0.13421984 85
-0.8830598 1.2514427 0.026388038 99
-0.88510042 1.2521282 0.079341307 100
-0.89293331 1.2547598 0.13317397 90
-0.87001044 1.2525815 0.02617861 96
-0.89097291 1.2597054 0.07976 100
-0.89877814 1.262358 0.13387123 84
-0.87209946 1.2588353 0.02624842 96
-0.87036687 1.2582397 0.078713275 100
-0.89893478 1.2680597 0.13404553 100
-0.87802631 1.2661738 0.026388038 88
-0.86308008 1.2609806 0.078399263 100
-0.9123314 1.2780932 0.13544002 85
-0.87628561 1.2711556 0.026388038 79
-0.86701065 1.2678965 0.078713275 82
-0.90302998 1.2805526 0.13474278 47
-0.86707824 1.2732059 0.02624842 81
-0.85029489 1.267246 0.077875905 38
-0.88255376 1.2787012 0.13299966 37
-0.85393268 1.2743399 0.026038991 93
-0.86913913 1.2798026 0.079027295 17
-0.8788045 1.2832748 0.13282534 31
-0.84849316 1.2776282 0.025969181 93
-0.85805374 1.2810986 0.078503937 59
-0.88271302 1.2900494 0.13334829 20
-0.84662324 1.2827506 0.025969181 99
-0.84492165 1.2821258 0.077875905 100
-0.86583477 1.2898037 0.13195379 13
-0.85241479 1.2901607 0.0261088 100
-0.85070616 1.2895269 0.07829459 100
-0.87531143 1.2986531 0.13299966 3
-0.83552021 1.2896792 0.025829561 100
-0.84692246 1.2939559 0.078189917 59
-0.87149876 1.303174 0.13282534 1
-0.82630938 1.2914369 0.025689943 96
-0.847045 1.299293 0.07829459 51
-0.84550196 1.2987084 0.1305593 5
-0.83381838 1.299813 0.025864467 74
-0.8414585 1.3027382 0.078085244 55
-0.84922999 1.3057135 0.13108224 22
-0.83578402 1.3058413 0.025934275 72
-0.83037001 1.3037479 0.077561885 76
-0.84930402 1.3110691 0.13125655 61
-0.83753568 1.3123729 0.026004085 88
-0.82840437 1.3088036 0.077561885 63
-0.85287851 1.3183703 0.13177948 100
-0.82642931 1.3133003 0.025829561 100
-0.82103676 1.3111718 0.077247873 72
-0.82881337 1.3142413 0.12968774 97
-0.80957001 1.3124135 0.025550323 100
-0.83017451 1.3206338 0.077875905 91
-0.82865995 1.3200295 0.12986206 95
-0.82260281 1.3228962 0.025829561 100
-0.81907791 1.3214763 0.077352546 97
-0.83422083 1.327576 0.1305593 100
-0.81315869 1.3249075 0.025689943 100
-0.81149787 1.3242314 0.077038527 100
-0.84323996 1.337153 0.13160518 100
-0.78297943 1.3126223 0.17671055 15
-0.81501025 1.330945 0.025759751 100
-0.80041569 1.3249475 0.076515168 100
-0.81923741 1.3326821 0.12951343 100
-0.78300887 1.3177942 0.17695428 16
-0.80186433 1.3313432 0.025550323 100
-0.80021721 1.3306592 0.076619841 100
-0.80428547 1.3323485 0.12829325 100
-0.81215864 1.3356178 0.18109785 26
-0.79261833 1.332731 0.025410704 100
-0.80940264 1.3397658 0.077247873 99
-0.80608815 1.3383768 0.12864187 100
-0.78647524 1.3301563 0.17792924 20
-0.79054683 1.3376482 0.025410704 100
-0.78707439 1.3361778 0.076096483 96
-0.81683868 1.3487813 0.12986206 100
-0.77710134 1.3319547 0.17695428 28
-0.80152875 1.3475914 0.025655037 71
-0.78702611 1.3413935 0.076201156 45
-0.80391926 1.348613 0.12881619 80
-0.76245278 1.3308918 0.17524812 15
-0.81613177 1.3591974 0.025969181 68
-0.81446737 1.3584795 0.077875905 59
-0.82943541 1.3649352 0.13143086 16
-0.79339582 1.3493917 0.17963541 5
-0.80316895 1.3589363 0.025759751 100
-0.80518299 1.359813 0.077457212 100
-0.80553263 1.3599651 0.12933913 78
-0.79146713 1.3538433 0.17963541 19
-0.79001766 1.3590636 0.025550323 100
-0.81946772 1.3720098 0.078399263 100
-0.81612867 1.3705418 0.1305593 100
-0.78204912 1.3555608 0.17866045 33
-0.78978103 1.3645487 0.025585229 100
-0.80640453 1.3719256 0.077771232 100
-0.82130855 1.3785396 0.13125655 100
-0.76366693 1.3529601 0.17646681 35
-0.79682237 1.3733091 0.025759751 100
-0.80611783 1.3774731 0.077875905 100
-0.81190282 1.3800645 0.1305593 100
-0.75256592 1.3534845 0.17524812 22
-0.80199653 1.3813022 0.025899371 100
-0.81308848 1.3863175 0.078399263 100
-0.80068785 1.3807106 0.12968774 100
-0.78488821 1.3735667 0.17987914 19
-0.79439682 1.3835273 0.025794657 100
-0.81456286 1.3927302 0.07860861 100
-0.80398554 1.3879032 0.13021068 100
-0.77735549 1.3757503 0.17914793 14
-0.78861445 1.3865433 0.025724847 100
-0.81419486 1.3983252 0.078713275 100
-0.80543977 1.3942926 0.1305593 100
-0.75720257 1.3720754 0.17671055 15
-0.79370767 1.3945837 0.025864467 100
-0.80474871 1.3997158 0.07829459 100
-0.81409281 1.4040592 0.13160518 100
-0.75869316 1.3783083 0.17719802 11
-0.80419213 1.4052148 0.0261088 100
-0.79711765 1.4018964 0.077980578 100
-0.8082636 1.4071245 0.13125655 100
-0.77453381 1.3913028 0.17963541 5
-0.79846305 1.4079915 0.026038991 100
-0.80765253 1.4123392 0.078713275 100
-0.80254132 1.4099211 0.13090792 100
-0.77964371 1.3990877 0.18061037 3
-0.78720492 1.4083871 0.025864467 100
-0.80900687 1.4187953 0.078922622 100
-0.7967034 1.4129217 0.1305593 100
-0.78676993 1.4139187 0.025899371 100
-0.81213206 1.4261355 0.079236634 100
-0.81240088 1.426265 0.13230242 100
-0.79530531 1.4238255 0.0261088 100
-0.79546267 1.423902 0.078399263 100
-0.81368572 1.4327586 0.13265105 100
-0.79660577 1.4302783 0.02617861 100
-0.79137856 1.4277153 0.07829459 100
-0.80778617 1.4357604 0.13230242 100
-0.80146235 1.4385214 0.02631823 100
-0.80339617 1.4394779 0.079131968 100
-0.80902559 1.4422626 0.13265105 100
-0.7919634 1.4396632 0.02617861 100
-0.80819947 1.4477654 0.079550654 100
-0.7959742 1.4416647 0.13160518 100
-0.78604537 1.4425452 0.0261088 100
-0.80939335 1.4542983 0.07976 100
-0.79896039 1.4490464 0.1321281 100
-0.78725559 1.4490155 0.02617861 100
-0.79631132 1.4536138 0.079131968 100
-0.80724078 1.4591634 0.13317397 100
-0.79199654 1.4573256 0.02631823 100
-0.79391688 1.4583091 0.079131968 100
-0.81546682 1.4693463 0.13421984 100
-0.79681712 1.4654419 0.026457848 100
-0.79872555 1.4664273 0.079550654 100
-0.80959958 1.4720422 0.13387123 100
-0.78728706 1.4664443 0.02631823 100
-0.80160064 1.4738986 0.079864666 100
-0.79653805 1.4712621 0.13282534 100
-0.78118509 1.4694806 0.02624842 100
-0.80431575 1.4816349 0.080178685 100
-0.79748625 1.4780462 0.13317397 100
-0.77873534 1.4741231 0.02624842 61
-0.78064603 1.4751356 0.078922622 68
-0.80204839 1.4864771 0.13387123 89
0.12021527 1.3045444 0.011972351 11
0.13542846 1.2856231 0.12860526 11
0.17878926 1.231693 0.13677025 7
0.16067335 1.2575265 0.010890301 26
0.16364032 1.2538112 0.032448292 29
0.1670689 1.2495178 0.053687938 26
0.13378695 1.2911944 0.081896201 13
0.15061602 1.2701206 0.10136953 11
0.14939162 1.2716539 0.12478908 48
0.15579945 1.2636298 0.16926765 7
0.16477749 1.2556815 0.010820492 100
0.16897023 1.2503953 0.032134276 90
0.15751812 1.2648339 0.055256739 99
0.16635704 1.25369 0.075802729 30
0.16946226 1.2497751 0.096989371 25
0.17179751 1.2468307 0.11830158 100
0.18549243 1.2295644 0.13542053 30
0.15143609 1.2725021 0.17185585 36
0.16515273 1.258527 0.010855397 100
0.17303726 1.2485185 0.031924933 100
0.1505307 1.2770884 0.056476921 100
0.17533362 1.2456034 0.074340299 30
0.16861054 1.2541378 0.097615108 37
0.16123182 1.2635043 0.12211776 100
0.18822432 1.2292399 0.13497064 38
0.15071368 1.2768561 0.17289113 42
0.16448247 1.263085 0.010925206 100
0.18217477 1.2404562 0.031296901 94
0.14993757 1.2816882 0.056825545 100
0.18686083 1.2344626 0.072390392 31
0.18498802 1.236858 0.093860678 39
0.16908941 1.2571927 0.12020966 100
0.19231054 1.2274923 0.13407083 31
0.1430549 1.2904913 0.17703223 34
0.16489327 1.2659402 0.010960111 100
0.1763871 1.2511384 0.031924933 61
0.16141239 1.2704229 0.055431053 74
0.1652706 1.2654543 0.077021427 29
0.17926896 1.2474272 0.095737889 38
0.18274814 1.2429467 0.11639348 79
0.1878536 1.2363719 0.13632034 30
0.15189222 1.2826829 0.1739264 35
0.17037556 1.2625966 0.010855397 65
0.17937225 1.2509226 0.03182026 61
0.17176253 1.2607969 0.054210871 51
0.17557129 1.2558546 0.075315252 45
0.18825617 1.2393949 0.093860678 26
0.17729357 1.2536199 0.1186832 13
0.18956539 1.2376961 0.13632034 15
0.15377399 1.2841387 0.1739264 49
0.17452759 1.2607424 0.010785587 52
0.17134413 1.2649032 0.032657638 29
0.16621393 1.2716084 0.055256739 49
0.18209451 1.2508525 0.074340299 46
0.18629584 1.2453613 0.094799288 51
0.18972078 1.2408849 0.11524864 20
0.1923843 1.2374036 0.13587044 30
0.16144055 1.2778472 0.1713382 58
0.17632878 1.2621152 0.010785587 65
0.1683293 1.2726504 0.033076324 29
0.16685012 1.2745984 0.055431053 49
0.19826493 1.2332259 0.071415432 64
0.18445683 1.2514108 0.095737889 51
0.19382358 1.2390751 0.1144854 13
0.20234916 1.2278471 0.13272113 47
0.17148235 1.2684979 0.16771474 67
0.17804885 1.2634166 0.010785587 52
0.17008621 1.2739797 0.033076324 29
0.18060711 1.2600229 0.053687938 52
0.19032457 1.2471322 0.073365346 62
0.20754305 1.2242907 0.090106249 55
0.20373565 1.2293415 0.11181407 14
0.2027764 1.2306139 0.13317102 38
0.17322475 1.2698162 0.16771474 67
0.17720339 1.2677839 0.010855397 52
0.17885482 1.2655787 0.032448292 29
0.18095407 1.2627758 0.053862248 51
0.19063535 1.2498486 0.073609084 77
0.20186716 1.2348511 0.091983467 53
0.18752754 1.2539984 0.11753834 13
0.21357045 1.2192241 0.12957181 32
0.17942896 1.2648122 0.16564418 68
0.18252257 1.2642679 0.010750682 79
0.19488683 1.2476376 0.03119223 31
0.18267643 1.264061 0.053862248 51
0.18994373 1.2542863 0.07409656 76
0.20938492 1.2281373 0.090419121 68
0.20210424 1.2379299 0.11334054 13
0.21514058 1.2203957 0.12957181 32
0.18576896 1.2599014 0.16357364 69
0.18900013 1.2591119 0.010611063 94
0.20841679 1.2328047 0.030145511 65
0.18085378 1.2701492 0.054385185 76
0.201067 1.2427628 0.072146654 63
0.20394784 1.2388595 0.092296332 80
0.21190077 1.2280843 0.11066922 14
0.20745689 1.2341052 0.13317102 31
0.18289241 1.2673872 0.16564418 68
0.19543716 1.2539169 0.010471444 82
0.19941044 1.248494 0.031087559 63
0.18024677 1.2746491 0.054733805 75
0.20506588 1.2407753 0.071659178 64
0.20208406 1.2448449 0.093234941 92
0.21118116 1.232429 0.11143246 14
0.22405186 1.2148627 0.1273223 16
0.19033974 1.2608739 0.163056 70
0.19948098 1.2519172 0.010401634 83
0.20930648 1.2384084 0.030354854 65
0.18201056 1.2759367 0.054733805 75
0.19153187 1.2628462 0.074827775 100
0.20839146 1.2396665 0.091983467 93
0.2127974 1.2336088 0.11143246 14
0.23592311 1.2018141 0.12327318 17
0.18523741 1.2715002 0.16616182 68
0.19180062 1.2661079 0.010680873 93
0.21445107 1.2347369 0.03004084 99
0.19894087 1.2562187 0.052467756 100
0.20371273 1.2496096 0.072634131 78
0.21581471 1.2328483 0.090419121 100
0.21441776 1.2347832 0.11143246 14
0.2465584 1.1902682 0.11967396 17
0.19264457 1.2649391 0.16357364 69
0.20052406 1.2576032 0.010471444 96
0.21025786 1.2440223 0.030564198 97
0.19367626 1.2671576 0.053513627 100
0.21001464 1.2443616 0.071659178 80
0.2151309 1.2372231 0.091044858 100
0.21032375 1.2439303 0.11334054 13
0.22532254 1.2230034 0.128672 8
0.20000139 1.2583325 0.16098544 72
0.20686522 1.2523025 0.010331824 98
0.21191457 1.2452053 0.030564198 97
0.19541383 1.2683983 0.053513627 100
0.20246637 1.2584854 0.073609084 77
0.21332842 1.2432179 0.091983467 100
0.20742768 1.2515119 0.11486702 20
0.23029491 1.2193704 0.1273223 16
0.19834837 1.2642736 0.16253836 70
0.20624375 1.2567642 0.010401634 83
0.21933609 1.2382252 0.03004084 99
0.19485706 1.2728879 0.053862248 100
0.20417362 1.2596955 0.073609084 93
0.21156377 1.2492311 0.092922069 100
0.21250814 1.2478938 0.11372216 55
0.23748618 1.2125244 0.12507279 25
0.20341909 1.260764 0.16098544 72
0.1987623 1.2710608 0.010680873 100
0.2198261 1.2410121 0.030145511 98
0.19432735 1.2773876 0.054210871 100
0.21272179 1.2511468 0.072146654 79
0.22344354 1.2358516 0.090106249 96
0.205163 1.2619299 0.1167751 99
0.23455846 1.2199955 0.12687239 49
0.19626313 1.274626 0.16512655 68
0.20499539 1.2656578 0.010541254 95
0.21910784 1.2453829 0.030354854 97
0.20284122 1.2687527 0.053165004 100
0.20411268 1.2669261 0.074340299 100
0.22611865 1.2353107 0.089793384 100
0.21576884 1.25018 0.11372216 82
0.22714612 1.2338345 0.13047162 88
0.2089749 1.2599406 0.15995017 72
0.21354765 1.2569877 0.010331824 98
0.22871619 1.2350326 0.029622151 100
0.21364439 1.2568477 0.051770512 100
0.22051811 1.2468985 0.071171694 65
0.22662205 1.2380636 0.090106249 100
0.22749057 1.2368065 0.1102876 85
0.22876716 1.2349586 0.13047162 96
0.21288338 1.2579492 0.15891489 73
0.21977326 1.2515625 0.010192205 99
0.22582325 1.2427399 0.03004084 66
0.20858517 1.2678778 0.05281638 100
0.22667542 1.2414972 0.07019674 82
0.229375 1.2375604 0.089793384 100
0.22246015 1.2476442 0.1125773 96
0.22267747 1.2473273 0.13362093 93
0.2124036 1.2623094 0.15995017 72
0.21470535 1.2626309 0.010401634 83
0.22410408 1.2488219 0.030354854 65
0.20471996 1.277302 0.053687938 78
0.22273853 1.2508283 0.071415432 64
0.22545174 1.2468419 0.09135773 94
0.2274434 1.2439156 0.11143246 100
0.23311746 1.235579 0.13002171 96
0.2108632 1.268276 0.16150309 70
0.22202384 1.2555132 0.01022711 42
0.25149167 1.2118911 0.0279474 35
0.20872346 1.2752022 0.053339314 52
0.22664133 1.2486777 0.070927955 97
0.23375276 1.2381505 0.089480512 97
0.22030783 1.2580534 0.1144854 100
0.23147202 1.2415267 0.13137141 94
0.21584877 1.2646543 0.15995017 72
0.21703911 1.2666206 0.010436539 41
0.23968926 1.2328373 0.029203463 34
0.21825561 1.2648063 0.052119136 54
0.23273599 1.2432083 0.069953002 99
0.23208871 1.2441738 0.090419121 100
0.22638661 1.2526786 0.11295892 89
0.23637551 1.2377799 0.13002171 96
0.21865329 1.2642131 0.15943253 73
0.23436636 1.2445276 0.0099478718 43
0.20820361 1.2838609 0.032343622 30
0.22558859 1.2577242 0.051247578 55
0.23117435 1.2493265 0.070684217 81
0.23382878 1.2453358 0.090419121 100
0.23468173 1.2440535 0.11066922 100
0.23161653 1.2486618 0.13272113 94
0.22581646 1.2573817 0.15684435 74
0.22721136 1.2589774 0.01022711 42
0.20339745 1.2950519 0.032971654 29
0.22948831 1.2555281 0.050898954 55
0.22847494 1.2570632 0.071659178 80
0.23875475 1.2414908 0.089480512 97
0.24066478 1.2385974 0.10914274 85
0.2375837 1.2432648 0.13092151 96
0.22858399 1.256898 0.1563267 74
0.23541141 1.25001 0.010017681 29
0.18981341 1.3195851 0.03443706 27
0.22236317 1.2699195 0.052293446 53
0.23770875 1.2465047 0.069953002 99
0.2327404 1.2540855 0.091670595 100
0.23899195 1.2445468 0.1102876 85
0.2423594 1.2394085 0.12957181 96
0.22066993 1.2725031 0.16098544 80
0.22400549 1.2712212 0.010436539 41
0.21351311 1.2873533 0.032343622 30
0.22085133 1.2760707 0.05281638 53
0.23396236 1.2559123 0.071171694 81
0.24412531 1.2402866 0.088854775 98
0.23957989 1.2472752 0.11066922 85
0.24931231 1.2323115 0.1273223 89
0.21505293 1.2849858 0.16460891 69
0.23434713 1.25886 0.0101573 42
0.23906529 1.2515528 0.03004084 33
0.22685432 1.2704642 0.052119136 54
0.24095941 1.2486193 0.069953002 66
0.2489011 1.2363198 0.087916173 84
0.22944984 1.2664444 0.11486702 100
0.24978998 1.2349432 0.1277722 97
0.2324813 1.2617496 0.15684435 74
0.24037087 1.253224 0.010017681 58
0.24182564 1.2509536 0.029936166 66
0.2372025 1.2581687 0.05072464 56
0.24370295 1.2480237 0.069709264 66
0.25266215 1.2340416 0.087290429 71
0.24813169 1.241112 0.10876112 79
0.24931204 1.23927 0.128672 81
0.23524201 1.2612283 0.1563267 74
0.24849731 1.2441771 0.0098082526 74
0.24243471 1.2537118 0.03004084 66
0.23356321 1.2676641 0.051596198 54
0.24004778 1.2574657 0.070927955 97
0.25004411 1.2417444 0.08854191 70
0.24240416 1.2537599 0.11143246 91
0.25199756 1.2386721 0.12822211 89
0.23177582 1.2704751 0.15891489 65
0.24268487 1.2570651 0.010052586 86
0.25584847 1.236202 0.028889447 100
0.22892329 1.2788758 0.05264207 53
0.25022545 1.2451138 0.068978049 50
0.24747628 1.2494711 0.089793384 83
0.2503804 1.2448683 0.10914274 85
0.25987461 1.229821 0.12552269 99
0.23970991 1.26178 0.15580906 75
0.24341124 1.2598832 0.010087491 71
0.25544003 1.2406631 0.029098792 100
0.23184758 1.2783602 0.052467756 80
0.24565017 1.2563057 0.070440479 49
0.26390707 1.2271339 0.085413218 58
0.24170759 1.2626054 0.11295892 89
0.26362953 1.2275774 0.12462288 100
0.23126578 1.2792898 0.16098544 64
0.24090338 1.2677456 0.01022711 70
0.25497743 1.2450818 0.029308135 100
0.24098161 1.2676196 0.051247578 82
0.24525508 1.2607379 0.070927955 48
0.26446241 1.2298079 0.08572609 58
0.25275043 1.248668 0.10952436 71
0.25906017 1.2385073 0.1273223 89
0.24323693 1.2639878 0.15580906 67
0.25514725 1.2483405 0.0098082526 89
0.2523624 1.2528583 0.029726824 100
0.24890625 1.2584653 0.050201707 85
0.25313389 1.2516067 0.069465525 49
0.25976953 1.2408417 0.087603301 57
0.25639972 1.2463086 0.10876112 79
0.26368308 1.2344928 0.12597258 90
0.24082196 1.2715805 0.15787962 65
0.25160199 1.2578964 0.0099827768 87
0.24883932 1.2624136 0.030250182 100
0.24437591 1.2697115 0.051247578 82
0.25895977 1.2458662 0.068490572 50
0.26244551 1.2401668 0.087290429 57
0.25703982 1.2490053 0.10914274 92
0.26022241 1.2438016 0.12822211 97
0.24257469 1.2726567 0.15787962 65
0.25226951 1.2606447 0.010017681 87
0.26610187 1.2378496 0.028680105 100
0.2492229 1.2656653 0.05072464 84
0.25238413 1.2604558 0.070440479 49
0.26408845 1.2411677 0.087290429 71
0.26380605 1.2416331 0.10723466 73
0.26996568 1.2314823 0.12462288 83
0.24332896 1.2753782 0.15839726 73
0.25707823 1.2565415 0.0099129668 87
0.26258591 1.2473933 0.029203463 100
0.24478903 1.2769537 0.051770512 81
0.26433676 1.244485 0.068003096 51
0.26981038 1.2353934 0.086038955 72
0.260391 1.2510389 0.10914274 85
0.27559879 1.2257788 0.12282328 85
0.24409851 1.2781007 0.15891489 65
0.25057495 1.2712951 0.010192205 85
0.26937497 1.2398202 0.028680105 100
0.25371227 1.2660426 0.05055033 84
0.25988713 1.2557046 0.069465525 49
0.27650139 1.2278892 0.084474608 59
0.25603145 1.2621598 0.11143246 84
0.27219492 1.2350991 0.12507279 83
0.26082924 1.2541274 -0.0098431576 87
0.25181779 1.2692143 0.15580906 67
0.26659864 1.2482525 0.0097035384 90
0.27101666 1.2407969 0.028680105 100
0.2595084 1.2602175 0.049853086 85
0.26158431 1.2567143 0.069465525 49
0.27105215 1.240737 0.086664692 71
0.2637563 1.253049 0.10914274 85
0.27580702 1.232713 0.12417299 83
0.25553188 1.2669282 0.15477379 67
0.26624292 1.2526866 0.0097733475 89
0.26760083 1.2503767 0.029203463 100
0.25516307 1.2715341 0.050898954 83
0.26932114 1.2474505 0.068003096 68
0.27469924 1.238302 0.086038955 58
0.26743412 1.2506604 0.10837951 87
0.27742386 1.2336673 0.12417299 67
0.26118442 1.2612914 0.15270324 68
0.26994434 1.2502193 0.0097035384 90
0.27028555 1.2496343 0.029098792 100
0.26093039 1.2656758 0.050201707 85
0.26498923 1.2587161 0.069465525 49
0.27036473 1.2494985 0.087916173 56
0.27010268 1.2499478 0.10799789 79
0.28198922 1.2295657 0.12282328 85
0.25900826 1.2689718 0.15477379 67
0.26961961 1.2546558 0.0097733475 89
0.27796233 1.240235 0.02847076 100
0.2566762 1.2770294 0.051247578 82
0.27663735 1.2425252 0.067028143 51
0.27797529 1.2402126 0.086038955 58
0.26686418 1.2594187 0.10990598 92
0.28749838 1.2237512 0.12102367 86
0.2676169 1.2581177 -0.0098431576 87
0.25688222 1.2766733 0.15684435 66
0.26733184 1.2625692 0.0099129668 87
0.27960539 1.2411816 0.02847076 100
0.26935625 1.2590415 0.049330149 87
0.27433628 1.2503635 0.068003096 51
0.2806015 1.2394459 0.08572609 58
0.27443734 1.2501874 0.10761628 65
0.28714398 1.2280451 0.12192347 93
0.26733184 1.2625692 -0.0099129668 87
0.27019113 1.2575867 0.15063268 78
0.27696696 1.24965 0.0096337283 90
0.27927569 1.2455941 0.028680105 100
0.27205068 1.2582867 0.049155839 87
0.27012259 1.2616738 0.069465525 49
0.28615069 1.2335165 0.084474608 59
0.27417272 1.2545588 0.10837951 87
0.2848883 1.2357342 0.12372308 83
0.27189484 1.2585604 0.15063268 70
0.28552514 1.2384109 0.0093893949 77
0.27700955 1.253493 0.029098792 100
0.27081805 1.2644587 0.049678773 86
0.27379254 1.2591906 0.068978049 50
0.28388539 1.2413152 0.08572609 58
0.27779636 1.2520995 0.10761628 79
0.29226437 1.2264752 0.12102367 86
0.26881114 1.2680132 -0.0099827768 86
0.267903 1.2696216 0.15373851 68
0.2773909 1.2567786 0.0097384425 75
0.28650615 1.2405021 0.028261416 100
0.27059868 1.268907 0.050027397 85
0.28229153 1.2480278 0.067271881 51
0.28553221 1.2422413 0.08572609 58
0.28139943 1.2496208 0.10685304 88
0.29576373 1.2239716 0.12012386 86
0.27153662 1.2672322 0.15270324 68
0.27423674 1.2664678 0.0099129668 87
0.29008973 1.2379271 0.028052073 100
0.26847211 1.2768462 0.05072464 84
0.2849257 1.2472241 0.067028143 51
0.28910062 1.2397078 0.085100345 58
0.28116864 1.253988 0.10761628 87
0.27617872 1.2629716 -0.0098431576 97
0.26764563 1.2783341 0.15580906 67
0.2738668 1.2708341 0.0099827768 87
0.28770375 1.2457374 0.02847076 100
0.27391368 1.2707491 0.050027397 85
0.28450936 1.2515312 0.067515619 51
0.29439256 1.2336056 0.083848871 59
0.28363839 1.2531109 0.10723466 81
0.29689837 1.2290608 0.12102367 86
0.27965981 1.2603271 -0.0097733475 88
0.28043693 1.2589176 0.14959741 78
0.28616992 1.2524951 0.0095988233 76
0.28170028 1.2606692 0.029308135 100
0.28331032 1.2577248 0.048632905 88
0.28428707 1.2559385 0.068003096 51
0.29411697 1.2379614 0.084474608 59
0.28909397 1.2471476 0.10570818 81
0.29943725 1.2282317 0.12057377 77
0.27843788 1.2666355 0.15166797 69
0.28785574 1.2534131 0.0095988233 76
0.29103139 1.2475569 0.02847076 100
0.28311488 1.2621555 0.048981529 87
0.2878775 1.2533729 0.067515619 51
0.29292706 1.2440612 0.085413218 73
0.29263288 1.2446038 0.10494494 82
0.27736998 1.2727497 -0.0099827768 86
0.28569859 1.257391 0.14856213 71
0.291439 1.2508029 0.0095290141 92
0.28513232 1.2625303 0.029308135 100
0.28105986 1.2701032 0.049678773 86
0.29520756 1.243795 0.066053182 52
0.29551899 1.2432159 0.085100345 58
0.29243141 1.2489574 0.10570818 81
0.29895049 1.236835 0.12237337 76
0.28008169 1.2719221 0.15270324 76
0.28935504 1.2587603 0.0096686333 90
0.2981309 1.242304 0.028052073 100
0.28280717 1.2710389 0.049678773 86
0.2884562 1.2604458 0.068246834 85
0.29225725 1.2533182 0.10647142 81
0.28276837 1.2711117 -0.0099129668 87
0.28001732 1.2762704 0.15373851 68
0.28732356 1.2667382 0.0098082526 74
0.29604647 1.2502427 0.02847076 100
0.28828326 1.2649233 0.048981529 87
0.29016978 1.2613559 0.068246834 34
0.29394591 1.254215 0.10647142 81
0.28638878 1.2685061 -0.0098431576 97
0.28901079 1.2635477 0.14959741 70
0.29555941 1.2552551 0.0095639192 91
0.28937703 1.2670457 0.029412808 100
0.2992647 1.2481886 0.047238413 91
0.29649568 1.2534695 0.067028143 51
0.28813049 1.2694231 -0.0098431576 87
0.29342651 1.2593229 0.1480445 79
0.29817724 1.254366 0.0095290141 76
0.29817823 1.2543641 0.047761347 90
0.29635346 1.257874 0.067515619 51
0.28803053 1.2738826 -0.0099129668 97
0.29246274 1.2653576 0.14959741 70
0.29074171 1.2729497 0.049504463 57
0.29242313 1.2696879 0.15063268 70
0.29521897 1.2685293 0.048981529 58
0.28973463 1.2792605 -0.0099827768 100
0.29592723 1.2671435 0.14959741 70
0.29874423 1.2658955 0.0097035384 100
0.29874423 1.2658955 -0.0097035384 100
0.29591787 1.2714739 0.15063268 78
0.29329625 1.281065 -0.0099827768 100
