# .PCD v0.7 - Point Cloud Data file format
VERSION 0.7
FIELDS x y z intensity
SIZE 4 4 4 4
TYPE F F F F
COUNT 1 1 1 1
WIDTH 718
HEIGHT 1
VIEWPOINT 0 0 0 1 0 0 0
POINTS 718
DATA ascii
0.052882165 0.0045056343 0.047835063 47
0.051306725 0.0079167485 0.047730394 33
0.047550142 0.007994771 0.047835063 100
0.037798345 0.0048823357 0.048253752 70
0.039862335 0.013119996 0.047835063 37
0.039467514 0.018209875 0.047625721 19
0.036715508 0.02008611 0.047625721 19
0.027297854 0.012017071 0.048253752 8
0.020096898 0.0072852969 0.048672438 8
0.026600122 0.022229731 0.047835063 9
-1.050442 1.1359622 0.028656852 5
-1.0134459 1.1275026 0.084051549 5
-1.0290565 1.1310722 0.14171524 6
-1.0413635 1.1397364 0.028517231 10
-1.0005159 1.1302458 0.083423518 16
-1.0219646 1.1352292 0.1411923 30
-0.98563224 1.1321592 0.027539898 25
-1.0070884 1.1372193 0.083842203 84
-1.0129879 1.1386106 0.14049506 81
-0.98241395 1.1370516 0.027504992 36
-1.0077395 1.1431177 0.083946876 100
-1.0175045 1.1454566 0.14101799 95
-0.98494428 1.1436114 0.027574802 42
-0.98113364 1.142684 0.082586139 100
-1.0083745 1.1493144 0.14032075 87
-0.98168951 1.1484874 0.027539898 25
-0.97788447 1.1475472 0.082481466 100
-1.0051067 1.154274 0.14014643 84
-0.98236567 1.1540508 0.027574802 23
-0.98049873 1.1535828 0.082690813 54
-0.99416059 1.157007 0.13927488 85
-0.96938783 1.15644 0.027365373 39
-0.97915047 1.1589229 0.082690813 35
-0.97928399 1.1589569 0.1380547 78
-0.96028453 1.1597426 0.027225753 61
-0.99325472 1.1682508 0.083528183 54
-0.97984606 1.1647906 0.13822901 91
-0.95891494 1.1650121 0.027225753 67
-0.97060162 1.1680715 0.082376793 100
-0.98424107 1.1716421 0.13875194 92
-0.96332508 1.1718163 0.027330469 75
-0.95762056 1.1703017 0.081748761 92
-0.97897834 1.1759725 0.13840333 100
-0.95612043 1.1755366 0.027225753 81
-0.95428544 1.1750425 0.081644088 98
-0.96600872 1.1781991 0.13735744 100
-0.94705063 1.1784235 0.027086135 93
-0.95293409 1.1800287 0.081644088 100
-0.95695812 1.1811265 0.1366602 100
-0.94176108 1.1825807 0.027016325 92
-0.95149356 1.1852723 0.081644088 100
-0.95935446 1.1874465 0.13700883 92
-0.94023889 1.1880455 0.027016325 92
-0.94226938 1.1886151 0.081225403 88
-0.96165103 1.194052 0.13735744 92
-0.95415837 1.1976194 0.027295563 77
-0.92927223 1.1905445 0.080597371 78
-0.96016163 1.199326 0.13735744 100
-0.96418589 1.2061886 0.027504992 50
-0.92395681 1.1945999 0.080388032 44
-0.94908112 1.2018373 0.13648589 100
-0.93769914 1.2041882 0.027051231 42
-0.92630023 1.2008615 0.080597371 22
-0.94756454 1.2070675 0.13648589 85
-0.92466861 1.205977 0.026841801 71
-0.92861789 1.2071445 0.080806717 26
-0.94411916 1.2117274 0.13631158 82
-0.91739088 1.209401 0.026737086 81
-0.92134303 1.2105844 0.080492698 30
-0.9387508 1.2157971 0.13596296 92
-0.91975313 1.2154245 0.026806897 83
-0.91987389 1.2154611 0.080492698 78
-0.93345076 1.2195758 0.13561434 99
-0.91818935 1.2205522 0.026806897 85
-0.91449124 1.2194173 0.080283359 100
-0.9299677 1.2241668 0.13544002 98
-0.90904826 1.2230465 0.026667276 89
-0.91490024 1.2248636 0.080388032 88
-0.91703695 1.225527 0.13439415 78
-0.89982718 1.2257382 0.026527658 83
-0.91330355 1.2299743 0.080388032 70
-0.92114002 1.2324376 0.1349171 54
-0.90203863 1.2320088 0.026597468 83
-0.90407604 1.2326571 0.079969339 70
-0.90432805 1.2327373 0.1335226 45
-0.90803093 1.2395264 0.026737086 81
-0.90245229 1.2377299 0.079969339 84
-0.91028982 1.2402538 0.13421984 43
-0.89869553 1.2423875 0.026597468 93
-0.89313275 1.2405736 0.079550654 100
-0.9085564 1.2456028 0.13421984 57
-0.88564366 1.2436821 0.026388038 100
-0.9009648 1.2487372 0.080074012 100
-0.90499526 1.250067 0.13404553 78
-0.87268358 1.2446431 0.02617861 99
-0.8936854 1.2516499 0.07976 100
-0.90717536 1.2561505 0.13439415 82
-0.87480742 1.2508852 0.02624842 96
-0.88821059 1.255409 0.079550654 100
-0.90546948 1.261234 0.13439415 73
-0.87312013 1.2558558 0.02624842 93
-0.87327641 1.2559092 0.078817949 100
-0.90563136 1.2669553 0.13456847 89
-0.87897629 1.2634313 0.026388038 93
-0.87723523 1.26283 0.079131968 100
-0.88693839 1.2661806 0.13299966 100
-0.86969358 1.2657793 0.02624842 81
-0.88116306 1.2697845 0.07944598 97
-0.8946026 1.2744777 0.13387123 64
-0.86229759 1.2687342 0.026143705 74
-0.86999339 1.271452 0.078922622 57
-0.89846891 1.2815076 0.13439415 36
-0.86054808 1.273661 0.026143705 83
-0.8494249 1.2696893 0.077875905 23
-0.89104551 1.2845507 0.13387123 36
-0.85690051 1.2779026 0.0261088 96
-0.85706502 1.2779621 0.078399263 42
-0.87987047 1.286195 0.13299966 28
-0.85511905 1.2828106 0.0261088 96
-0.85340708 1.2821858 0.07829459 78
-0.87993163 1.2918661 0.13317397 16
-0.84956831 1.286328 0.026038991 100
-0.85723215 1.2891554 0.07860861 100
-0.8594088 1.2899584 0.13143086 11
-0.83294791 1.2851381 0.025759751 100
-0.84997934 1.2914822 0.07829459 93
-0.89884382 1.3096838 0.13526571 1
-0.83488435 1.2913716 0.025829561 100
-0.83319706 1.2907363 0.077457212 46
-0.88576335 1.3105261 0.13421984 1
-0.83679396 1.2976246 0.025899371 85
-0.8369711 1.2976921 0.077771232 53
-0.85407323 1.3041987 0.13143086 11
-0.84054321 1.304615 0.026004085 75
-0.83139211 1.3010968 0.077561885 63
-0.86335808 1.3133866 0.13247673 48
-0.8312127 1.3065692 0.025864467 72
-0.83697671 1.3088084 0.077980578 70
-0.85402399 1.3154309 0.13177948 100
-0.82374698 1.3091955 0.025759751 93
-0.82765073 1.3107277 0.077561885 57
-0.84283823 1.3166888 0.13090792 100
-0.81813866 1.3125132 0.025689943 100
-0.82946807 1.3170058 0.077771232 80
-0.83536524 1.319344 0.130385 99
-0.81994921 1.3187728 0.025759751 100
-0.8164261 1.3173616 0.0771432 95
-0.8408373 1.3271401 0.13108224 99
-0.82553715 1.3263117 0.025899371 100
-0.8238613 1.3256339 0.077666558 97
-0.82789975 1.3272672 0.13003637 100
-0.80877727 1.3250601 0.025620133 100
-0.81266874 1.3266497 0.0771432 100
-0.8148796 1.3275528 0.1289905 100
-0.80436772 1.3232588 0.17963541 22
-0.80293947 1.3287468 0.025550323 100
-0.80867523 1.3311155 0.077038527 100
-0.80904561 1.3312684 0.12864187 100
-0.77838117 1.3186045 0.17646681 16
-0.80098087 1.3334659 0.025550323 100
-0.79933494 1.3327794 0.076619841 100
-0.81443352 1.3390768 0.12933913 100
-0.76729745 1.3194172 0.17524812 18
-0.80657667 1.3408096 0.025689943 100
-0.78651458 1.3323681 0.075991809 100
-0.81263906 1.3433604 0.12933913 100
-0.79301065 1.3351014 0.17890419 28
-0.80457598 1.3455415 0.025689943 93
-0.78821987 1.3385921 0.076201156 81
-0.80512816 1.3457761 0.12881619 100
-0.77275974 1.3320231 0.17646681 18
-0.80990952 1.35342 0.025829561 60
-0.81192368 1.354284 0.077666558 42
-0.81043404 1.353645 0.12951343 35
-0.80727571 1.35229 0.18134159 8
-0.80419487 1.3565737 0.025759751 86
-0.81537396 1.361416 0.077980578 89
-0.83581215 1.3702688 0.1321281 45
-0.77244693 1.3428221 0.17695428 9
-0.80020386 1.3607316 0.025724847 100
-0.80953759 1.3648152 0.077771232 100
-0.8208254 1.3697538 0.13090792 100
-0.78125054 1.3524393 0.17841671 33
-0.79813355 1.3654411 0.025724847 100
-0.79649109 1.3647156 0.0771432 100
-0.81507844 1.3729253 0.1305593 100
-0.76286656 1.3498645 0.17622307 35
-0.79604691 1.3701434 0.025724847 100
-0.80717605 1.3751054 0.077875905 100
-0.80568665 1.3744414 0.12986206 100
-0.77352577 1.3601022 0.17792924 30
-0.79576725 1.375659 0.025759751 100
-0.8123408 1.3831178 0.07829459 100
-0.80720228 1.3808053 0.13021068 100
-0.79318053 1.3744948 0.18085411 31
-0.78818303 1.3778718 0.025655037 100
-0.81382924 1.3895216 0.078503937 100
-0.80506188 1.3855391 0.13021068 100
-0.78021806 1.3742537 0.17939167 21
-0.78968853 1.3842059 0.025724847 100
-0.80439621 1.390949 0.078085244 100
-0.80290502 1.3902653 0.13021068 100
-0.78170973 1.380548 0.17987914 17
-0.79479569 1.3922374 0.025864467 100
-0.79859513 1.3939955 0.077875905 100
-0.81338912 1.4008408 0.13143086 100
-0.75975293 1.3760232 0.17719802 13
-0.80167502 1.4011582 0.026038991 100
-0.80002815 1.4003892 0.078085244 100
-0.80215234 1.4013811 0.1305593 100
-0.77741486 1.3898301 0.17987914 8
-0.79233819 1.4022288 0.025899371 100
-0.8069647 1.4091177 0.07860861 100
-0.79644626 1.4041636 0.13021068 100
-0.78792316 1.4001493 0.18158533 5
-0.78470486 1.4043355 0.025794657 100
-0.80833322 1.4155653 0.078817949 100
-0.80502146 1.4139912 0.13125655 100
-0.77675086 1.4005553 0.18036664 1
-0.78969485 1.4124494 0.025934275 100
-0.79706711 1.4159846 0.07829459 100
-0.81354421 1.4238863 0.13230242 100
-0.80004448 1.4232185 0.02617861 100
-0.79839975 1.4224226 0.078503937 100
-0.81484038 1.4303775 0.13265105 100
-0.80494422 1.4314361 0.02631823 100
-0.79611415 1.4271255 0.078503937 100
-0.81073648 1.4342636 0.13247673 100
-0.79545134 1.4326276 0.02617861 100
-0.80097908 1.4353499 0.078922622 100
-0.80662209 1.4381292 0.13230242 100
-0.78596681 1.433761 0.026038991 100
-0.80938035 1.4453938 0.079550654 100
-0.80428165 1.4428606 0.13230242 100
-0.79436797 1.4437964 0.02624842 100
-0.80344337 1.4483449 0.079341307 100
-0.80548698 1.4493692 0.13265105 100
-0.79212624 1.4482508 0.02624842 100
-0.79583877 1.4501269 0.079027295 100
-0.813896 1.4592522 0.13369691 100
-0.80756634 1.462013 0.026597468 100
-0.80235356 1.4593558 0.079550654 100
-0.81148177 1.4640089 0.13369691 100
-0.79103559 1.4591987 0.02631823 100
-0.80006009 1.4638367 0.079550654 100
-0.80562872 1.4666985 0.13334829 100
-0.78152019 1.4601946 0.02617861 100
-0.80117637 1.4703833 0.07976 100
-0.80672628 1.4732602 0.13369691 100
-0.78961343 1.4706306 0.026388038 100
-0.79506058 1.4734796 0.079550654 100
-0.81296712 1.4828448 0.13456847 100
-0.79423457 1.4790343 0.026527658 93
-0.78553051 1.4744432 0.079131968 100
-0.81575733 1.4903867 0.13509139 100
-0.81129783 1.4938149 0.026911611 28
-0.78671414 1.4807434 0.079341307 25
-0.79400998 1.4846227 0.13317397 60
0.13302594 1.2862083 0.12898688 5
0.16340646 1.2520301 0.010785587 13
0.13763613 1.2841623 0.03454173 27
0.1286692 1.2953429 0.05891728 22
0.082831025 1.3524969 0.11826446 8
0.15202677 1.2662191 0.12364423 24
0.13784513 1.2839017 0.1765146 6
0.16509143 1.2533767 0.010785587 39
0.16058379 1.2590375 0.032762308 58
0.15905106 1.2609622 0.054908119 50
0.17408508 1.2420822 0.07409656 15
0.16238931 1.25677 0.09855371 24
0.14886948 1.2737485 0.12517071 72
0.18825257 1.2242904 0.13407083 15
0.14686188 1.2762697 0.17340876 14
0.16678107 1.2547174 0.010785587 100
0.16848662 1.25256 0.032238949 100
0.14717495 1.2795162 0.056825545 100
0.1671173 1.254292 0.075802729 30
0.17021635 1.2503722 0.096989371 37
0.15793589 1.2659051 0.122881 100
0.18863195 1.227079 0.13452072 46
0.14743343 1.2791893 0.1739264 35
0.15983242 1.2670629 0.011029921 100
0.17510623 1.2476046 0.03182026 100
0.15387675 1.2746503 0.056128297 100
0.16513306 1.2603101 0.076533951 14
0.18165302 1.2392641 0.094486415 39
0.16088152 1.2657264 0.12249938 100
0.19143289 1.2268047 0.13407083 46
0.15517738 1.2729933 0.1713382 43
0.16525748 1.26369 0.010925206 100
0.17309251 1.2536364 0.032134276 90
0.15809014 1.272887 0.055779677 100
0.16806713 1.2600847 0.076290213 29
0.18329328 1.2405469 0.094486415 26
0.18071643 1.2438536 0.1167751 100
0.18704018 1.2357391 0.13632034 30
0.15693557 1.2743685 0.1713382 43
0.16812071 1.2633817 0.010890301 78
0.17958832 1.2485659 0.031715591 61
0.16585743 1.2663059 0.054908119 75
0.17090946 1.2597787 0.076046467 29
0.17276484 1.2573817 0.097615108 24
0.18709648 1.2388654 0.11524864 27
0.18620107 1.2400223 0.13722014 22
0.15269804 1.2833076 0.1739264 28
0.1759375 1.2567837 0.010715778 66
0.17517626 1.2577744 0.032238949 30
0.16273624 1.2739631 0.055605363 49
0.19318369 1.2343404 0.071902916 48
0.18409744 1.2461648 0.095112152 51
0.18873534 1.2401294 0.11524864 13
0.19971794 1.2258372 0.13272113 23
0.14389828 1.2984776 0.17858514 60
0.1752989 1.2613316 0.010785587 52
0.17212197 1.2654974 0.032657638 29
0.16458595 1.2753792 0.055605363 49
0.18044275 1.2545867 0.074827775 45
0.19183451 1.2396491 0.093547814 52
0.18212721 1.252378 0.11791996 13
0.20611793 1.2209198 0.13092151 40
0.16692469 1.2723124 0.16926765 59
0.1794304 1.2594479 0.010715778 39
0.16662031 1.2763674 0.03328567 28
0.16996038 1.271956 0.055082429 50
0.18093827 1.2574563 0.075071514 75
0.20420757 1.2267222 0.090731993 54
0.1849983 1.2520938 0.11753834 13
0.19945985 1.2329931 0.13407083 46
0.18150768 1.2567043 0.16357364 69
0.1762484 1.2670673 0.010855397 39
0.17790407 1.2648654 0.032448292 29
0.17641655 1.2668437 0.054385185 51
0.19210076 1.2459846 0.073121607 62
0.20453686 1.2294453 0.091044858 54
0.19367826 1.2438866 0.11524864 13
0.20919517 1.22325 0.13092151 40
0.18312368 1.2579236 0.16357364 69
0.19234002 1.2491392 0.010436539 55
0.17963374 1.2661612 0.032448292 29
0.18172857 1.2633548 0.053862248 51
0.20088914 1.2376864 0.071659178 80
0.19787124 1.2417293 0.093234941 53
0.21177605 1.2231017 0.10990598 14
0.20611656 1.2306834 0.13272113 31
0.18251789 1.2622974 0.16460891 77
0.18933731 1.2568743 0.010576159 67
0.19928759 1.2434419 0.030878214 63
0.1776095 1.2727062 0.054733805 50
0.19551596 1.2485335 0.073121607 78
0.19842675 1.2446041 0.093547814 65
0.20876455 1.2306486 0.11143246 14
0.21940711 1.2162818 0.12822211 32
0.18202487 1.2667457 0.16564418 68
0.18985435 1.2597413 0.010611063 81
0.20330882 1.2414453 0.03066887 64
0.18290761 1.2691877 0.054210871 100
0.19483644 1.2529664 0.073609084 77
0.20593697 1.2378714 0.091983467 93
0.20339599 1.2413268 0.11372216 13
0.22558495 1.2111533 0.12642249 24
0.1780386 1.2758088 0.16823238 67
0.1868498 1.2674558 0.010750682 92
0.20495659 1.2426525 0.03066887 64
0.18112808 1.2752937 0.054733805 75
0.20003581 1.2493932 0.072877869 94
0.20640752 1.240665 0.092296332 100
0.20851606 1.2377768 0.1125773 13
0.239766 1.1949694 0.12147357 17
0.19119704 1.2615008 0.163056 70
0.20023841 1.2524672 0.010401634 83
0.21004266 1.2389431 0.030354854 65
0.19216099 1.2636093 0.053339314 100
0.20046234 1.2521583 0.073121607 78
0.20681077 1.2434012 0.092609204 100
0.21237376 1.2357275 0.11181407 14
0.23317042 1.2070402 0.12462288 16
0.19396275 1.2611239 0.16253836 70
0.1995886 1.2569313 0.010471444 96
0.21284828 1.2385057 0.030250182 65
0.19039491 1.269707 0.053862248 100
0.20330703 1.2517643 0.072877869 47
0.20846534 1.2445962 0.092609204 100
0.2185885 1.2305291 0.1102876 14
0.23014483 1.2144704 0.12642249 8
0.19567928 1.2623638 0.16253836 70
0.19655463 1.2645986 0.010611063 94
0.20859757 1.2477461 0.030773543 96
0.18973717 1.2741387 0.054210871 100
0.20721483 1.2496811 0.072390392 100
0.21118954 1.244119 0.092296332 100
0.21212727 1.2428068 0.11295892 20
0.22935444 1.2186997 0.1273223 16
0.19956034 1.2603924 0.16150309 70
0.2005972 1.2625673 0.010541254 95
0.22297838 1.2310156 0.029622151 100
0.19611007 1.268893 0.053513627 100
0.20774281 1.2524939 0.072634131 78
0.2105608 1.2485211 0.092922069 100
0.20242095 1.2599963 0.1167751 26
0.22979516 1.2214057 0.1277722 16
0.19568571 1.2694912 0.16409127 77
0.19762632 1.2702626 0.010680873 93
0.22220868 1.2353632 0.029831495 66
0.20006108 1.266806 0.053165004 100
0.20705843 1.2568719 0.073121607 78
0.22466248 1.2318796 0.089480512 100
0.19952548 1.2675664 0.11830158 58
0.22792724 1.2272446 0.1291219 32
0.20401892 1.2611871 0.16098544 72
0.21091774 1.2551602 0.010331824 98
0.22506067 1.2349244 0.029726824 100
0.20873249 1.2582868 0.052119136 100
0.21566829 1.2483631 0.071659178 80
0.22409433 1.2363071 0.090106249 96
0.20809954 1.2591925 0.11601187 100
0.22625622 1.2332139 0.13047162 64
0.2080349 1.259285 0.15995017 72
0.21936908 1.2464249 0.010122396 99
0.21066216 1.2589712 0.03119223 94
0.20580983 1.2659632 0.05281638 100
0.21499288 1.2527308 0.072146654 63
0.22113746 1.2438767 0.09135773 94
0.22427493 1.2393558 0.11105084 98
0.22223878 1.2422898 0.13272113 94
0.20965931 1.2604163 0.15995017 72
0.21431303 1.2575157 0.010331824 98
0.22831437 1.2371817 0.029726824 100
0.20537007 1.2705034 0.053165004 100
0.22239342 1.2457805 0.070927955 48
0.22287652 1.2450789 0.09135773 100
0.22599739 1.2405465 0.11105084 91
0.23170826 1.2322526 0.12957181 96
0.20707667 1.2680249 0.16202073 70
0.21593153 1.2586261 0.010331824 84
0.22873813 1.2398945 0.029831495 66
0.20478272 1.274933 0.053513627 100
0.22285259 1.248503 0.071171694 65
0.22445375 1.2461611 0.09135773 94
0.22423545 1.2464803 0.11219569 84
0.23764232 1.2268708 0.1277722 89
0.20873004 1.2691593 0.16202073 70
0.21211192 1.2681217 0.010506349 54
0.23158371 1.239416 0.029726824 67
0.20887262 1.2728972 0.053165004 100
0.22237989 1.2529845 0.071659178 80
0.23950794 1.2277339 0.087603301 99
0.22157565 1.2541701 0.11372216 89
0.23494312 1.2344635 0.12957181 96
0.21056187 1.2704068 0.16202073 70
0.21823385 1.2626051 0.010366729 41
0.22756362 1.2487522 0.030250182 32
0.21499407 1.2674154 0.052467756 53
0.2206566 1.2590077 0.072390392 95
0.23992407 1.2303995 0.087916173 100
0.23415002 1.2389728 0.10990598 92
0.23975086 1.2306566 0.12822211 89
0.22301471 1.2555064 0.15684435 74
0.23115125 1.2471908 0.010017681 43
0.24041668 1.2333242 0.029203463 34
0.21681944 1.2686399 0.052467756 53
0.23237684 1.2453566 0.07019674 82
0.22734663 1.2528849 0.091983467 100
0.23478028 1.2417597 0.1102876 85
0.23169738 1.2463735 0.13227122 100
0.21728343 1.2679455 0.1604678 88
0.21725911 1.2715746 0.010506349 40
0.21766451 1.2709635 0.031506244 31
0.22177905 1.2647612 0.051944822 54
0.23176017 1.2497157 0.070684217 81
0.22676569 1.2572443 0.092609204 93
0.23309052 1.2477103 0.11143246 91
0.24189711 1.2344353 0.128672 97
0.21039295 1.2819247 0.16460891 85
0.22019905 1.2711204 0.010471444 27
0.22169888 1.2688415 0.031296901 31
0.22797593 1.2593038 0.051247578 55
0.23570317 1.2475624 0.07019674 99
0.23724145 1.2452252 0.090106249 96
0.23592284 1.2472286 0.11105084 98
0.24574405 1.2323058 0.1277722 89
0.21439558 1.2799385 0.16357364 69
0.22842538 1.2621671 0.010262015 28
0.22335488 1.2699275 0.031296901 31
0.23504925 1.2520293 0.05037602 56
0.23511696 1.2519257 0.070684217 65
0.24962395 1.2297229 0.086977564 100
0.23213783 1.2564852 0.11295892 100
0.24621287 1.2349435 0.12822211 97
0.22771198 1.2632589 0.15787962 73
0.23123327 1.2616087 0.01022711 42
0.22292873 1.2744162 0.031506244 31
0.23564979 1.2547975 0.05055033 56
0.24004111 1.2480252 0.069953002 49
0.2480064 1.2357409 0.087916173 84
0.24131471 1.246061 0.1102876 85
0.24677747 1.2376362 0.128672 89
0.2283847 1.2660019 0.15839726 73
0.2393595 1.2525744 0.010017681 43
0.24838638 1.2385514 0.029203463 34
0.23618075 1.2575126 0.05072464 56
0.23195779 1.2640729 0.072146654 95
0.24741408 1.2400618 0.08854191 84
0.24714568 1.2404788 0.10876112 87
0.2441107 1.2451935 0.13047162 96
0.23003125 1.2670656 0.15839726 73
0.24113029 1.2537098 0.010017681 58
0.25118062 1.2379704 0.029098792 68
0.23260835 1.2670557 0.051596198 54
0.25086427 1.2384658 0.068246834 68
0.24701276 1.2444974 0.089167647 70
0.2488721 1.2415856 0.10876112 79
0.25424466 1.2331718 0.12687239 99
0.23185524 1.2682351 0.15839726 73
0.23738301 1.2631762 0.010192205 85
0.245249 1.250767 0.029831495 66
0.22679153 1.2798851 0.05281638 79
0.24710545 1.2478383 0.069465525 66
0.25916377 1.2288153 0.086038955 72
0.23572224 1.2657962 0.11410378 96
0.25786886 1.2308582 0.12597258 99
0.23040634 1.2741823 0.15995017 64
0.23697701 1.2676498 0.010262015 84
0.25437289 1.2399935 0.029098792 100
0.23918146 1.264145 0.051073264 83
0.24560449 1.2539337 0.07019674 99
0.2607671 1.2298278 0.086038955 72
0.25208902 1.2436243 0.10876112 79
0.26051691 1.2302256 0.12552269 90
0.23628256 1.2687538 0.15787962 65
0.24921983 1.2517229 0.0099129668 87
0.25381747 1.2443595 0.029308135 100
0.24187705 1.263483 0.050898954 83
0.23774877 1.2700948 0.072390392 95
0.26020113 1.2341356 0.086664692 71
0.24742255 1.2546015 0.11105084 100
0.26101258 1.232836 0.12597258 90
0.24203083 1.2632368 0.15580906 67
0.25107175 1.2528744 0.0099129668 87
0.25143594 1.252286 0.029726824 100
0.24272543 1.2663566 0.051073264 83
0.25534448 1.2459724 0.068734311 67
0.26198542 1.2352449 0.086664692 57
0.25755259 1.2424054 0.10799789 72
0.26279187 1.2339423 0.12597258 99
0.24494383 1.262773 0.15529142 58
0.25267467 1.253863 0.0099129668 87
0.2509456 1.2566768 0.029936166 100
0.24750239 1.2622802 0.05055033 84
0.26212084 1.2384903 0.067515619 51
0.25732467 1.2462956 0.08854191 56
0.25295368 1.2534089 0.1102876 85
0.26535216 1.2332318 0.12552269 99
0.2344428 1.2835332 0.16150309 70
0.24820608 1.2651949 0.010122396 85
0.25584957 1.2526531 0.029622151 100
0.24516124 1.270191 0.051247578 82
0.26177374 1.2429326 0.068003096 51
0.26729646 1.2338706 0.086038955 72
0.25166234 1.2595236 0.11143246 77
0.27313682 1.2242875 0.12282328 85
0.24336463 1.2731389 0.15787962 65
0.25605989 1.2559268 0.0099129668 87
0.25745174 1.2536259 0.029622151 100
0.24991527 1.2660848 0.05072464 84
0.25101432 1.2642679 0.070927955 48
0.27088109 1.2314252 0.085413218 58
0.25125504 1.26387 0.11219569 84
0.26859304 1.2352077 0.12552269 90
0.24903435 1.2675412 0.15580906 67
0.24943832 1.2706144 0.010192205 99
0.26214132 1.2494564 0.029308135 100
0.25053644 1.2687854 0.050898954 83
0.25265503 1.2652566 0.070927955 48
0.26834556 1.2391226 0.086664692 57
0.26502118 1.2446597 0.10761628 79
0.27214345 1.2327968 0.12462288 92
0.2546635 1.2619114 0.15373851 68
0.25928912 1.2578657 0.0099129668 100
0.26373282 1.2504083 0.029308135 100
0.24913245 1.2749104 0.051421888 100
0.26649284 1.2457764 0.068003096 51
0.27192512 1.2366601 0.086038955 58
0.26860672 1.242229 0.10685304 81
0.27068704 1.2387378 0.12597258 90
0.25431854 1.2662071 0.15477379 67
0.26531675 1.252141 0.0097733475 89
0.26566359 1.2515535 0.029308135 100
0.25622675 1.2675358 0.05055033 100
0.27042362 1.243492 0.067515619 51
0.27179193 1.2411746 0.086664692 57
0.25952446 1.2619509 0.11105084 98
0.27554339 1.2348211 0.12462288 92
0.25434837 1.2707171 0.15580906 67
0.26186213 1.2617089 0.0099478718 73
0.27029139 1.2473242 0.028994121 100
0.25989288 1.2650692 0.050201707 85
0.26396629 1.258118 0.069465525 49
0.27735081 1.2352773 0.085413218 58
0.2700907 1.2476667 0.10761628 65
0.28398302 1.2239594 0.12147357 86
0.25601041 1.2716948 0.15580906 67
0.25663349 1.2748644 0.010192205 99
0.2730462 1.2466193 0.028889447 100
0.26471239 1.2609613 0.049678773 86
0.26775193 1.2557304 0.068978049 50
0.28402027 1.2277336 0.083848871 59
0.26296598 1.2639668 0.11105084 84
0.28173235 1.2316711 0.12327318 93
0.26366624 1.2627616 -0.0099478718 86
0.26173359 1.2660877 0.15373851 68
0.27728918 1.2429206 0.0095290141 76
0.26664647 1.2613767 0.029726824 100
0.2713185 1.2532747 0.048807215 88
0.27134752 1.2532244 0.068490572 50
0.28257924 1.2337469 0.084787481 59
0.28127813 1.2360033 0.10456333 75
0.28618523 1.2274936 0.12192347 85
0.26338026 1.2670408 0.15373851 68
0.27587935 1.2490293 0.0096337283 90
0.27026147 1.2588466 0.029517479 100
0.26797482 1.2628425 0.049678773 86
0.27393743 1.2524228 0.068246834 34
0.2801941 1.2414892 0.086038955 58
0.2740491 1.2522277 0.10799789 87
0.28480014 1.2334402 0.12327318 76
0.26694906 1.2646351 0.15270324 68
0.27648196 1.2516745 0.0096686333 75
0.27878764 1.2476141 0.028784776 100
0.2656754 1.2707052 0.05037602 84
0.27651894 1.2516094 0.068003096 51
0.27980828 1.2458168 0.086664692 71
0.28146636 1.2428968 0.10570818 81
0.28730068 1.2326224 0.12282328 85
0.26668304 1.2689308 0.15373851 68
0.27441049 1.259692 0.0098082526 74
0.28258264 1.2451708 0.028575432 100
0.26466858 1.2770022 0.050898954 83
0.28031737 1.2491961 0.067515619 51
0.29035664 1.2313575 0.083848871 59
0.27365538 1.2610337 0.10952436 99
0.296725 1.2200415 0.11922406 87
0.26670593 1.2733821 0.15477379 67
0.27116108 1.2693328 0.0099827768 87
0.28415984 1.2460551 0.028575432 100
0.27217981 1.2675084 0.049853086 85
0.27126166 1.2691526 0.07019674 33
0.29092488 1.2339406 0.084161744 59
0.28389999 1.2465204 0.1060898 73
0.29346821 1.2293861 0.12147357 86
0.27213603 1.2675868 -0.0099478718 86
0.27214429 1.267572 0.15270324 68
0.28267863 1.2528565 0.0096337283 90
0.27816746 1.261005 0.029412808 100
0.27979526 1.2580647 0.048807215 88
0.27501598 1.2666974 0.069709264 66
0.29167026 1.2366152 0.084474608 59
0.28279561 1.2526453 0.10723466 81
0.29515365 1.2303233 0.12147357 77
0.27396163 1.2686019 -0.0099478718 96
0.27584124 1.2652068 0.15166797 69
0.28235582 1.2572458 0.0097035384 90
0.28172034 1.2584026 0.029203463 100
0.27853751 1.264197 0.049330149 87
0.28526607 1.2519476 0.067515619 51
0.29321903 1.2374693 0.084474608 59
0.28534278 1.251808 0.10685304 88
0.29199046 1.2397059 0.12372308 83
0.27561659 1.2695146 -0.0099478718 86
0.27562475 1.2694997 0.15270324 68
0.28701243 1.2529548 0.0095988233 91
0.28924313 1.2488583 0.028575432 100
0.27653939 1.2721877 0.050027397 85
0.28703427 1.2529147 0.067515619 51
0.29493412 1.2384074 0.084474608 59
0.28898826 1.2493265 0.1060898 81
0.2793051 1.2671087 0.15166797 69
0.28766492 1.2555836 0.0096337283 90
0.29842719 1.2356627 0.027738057 100
0.28010023 1.269586 0.049678773 86
0.28675002 1.2572771 0.068003096 51
0.28871286 1.2536439 0.10685304 81
0.28291246 1.2643805 -0.0098082526 88
0.28462803 1.261205 0.14959741 70
0.29039046 1.2547791 0.0095988233 91
0.29824984 1.240103 0.0279474 100
0.28381428 1.2670591 0.049330149 87
0.28572634 1.2634885 0.068734311 50
0.2923409 1.2511369 0.1060898 73
0.28000608 1.2741702 -0.0099827768 96
0.28643015 1.2621742 0.14959741 70
0.29106131 1.2574033 0.0096337283 90
0.29231381 1.2550457 0.028784776 100
0.28829557 1.2626092 0.068490572 50
0.29301676 1.2537224 0.10647142 81
0.28449401 1.2697649 -0.0098780617 87
0.28806373 1.2630455 0.14959741 70
0.29595447 1.2524524 0.028575432 100
0.29378897 1.2565649 0.048109971 89
0.29935184 1.2460005 0.066053182 52
0.28987259 1.2640023 0.14959741 70
0.29355898 1.2609438 0.048458595 59
0.29640001 1.2555047 0.10647142 73
0.28614566 1.2751362 0.15270324 68
0.29250091 1.2671908 0.0097733475 89
0.28794402 1.2759894 0.049853086 85
0.28790271 1.2760692 -0.0099478718 100
0.28791052 1.2760541 0.15270324 68
0.29780605 1.2609271 0.0096337283 90
0.29232359 1.2715994 -0.0098431576 100
0.29665205 1.2631735 0.14856213 79
0.29787913 1.2654562 0.0097035384 100
0.29701942 1.2671456 0.068490572 67
0.2960653 1.2690207 -0.0097733475 99
0.29802889 1.269251 0.029308135 100
0.29321653 1.2787861 -0.0099478718 100
0.29931715 1.2666984 0.14907977 78
0.29932368 1.2710258 0.15011504 78
0.29766327 1.2787749 -0.0099129668 100
