# .PCD v0.7 - Point Cloud Data file format
VERSION 0.7
FIELDS x y z intensity
SIZE 4 4 4 4
TYPE F F F F
COUNT 1 1 1 1
WIDTH 726
HEIGHT 1
VIEWPOINT 0 0 0 1 0 0 0
POINTS 726
DATA ascii
0.059088856 0.010003984 0.047416378 63
0.049901724 0.0016788244 0.04804441 44
0.050548732 0.014265597 0.015811881 9
0.043448865 0.0035225749 0.048149079 100
0.047418475 0.015269876 0.047521047 87
0.041580915 0.01196444 0.047835063 65
0.037819684 0.012088954 0.047939736 27
0.035177231 0.013881445 0.047939736 18
0.025762081 0.0058012009 0.048567768 16
0.037989378 0.028905749 0.047207031 10
0.014867485 0.00119102 0.049091127 7
0.016773999 0.0096046925 0.048672438 8
-1.0300241 1.1266534 0.08488892 3
-1.0281153 1.1262225 0.14154093 3
-1.0306954 1.1326083 0.028307803 6
-1.0151427 1.1290405 0.084156215 7
-1.0113266 1.1281651 0.14014643 6
-1.0118926 1.1340386 0.02799366 10
-1.0177701 1.1354084 0.084365562 37
-1.0139475 1.1345176 0.14049506 42
-0.99504513 1.1358026 0.027714422 32
-0.98927563 1.1344367 0.082900152 91
-1.0262372 1.1431876 0.14171524 86
-0.98792595 1.1397911 0.027609708 38
-0.99187797 1.1407413 0.083109498 100
-1.0133018 1.1458927 0.14066938 91
-0.990511 1.1461058 0.027679516 38
-0.97699255 1.1428053 0.082376793 100
-1.0023026 1.1489847 0.13979781 86
-0.99307066 1.1524431 0.027749326 23
-0.98537487 1.1505357 0.082900152 91
-0.99130076 1.1520044 0.13892625 89
-0.96457642 1.1509974 0.027260659 27
-0.98984796 1.1573546 0.083214171 41
-0.99575454 1.1588404 0.13944919 82
-0.96517485 1.1567765 0.027295563 44
-0.97300488 1.1587753 0.082376793 34
-0.99052685 1.1632481 0.13910057 82
-0.96768719 1.1630658 0.027365373 61
-0.97357196 1.1645899 0.082481466 74
-0.98721606 1.1681236 0.13892625 89
-0.96243769 1.1673449 0.027295563 68
-0.97218531 1.1699058 0.082481466 98
-0.97618192 1.1709558 0.1380547 92
-0.94944781 1.1695328 0.027086135 78
-0.96113044 1.1726456 0.081958108 92
-0.96322173 1.1732028 0.13700883 100
-0.94811469 1.1745028 0.027086135 93
-0.96171516 1.1781751 0.082062781 98
-0.96572334 1.1792574 0.13735744 100
-0.95440859 1.1818419 0.027225753 93
-0.94679648 1.179758 0.081330076 100
-0.96812886 1.1855979 0.13770607 99
-0.95296174 1.1870906 0.027225753 93
-0.93573445 1.1823099 0.080806717 100
-0.96282929 1.189829 0.13735744 91
-0.94764668 1.1912515 0.027155945 92
-0.94582206 1.1907383 0.081434749 86
-0.95368272 1.1929493 0.1366602 100
-0.95962876 1.2003139 0.027400278 67
-0.9366613 1.1937671 0.081016064 70
-0.94261688 1.1954647 0.13578865 100
-0.95235401 1.2039163 0.027295563 49
-0.93709189 1.1995082 0.081120729 36
-0.94686514 1.2023309 0.13631158 99
-0.92971879 1.2029804 0.026911611 52
-0.92024845 1.2002093 0.080283359 22
-0.95490783 1.210351 0.13718314 84
-0.93011564 1.2087111 0.026946515 75
-0.91873783 1.2053387 0.080283359 28
-0.95145136 1.2150352 0.13700883 91
-0.93049043 1.2144501 0.026981421 74
-0.91338342 1.2093145 0.080074012 34
-0.9346227 1.2156906 0.13561434 99
-0.91553742 1.2155437 0.026737086 78
-0.9137519 1.2150009 0.080178685 88
-0.92162043 1.217393 0.13456847 100
-0.91214055 1.2198131 0.026702182 83
-0.92181295 1.2227888 0.080702044 96
-0.92393738 1.2234423 0.1349171 99
-0.90865225 1.2243196 0.026667276 85
-0.9049682 1.2231722 0.079864666 91
-0.9242478 1.229177 0.13509139 70
-0.91468614 1.2318137 0.026806897 83
-0.90147275 1.2276475 0.07976 74
-0.9169355 1.232523 0.13456847 45
-0.91306514 1.2369237 0.026806897 83
-0.9036718 1.2339258 0.079969339 76
-0.91151589 1.2364292 0.13421984 43
-0.89239734 1.2358817 0.026457848 88
-0.90964586 1.2414527 0.080388032 92
-0.90039915 1.2384661 0.13334829 48
-0.88696092 1.2396712 0.026388038 99
-0.90229601 1.2446835 0.080074012 100
-0.91390544 1.2484781 0.13474278 63
-0.88531262 1.2446842 0.026388038 100
-0.89304525 1.2472415 0.079655327 100
-0.91790122 1.2554619 0.13526571 80
-0.88743967 1.2509606 0.026457848 100
-0.88379437 1.2497408 0.079236634 100
-0.90486103 1.2567897 0.13421984 84
-0.88575202 1.2559752 0.026457848 93
-0.88021916 1.2541025 0.079131968 100
-0.89560419 1.25931 0.1335226 84
-0.87269562 1.2570976 0.02624842 96
-0.87852067 1.2590919 0.079131968 100
-0.89577228 1.2649984 0.13369691 100
-0.86342829 1.2594434 0.0261088 92
-0.87491733 1.2634219 0.079027295 100
-0.88650483 1.2674344 0.13299966 95
-0.8617112 1.2643743 0.0261088 79
-0.85622114 1.2624516 0.078085244 91
-0.90920514 1.2810063 0.13526571 54
-0.86751682 1.2719691 0.02624842 78
-0.85072821 1.2660239 0.077875905 53
-0.9036563 1.2847667 0.1349171 40
-0.87328666 1.2796104 0.026388038 93
-0.84710795 1.270237 0.077771232 19
-0.88309282 1.2831215 0.13317397 43
-0.86021739 1.2804916 0.02617861 96
-0.86225528 1.2812293 0.078713275 53
-0.87567264 1.2860863 0.13265105 22
-0.84340364 1.2799133 0.025899371 96
-0.85858649 1.2854694 0.07860861 89
-0.87199146 1.290375 0.13247673 15
-0.84536618 1.2861617 0.025969181 100
-0.84928578 1.2876115 0.078189917 100
-0.87203497 1.2960267 0.13265105 5
-0.84730202 1.2924298 0.026038991 100
-0.83250421 1.2868972 0.077352546 76
-0.87205642 1.3016851 0.13282534 1
-0.83798748 1.2944767 0.025899371 100
-0.83069152 1.2917198 0.077352546 48
-0.85341781 1.3003074 0.13125655 3
-0.83428019 1.2986052 0.025864467 74
-0.83819121 1.3000987 0.077875905 53
-0.8348065 1.2988062 0.12968774 15
-0.82514912 1.3000745 0.025724847 72
-0.84024614 1.3058939 0.078085244 72
-0.84615177 1.3081703 0.13090792 56
-0.82888049 1.3070486 0.025829561 81
-0.81975621 1.3034949 0.077038527 76
-0.86097366 1.3195484 0.13247673 100
-0.83062428 1.3135641 0.025899371 99
-0.81221646 1.3063166 0.076724514 65
-0.85153443 1.3217965 0.13177948 99
-0.82128602 1.3154237 0.025759751 100
-0.823327 1.3162355 0.077457212 91
-0.83664054 1.3215309 0.1305593 95
-0.81204718 1.3169873 0.025620133 100
-0.82892162 1.3237638 0.077875905 95
-0.82740849 1.3231561 0.12986206 100
-0.81393212 1.3230036 0.025689943 100
-0.83077949 1.3298345 0.078085244 95
-0.83110577 1.3299667 0.130385 100
-0.78005654 1.309269 0.17622307 15
-0.80829245 1.3262457 0.025620133 100
-0.81403071 1.3285956 0.077247873 100
-0.81808001 1.3302538 0.12933913 100
-0.76346987 1.3078899 0.17427316 15
-0.81013638 1.3322748 0.025689943 100
-0.79555899 1.3262485 0.076305822 100
-0.81989712 1.3363099 0.12968774 100
-0.79286569 1.3251352 0.17841671 19
-0.81155819 1.339273 0.025759751 100
-0.7988432 1.3339567 0.076619841 100
-0.79923087 1.3341188 0.12794463 100
-0.78146917 1.3266926 0.17719802 15
-0.79492408 1.3375649 0.025480513 100
-0.7896052 1.3353205 0.076201156 96
-0.8083666 1.3432379 0.1289905 100
-0.79790491 1.3388228 0.17963541 22
-0.78915578 1.3409221 0.025410704 85
-0.80405957 1.347276 0.0771432 63
-0.80625647 1.3482126 0.1289905 93
-0.77207214 1.3336389 0.17646681 20
-0.81664544 1.358005 0.025969181 56
-0.80580705 1.3533418 0.077352546 46
-0.82263333 1.3605814 0.13073361 24
-0.79572445 1.3490037 0.17987914 8
-0.81091636 1.3611784 0.025899371 94
-0.80193073 1.3572751 0.077247873 100
-0.82604569 1.3677506 0.13125655 56
-0.79369515 1.3536975 0.17987914 19
-0.80528551 1.3640826 0.025829561 100
-0.80912203 1.3657643 0.077771232 100
-0.81675678 1.3691109 0.1305593 100
-0.79175216 1.3581502 0.17987914 35
-0.79395634 1.3649983 0.025655037 100
-0.80875558 1.3715502 0.077875905 100
-0.80726451 1.3708901 0.12986206 100
-0.7986632 1.3670821 0.18109785 40
-0.79015011 1.3686361 0.025620133 100
-0.81222409 1.3784964 0.078189917 100
-0.81072181 1.3778255 0.130385 100
-0.76948851 1.3594068 0.17744176 22
-0.79159266 1.3751886 0.025689943 100
-0.80452281 1.3810214 0.077875905 100
-0.81030101 1.3836279 0.1305593 100
-0.77636689 1.3683203 0.17866045 19
-0.80049878 1.384604 0.025899371 100
-0.80067128 1.3846824 0.077771232 100
-0.81551248 1.3914366 0.13125655 100
-0.76895517 1.3702487 0.17792924 16
-0.80005413 1.3903847 0.025934275 100
-0.80385381 1.3921306 0.078085244 100
-0.80598396 1.3931096 0.1305593 100
-0.77937263 1.380881 0.17963541 15
-0.79073244 1.3914943 0.025794657 100
-0.80540735 1.3982967 0.07829459 100
-0.79667979 1.3942511 0.12986206 100
-0.78454357 1.3886254 0.18061037 12
-0.79047555 1.3967838 0.025829561 100
-0.81236261 1.4070178 0.078817949 100
-0.79821199 1.4004012 0.13021068 100
-0.77349371 1.3888433 0.17939167 7
-0.79019839 1.4020786 0.025864467 100
-0.80662984 1.4098282 0.07860861 100
-0.81053025 1.4116677 0.13160518 100
-0.76066166 1.3881481 0.17792924 3
-0.80231661 1.4138634 0.026143705 100
-0.80066901 1.413079 0.078399263 100
-0.81716377 1.4209325 0.13247673 100
-0.78706425 1.4066014 0.18182907 1
-0.80738467 1.4218068 0.026283324 100
-0.80212992 1.4192836 0.07860861 100
-0.80242532 1.4194254 0.13125655 100
-0.79047745 1.4200337 0.026004085 100
-0.80681533 1.4279563 0.079027295 100
-0.79633635 1.4228749 0.13090792 100
-0.79011089 1.4253538 0.026038991 100
-0.80642027 1.4333296 0.079131968 100
-0.80490285 1.4325876 0.13195379 100
-0.7914018 1.4317973 0.0261088 100
-0.79693204 1.4345256 0.078713275 100
-0.81151563 1.4417206 0.13282534 100
-0.79636127 1.4398046 0.02624842 100
-0.78756815 1.43543 0.07829459 100
-0.81106442 1.4471194 0.13299966 100
-0.80092722 1.4485595 0.026388038 100
-0.79928142 1.4477329 0.079131968 100
-0.80489367 1.4505519 0.13265105 100
-0.79153389 1.4494218 0.02624842 100
-0.79702657 1.4522035 0.079131968 100
-0.80262941 1.4550412 0.13265105 100
-0.78915399 1.4541004 0.02624842 100
-0.79819423 1.4587185 0.079341307 100
-0.80377847 1.4615712 0.13299966 100
-0.78687817 1.4585375 0.02624842 100
-0.79767853 1.4641001 0.07944598 100
-0.81741911 1.4742671 0.13456847 100
-0.79156476 1.466887 0.026388038 100
-0.79170269 1.4669588 0.079236634 100
-0.81672055 1.4799545 0.13474278 100
-0.80341834 1.4787536 0.026667276 100
-0.7964614 1.4751103 0.079655327 100
-0.81259376 1.4835584 0.13456847 100
-0.79020303 1.4781042 0.026457848 83
-0.79739982 1.4819067 0.079864666 100
-0.79411465 1.480171 0.13299966 100
-0.79526931 1.4864975 0.13334829 35
0.11499181 1.3094968 0.13471115 5
0.1575785 1.2601726 0.010960111 25
0.12685093 1.2985544 0.035483778 25
0.15154114 1.2677139 0.055779677 24
0.12284517 1.3035579 0.10825265 10
0.15123299 1.2680988 0.12402584 24
0.19924352 1.2081289 0.12957181 8
0.16244075 1.2540992 0.16616182 7
0.15431476 1.267801 0.011099731 88
0.16598183 1.253123 0.032343622 60
0.15328091 1.2691017 0.055779677 49
0.15596908 1.2657199 0.077752642 28
0.18493915 1.2292733 0.092922069 26
0.15663895 1.2648771 0.122881 85
0.18501139 1.2291825 0.13542053 30
0.15571839 1.2660352 0.16978529 29
0.16596538 1.2566214 0.010820492 100
0.16643327 1.2560284 0.032448292 100
0.1574941 1.2673554 0.055431053 100
0.15770188 1.2670922 0.077752642 28
0.17553073 1.2445008 0.095737889 38
0.1583688 1.2662472 0.122881 100
0.18540919 1.2319834 0.13587044 38
0.15266511 1.2734745 0.17185585 36
0.17383301 1.2500886 0.010645968 100
0.16690034 1.2589365 0.032552965 100
0.15677494 1.2718592 0.055779677 100
0.16311243 1.2637708 0.077021427 29
0.17231598 1.2520247 0.096989371 37
0.17342287 1.250612 0.1186832 100
0.18702403 1.2332534 0.13587044 38
0.1532335 1.276379 0.17237349 42
0.16437414 1.2655367 0.010960111 100
0.17956331 1.2460183 0.031610917 92
0.15966493 1.2715881 0.055605363 98
0.17694336 1.2493849 0.074584037 30
0.1787692 1.2470387 0.095737889 25
0.17984161 1.2456607 0.11715672 100
0.18138134 1.243682 0.13856985 29
0.14305046 1.292938 0.17754987 40
0.16977403 1.2621324 0.010855397 78
0.17390057 1.2567914 0.032238949 60
0.16020006 1.2745242 0.055779677 49
0.17376435 1.2569677 0.07555899 30
0.17560574 1.2545843 0.096989371 25
0.1901857 1.2357132 0.13587044 22
0.14605945 1.2928265 0.17703223 41
0.16906008 1.2666301 0.010925206 52
0.16709304 1.2691945 0.032971654 29
0.1656014 1.2711391 0.055256739 49
0.18392366 1.2472525 0.073852822 46
0.19894022 1.2276754 0.09135773 40
0.18078157 1.2513487 0.11791996 13
0.19655773 1.2307814 0.13407083 23
0.15846884 1.2804377 0.17237349 57
0.17564201 1.2615931 0.010785587 39
0.16399774 1.2768838 0.033390339 28
0.16976723 1.2693076 0.054908119 50
0.16755182 1.2722168 0.077508904 87
0.19216245 1.239899 0.093547814 52
0.19792673 1.2323296 0.11295892 13
0.19816831 1.2320124 0.13407083 46
0.17195711 1.2664319 0.16719711 67
0.17494836 1.2660871 0.010855397 52
0.16817841 1.2750418 0.033180997 28
0.17511708 1.2658639 0.054385185 51
0.19205299 1.2434626 0.072877869 63
0.19857004 1.2348423 0.092296332 53
0.19835871 1.2351218 0.11334054 13
0.2009584 1.2316833 0.13362093 38
0.17718741 1.2631254 0.16564418 83
0.17908308 1.2641946 0.010785587 39
0.17953497 1.2635925 0.032343622 30
0.1720663 1.2735435 0.055082429 50
0.18655822 1.254235 0.074340299 100
0.18359387 1.2581846 0.096676499 63
0.20351994 1.2316358 0.11219569 14
0.21193042 1.2204301 0.13002171 32
0.17659169 1.267514 0.16667947 67
0.18319997 1.2622793 0.010715778 66
0.19796684 1.2424607 0.030878214 31
0.17739755 1.2700666 0.054559495 50
0.19655317 1.2443581 0.072634131 94
0.19474226 1.2467885 0.094173551 65
0.20396045 1.2344167 0.1125773 13
0.21816215 1.2153568 0.12822211 32
0.17717636 1.2703636 0.16719711 67
0.19324487 1.2523029 0.010471444 82
0.19961819 1.2436867 0.030878214 63
0.18033022 1.2697624 0.054385185 76
0.19585013 1.2487808 0.073121607 78
0.20580649 1.2353207 0.091670595 81
0.19157353 1.2545624 0.11715672 13
0.21508324 1.2227793 0.13002171 32
0.18237174 1.2670025 0.16564418 68
0.19256347 1.2567689 0.010541254 81
0.2012738 1.2449069 0.030878214 63
0.18679392 1.264626 0.053687938 78
0.19987339 1.246814 0.072634131 78
0.20158702 1.2444804 0.093234941 100
0.21418309 1.2273266 0.1102876 14
0.2235862 1.2145212 0.1273223 24
0.18525225 1.2667255 0.16512655 68
0.19426477 1.2580136 0.010541254 95
0.20293367 1.2461213 0.030878214 63
0.18617547 1.2691109 0.054036561 100
0.19920126 1.2512416 0.073121607 78
0.21022701 1.2361159 0.09135773 94
0.21578151 1.2284961 0.1102876 14
0.22284403 1.2188073 0.12822211 16
0.19267821 1.2601901 0.16253836 70
0.19128129 1.2657325 0.010680873 93
0.20928118 1.2408576 0.030459527 65
0.18791988 1.2703779 0.054036561 77
0.20204696 1.250855 0.072877869 63
0.20490798 1.2469012 0.093234941 100
0.20472386 1.2471555 0.1144854 13
0.24269125 1.1946864 0.12102367 17
0.19439149 1.2614344 0.16253836 70
0.19768041 1.2604852 0.010541254 95
0.21558765 1.2355554 0.03004084 99
0.18850639 1.2732569 0.054210871 100
0.20720187 1.2472298 0.072146654 79
0.21694666 1.2336636 0.090419121 96
0.21211836 1.2403853 0.1125773 13
0.25327069 1.1830946 0.11742445 17
0.18821979 1.2736559 0.16616182 68
0.20163131 1.258395 0.010471444 96
0.22061276 1.2317839 0.029726824 100
0.19943312 1.2614766 0.05281638 100
0.20878631 1.248364 0.072146654 63
0.21275052 1.2428063 0.091983467 100
0.19999924 1.2606829 0.11715672 19
0.24106252 1.2031144 0.12282328 17
0.19886661 1.2622709 0.16202073 70
0.20564932 1.2563438 0.010401634 97
0.21761018 1.2394509 0.030145511 98
0.20345348 1.2594452 0.052467756 100
0.20816401 1.2527924 0.072634131 94
0.22239339 1.2326953 0.089793384 100
0.20625213 1.2554926 0.11563025 33
0.22681093 1.2264563 0.1291219 24
0.20281976 1.2603402 0.16098544 72
0.21194842 1.2509987 0.010262015 98
0.21580559 1.2455106 0.030459527 65
0.20058152 1.2671722 0.053165004 100
0.21669996 1.2442379 0.071171694 65
0.21605954 1.2451493 0.091983467 93
0.20004672 1.2679331 0.11830158 84
0.2239241 1.2339591 0.13092151 48
0.20675513 1.258388 0.15995017 72
0.20676476 1.2620162 0.010471444 96
0.21175385 1.2548645 0.030982886 95
0.20003924 1.271657 0.053513627 100
0.21608588 1.2486546 0.071659178 80
0.21998057 1.2430718 0.09135773 100
0.21077311 1.2562704 0.11524864 100
0.22443062 1.2366927 0.13137141 86
0.21067262 1.2564144 0.15891489 73
0.2107611 1.2599232 0.010401634 97
0.2225444 1.242906 0.030145511 98
0.20406094 1.2695994 0.053165004 100
0.20419785 1.2694017 0.074584037 91
0.23063022 1.2312286 0.088854775 98
0.21917841 1.247767 0.11295892 89
0.23493671 1.2250092 0.1277722 81
0.19807565 1.2782433 0.16564418 68
0.21473858 1.2578084 0.010331824 84
0.22193462 1.2473381 0.030354854 97
0.21709198 1.2543842 0.051421888 100
0.21943563 1.2509742 0.071659178 64
0.23224217 1.2323406 0.088854775 100
0.21528816 1.2570088 0.11486702 100
0.22990423 1.2357422 0.13047162 96
0.2075114 1.268324 0.16202073 70
0.21644339 1.2589757 0.010331824 84
0.22810486 1.2418807 0.029936166 66
0.21092549 1.2670646 0.05264207 100
0.21664196 1.2586846 0.072634131 63
0.23274478 1.2350788 0.089167647 100
0.22473457 1.2468213 0.11219569 100
0.23153192 1.2368567 0.13047162 96
0.21578485 1.2599411 0.15891489 73
0.21703118 1.2617929 0.010366729 41
0.21743685 1.2611938 0.031087559 31
0.20819458 1.2748444 0.053339314 78
0.22502732 1.2499826 0.071171694 65
0.2321552 1.2394547 0.089793384 100
0.23300505 1.2381996 0.10990598 92
0.2277008 1.2460339 0.13272113 94
0.21316481 1.2675035 0.16098544 72
0.22098053 1.2596326 0.010296919 42
0.2236093 1.2557206 0.03066887 32
0.21107015 1.2743808 0.053165004 52
0.2244904 1.2544093 0.071659178 80
0.22718531 1.2503989 0.091670595 100
0.23792627 1.2344147 0.10876112 94
0.23697272 1.2358336 0.12957181 96
0.22136837 1.2590555 0.15787962 73
0.21825358 1.2674328 0.010436539 41
0.22752312 1.2535337 0.030459527 32
0.21946564 1.2656153 0.052119136 54
0.23058897 1.2489367 0.070684217 81
0.24420854 1.2285149 0.087290429 85
0.23410279 1.2436678 0.11066922 85
0.23643821 1.2401661 0.13047162 96
0.21450248 1.2730573 0.16202073 70
0.21760938 1.2718067 0.010506349 27
0.21801433 1.2711954 0.031506244 31
0.2254253 1.2600071 0.051421888 55
0.23538384 1.2449728 0.069953002 99
0.24346882 1.2327671 0.087916173 84
0.23125577 1.251205 0.11219569 91
0.24114528 1.2362748 0.1291219 100
0.22141865 1.2660559 0.15943253 73
0.22924918 1.2579253 0.010192205 28
0.21098888 1.2857027 0.032343622 30
0.23260996 1.2528129 0.05055033 56
0.22832018 1.2593384 0.071902916 96
0.24074563 1.2404368 0.089167647 100
0.23832965 1.244112 0.1102876 99
0.24277475 1.2373501 0.1291219 88
0.22845817 1.2591285 0.15684435 74
0.23213199 1.2574226 0.0101573 42
0.21724528 1.2802501 0.031924933 30
0.23002833 1.2606484 0.051247578 55
0.24421245 1.2388983 0.068734311 67
0.24786717 1.233294 0.087603301 99
0.24006945 1.2452512 0.1102876 100
0.24661875 1.2352084 0.12822211 97
0.22708726 1.2651582 0.15839726 73
0.23818126 1.251814 0.010017681 43
0.25158301 1.2311059 0.028784776 34
0.23066047 1.2634349 0.051421888 55
0.25016525 1.2332966 0.067759357 100
0.24519315 1.2409794 0.088854775 98
0.23959693 1.2496265 0.11105084 84
0.25142083 1.2313565 0.12687239 99
0.22986728 1.2646606 0.15787962 73
0.23978072 1.2528453 0.010017681 58
0.25419331 1.2304127 0.028680105 69
0.22799069 1.2711961 0.052119136 54
0.24633819 1.2426388 0.068978049 50
0.2478244 1.2403257 0.08854191 84
0.24225032 1.2490015 0.11066922 85
0.25611249 1.2274256 0.12552269 90
0.22837669 1.2705953 0.15943253 73
0.22856778 1.2741591 0.010436539 68
0.25043368 1.2398629 0.029203463 68
0.23081324 1.270637 0.051944822 54
0.2469227 1.2453698 0.069221787 67
0.25583971 1.2313837 0.086664692 86
0.24497968 1.2484174 0.1102876 71
0.24932992 1.2415941 0.1291219 96
0.23843446 1.2586834 0.15529142 75
0.24102089 1.2583791 0.010087491 71
0.2510078 1.2425935 0.029308135 100
0.24001932 1.2599622 0.05072464 84
0.23690933 1.2648779 0.071902916 48
0.25533977 1.2357464 0.087290429 71
0.24560186 1.2511383 0.11066922 85
0.25306171 1.2393471 0.12822211 97
0.24117506 1.2581354 0.15477379 67
0.244854 1.2560674 0.010017681 72
0.24203998 1.2605499 0.030354854 97
0.23749414 1.267791 0.051421888 82
0.25130421 1.2457929 0.068978049 50
0.25696731 1.2367721 0.087290429 71
0.2431078 1.2588489 0.11219569 100
0.25677413 1.2370799 0.1273223 81
0.23877221 1.2657551 0.15684435 66
0.24875158 1.2537875 0.0099478718 73
0.25228578 1.2481118 0.029517479 100
0.23932073 1.2689331 0.051421888 82
0.25305009 1.2468845 0.068978049 50
0.25659177 1.2411966 0.087916173 84
0.25839233 1.2383051 0.10723466 73
0.26157826 1.2331887 0.12597258 90
0.23650676 1.273452 0.15891489 65
0.24728891 1.2599397 0.010052586 86
0.25815573 1.2423518 0.029098792 100
0.23582801 1.2784894 0.052293446 80
0.25575995 1.2462293 0.068734311 50
0.26031494 1.238857 0.087290429 71
0.25177339 1.2526816 0.1102876 85
0.26422113 1.2325349 0.12552269 90
0.23826602 1.2745433 0.15891489 65
0.24482045 1.2678127 0.010192205 99
0.25771859 1.2467731 0.029308135 100
0.24281147 1.2710898 0.051421888 100
0.25742409 1.2472535 0.068734311 33
0.27227756 1.2230244 0.084161744 74
0.25551227 1.2503722 0.10952436 78
0.26685593 1.2318681 0.12507279 92
0.24406782 1.2690403 0.15684435 66
0.25695178 1.2517903 0.0098431576 88
0.25523299 1.254616 0.029726824 100
0.25491628 1.2551367 0.049678773 100
0.25187066 1.2601439 0.070440479 49
0.26667482 1.2358049 0.086351827 58
0.25821111 1.2497199 0.10914274 78
0.26644447 1.2361836 0.12597258 90
0.2518352 1.2602022 0.15373851 76
0.25639918 1.2561319 0.0099129668 87
0.25572434 1.2572494 0.029831495 100
0.25129169 1.2645887 0.05055033 84
0.26264828 1.245785 0.068246834 68
0.27120331 1.23162 0.085413218 73
0.25971964 1.2506341 0.10914274 78
0.26690298 1.2387402 0.12642249 82
0.25537413 1.2578292 0.15270324 68
0.26220918 1.2502925 0.0097733475 89
0.26461297 1.2462809 0.029098792 100
0.24687555 1.2758827 0.051596198 82
0.26227018 1.2501907 0.068734311 84
0.26469374 1.2461461 0.087916173 70
0.26139912 1.2516444 0.10914274 85
0.27455071 1.2296958 0.12372308 83
0.25509286 1.2621689 0.15373851 68
0.26184383 1.254732 0.0098431576 88
0.27240074 1.2369733 0.02847076 100
0.24660707 1.2803631 0.051944822 81
0.26597685 1.2477795 0.068246834 68
0.27342337 1.2352531 0.08572609 58
0.26207891 1.2543365 0.10952436 78
0.27814862 1.2273043 0.12282328 85
0.24694103 1.2798012 0.15891489 65
0.26252177 1.2574574 0.0098780617 88
0.27200329 1.2413802 0.028680105 100
0.25446308 1.271122 0.050898954 83
0.26058751 1.2607372 0.069953002 49
0.28006646 1.2277081 0.084161744 59
0.25679013 1.2671762 0.11219569 77
0.28172642 1.2248933 0.12192347 76
0.25657329 1.2675438 0.15477379 67
0.27146003 1.2464731 0.0096337283 90
0.26575154 1.2562381 0.029517479 100
0.26242253 1.2619327 0.049853086 100
0.26447761 1.2584174 0.069465525 49
0.2778382 1.2355626 0.085413218 73
0.26662782 1.2547392 0.10914274 78
0.27560717 1.2393789 0.12552269 82
0.26433566 1.2586601 0.15166797 69
0.26911223 1.254362 0.0097733475 100
0.27546614 1.2434053 0.028680105 100
0.26514095 1.2612101 0.049678773 86
0.27713853 1.2405214 0.066784397 69
0.27550107 1.243345 0.086664692 57
0.26930648 1.254027 0.10876112 100
0.27529207 1.2437055 0.12642249 82
0.25829005 1.2730236 0.15580906 67
0.26980755 1.2570729 0.0098082526 89
0.28110394 1.2374358 0.028261416 100
0.2618899 1.2708366 0.05055033 84
0.27581307 1.2466332 0.067515619 68
0.28109503 1.2374513 0.085413218 58
0.28078732 1.2379862 0.10494494 75
0.28569275 1.2294588 0.12237337 85
0.2619743 1.2706897 0.15477379 67
0.27250054 1.2563112 0.0097733475 89
0.28273726 1.2383715 0.028261416 100
0.2636399 1.2718391 0.05055033 84
0.27354318 1.2544839 0.068490572 50
0.28174937 1.2401028 0.08572609 58
0.27171943 1.2576799 0.10914274 92
0.28729817 1.2303786 0.12237337 93
0.26754519 1.2649952 -0.0099478718 86
0.2618089 1.2750479 0.15580906 67
0.27715477 1.252056 0.0096686333 90
0.27453578 1.2566831 0.029308135 100
0.27128181 1.2624322 0.049504463 86
0.27328041 1.2589011 0.068978049 50
0.28923011 1.2307216 0.083848871 59
0.27825871 1.2501056 0.10723466 73
0.29274639 1.2245091 0.12057377 86
0.26927477 1.2659782 -0.0099478718 86
0.27499261 1.2558761 0.14959741 70
0.27492344 1.2599802 0.0098082526 74
0.27819178 1.2541585 0.029098792 100
0.27397776 1.2616647 0.049330149 87
0.27887577 1.2529402 0.068003096 51
0.28600484 1.2402415 0.085413218 58
0.277053 1.256187 0.10837951 87
0.28861064 1.2356 0.12327318 85
0.27100775 1.2669551 -0.0099478718 86
0.27858174 1.253464 0.14856213 71
0.27760831 1.2591903 0.0097733475 89
0.28182673 1.2516145 0.028889447 100
0.27860349 1.2574031 0.048807215 88
0.28249463 1.250415 0.067515619 51
0.28764787 1.2411602 0.085413218 58
0.28257218 1.2502757 0.10685304 81
0.29023749 1.2365096 0.12327318 76
0.27274415 1.267926 -0.0099478718 86
0.2727524 1.2679111 0.15270324 68
0.28511789 1.2496352 0.0095639192 91
0.28544059 1.2490509 0.028680105 100
0.27741691 1.2635797 0.049330149 87
0.28321359 1.2530835 0.067759357 51
0.28833917 1.2438023 0.08572609 58
0.28140295 1.2563621 0.10799789 87
0.29563585 1.2305899 0.12147357 86
0.27449211 1.2688758 0.15270324 68
0.27710074 1.2680479 0.0099129668 87
0.28895015 1.2464225 0.02847076 100
0.27331078 1.2749646 0.05037602 84
0.2838631 1.2557064 0.068003096 51
0.29370871 1.2377379 0.084474608 59
0.28490406 1.2538066 0.10723466 81
0.27998349 1.2627869 -0.0098082526 88
0.27614796 1.2697867 0.15270324 76
0.27884093 1.2689974 0.0099129668 87
0.28870749 1.2508405 0.028680105 100
0.28078291 1.2654238 0.049330149 87
0.2874558 1.253144 0.067515619 51
0.28190756 1.2633541 0.10914274 78
0.27979571 1.2672404 -0.0098780617 87
0.27789423 1.2707396 0.15270324 68
0.29007086 1.2523373 0.0095639192 91
0.29228252 1.2482333 0.02847076 100
0.29291087 1.2470672 0.047412723 90
0.28349355 1.2645426 0.068978049 50
0.29885456 1.2360379 0.083848871 59
0.29387626 1.2452759 0.10494494 75
0.28605902 1.259782 0.14907977 78
0.29552609 1.2461872 0.0094242999 93
0.29018804 1.256176 0.028889447 100
0.28800437 1.2602623 0.048632905 88
0.29083514 1.2549652 0.067515619 51
0.29553685 1.2461671 0.10494494 82
0.28139666 1.2726271 0.15270324 76
0.29250818 1.2559072 0.0095988233 76
0.29936826 1.2429616 0.028052073 100
0.28878438 1.2629343 0.048807215 58
0.29438856 1.2523588 0.067028143 51
0.295362 1.2505219 0.10570818 73
0.28314483 1.2735765 -0.0099478718 86
0.28496191 1.2701476 0.15166797 69
0.29327571 1.2585733 0.0096337283 90
0.29916266 1.2473698 0.028261416 100
0.28865311 1.2673706 0.049155839 87
0.29145703 1.2620344 0.068246834 85
0.29795408 1.2496698 0.10532656 75
0.2912024 1.262519 0.14907977 78
0.29582158 1.2576486 0.0095988233 91
0.29675025 1.255867 0.047935657 89
0.29767776 1.2540874 0.067028143 51
0.29591635 1.2574668 0.10685304 73
0.28657874 1.2753813 -0.0099478718 96
0.29194412 1.2650876 0.14959741 70
0.29936153 1.25498 0.0095290141 92
0.29874992 1.2561634 0.028680105 100
0.29753304 1.258518 0.048109971 59
0.29390076 1.2655463 0.068490572 50
0.29810858 1.2574043 0.14700922 81
0.29725477 1.2634826 0.14856213 71
0.29106876 1.2799401 -0.0099827768 100
0.29897889 1.2643619 0.14856213 79
0.29374948 1.2790546 -0.0099478718 100
0.29462573 1.2773139 0.1521856 77
0.29915902 1.2726697 0.068978049 100
0.29820663 1.2745782 -0.0098431576 100
0.29642293 1.2826236 -0.0099827768 100
0.29909423 1.2817101 -0.0099478718 100
0.29991812 1.2843378 -0.0099827768 100
