# .PCD v0.7 - Point Cloud Data file format
VERSION 0.7
FIELDS x y z intensity
SIZE 4 4 4 4
TYPE F F F F
COUNT 1 1 1 1
WIDTH 722
HEIGHT 1
VIEWPOINT 0 0 0 1 0 0 0
POINTS 722
DATA ascii
0.045591235 0.0021110177 0.048149079 26
0.046353817 0.0087849498 0.047835063 100
0.038824499 0.0090036988 0.04804441 54
0.031693459 0.0041764975 0.048463095 25
0.037031233 0.017451763 0.047730394 19
0.034407496 0.019246936 0.047730394 9
0.020559371 0.0045345426 0.048777111 8
0.015473008 0.0032032728 0.048986454 7
0.012307346 0.010308325 0.048777111 8
-1.0219209 1.1262662 0.084470235 3
-1.0355761 1.1293612 0.14223817 6
-1.0439551 1.1374075 0.028552137 7
-1.0050347 1.1284363 0.083632857 7
-1.028424 1.1338276 0.14171524 11
-1.0134575 1.1361299 0.028028565 11
-0.99988478 1.1329515 0.083423518 54
-1.0290842 1.1397893 0.14188954 50
-1.0006261 1.1382674 0.027819136 36
-0.99290723 1.1364342 0.083109498 100
-1.0201609 1.1429069 0.1411923 91
-0.98183554 1.1394582 0.027504992 40
-0.99938506 1.1436908 0.083528183 100
-0.99948114 1.1437141 0.13944919 92
-0.98241335 1.1455462 0.027539898 35
-0.99412531 1.1484164 0.083318844 100
-0.99423069 1.1484423 0.13910057 92
-0.97727829 1.1496609 0.027470088 22
-0.97347921 1.1487164 0.08227212 82
-1.0045686 1.1564449 0.14014643 84
-0.97594374 1.1549897 0.027470088 25
-0.97408456 1.1545208 0.082376793 42
-1.005142 1.1623564 0.14032075 68
-0.97659594 1.1605434 0.027504992 43
-0.97086614 1.1590776 0.08227212 34
-0.97873932 1.1610918 0.1380547 85
-0.96340412 1.1636481 0.027295563 61
-0.9828226 1.168699 0.083004825 78
-0.97715706 1.1672254 0.1380547 91
-0.9543559 1.1666254 0.027155945 71
-0.97762948 1.1727616 0.082795486 97
-0.97775799 1.1727954 0.13822901 94
-0.95303243 1.1716119 0.027155945 81
-0.95120114 1.1711226 0.081434749 92
-0.96678954 1.1752877 0.13735744 100
-0.96327347 1.1797296 0.027365373 92
-0.94215137 1.1740106 0.081016064 100
-0.96928352 1.1813569 0.13770607 100
-0.95019203 1.1820952 0.027155945 93
-0.94643837 1.181064 0.081330076 100
-0.96584445 1.1863948 0.13753176 98
-0.94496423 1.1859956 0.027086135 92
-0.94121867 1.1849532 0.081120729 96
-0.95101911 1.1876804 0.13631158 92
-0.93188232 1.1882132 0.026876707 89
-0.9454543 1.1920435 0.081434749 84
-0.95331305 1.1942613 0.1366602 100
-0.94971448 1.1986202 0.027225753 64
-0.92868358 1.1926095 0.080597371 66
-0.95572931 1.2003392 0.13700883 100
-0.96734029 1.2096796 0.027574802 41
-0.91753298 1.1952469 0.080074012 28
-0.95988292 1.2075187 0.13753176 94
-0.94092911 1.2073909 0.027121039 59
-0.93144673 1.204609 0.08091139 26
-0.94312924 1.2080363 0.13613728 84
-0.92014843 1.207153 0.026771991 75
-0.92792934 1.2094667 0.080806717 26
-0.9300552 1.2100987 0.13509139 89
-0.91103131 1.2097205 0.026632372 75
-0.93220145 1.216092 0.081120729 44
-0.93431121 1.216727 0.13561434 99
-0.91132253 1.2156558 0.026667276 81
-0.90954214 1.2151129 0.079969339 94
-0.93266386 1.2221642 0.13561434 100
-0.92130142 1.2240372 0.026876707 88
-0.9004243 1.2175946 0.079550654 100
-0.92734867 1.2259034 0.13526571 91
-0.9197076 1.2291703 0.026876707 85
-0.89885312 1.2226548 0.079550654 89
-0.91814131 1.228681 0.13456847 66
-0.90292305 1.2292203 0.026597468 89
-0.9087705 1.2310684 0.080178685 64
-0.91281277 1.2323461 0.13421984 43
-0.89361209 1.2321038 0.026457848 81
-0.91277725 1.2382387 0.080492698 76
-0.90731329 1.2364897 0.13387123 43
-0.89207178 1.2368885 0.026457848 89
-0.89791542 1.2387805 0.07976 100
-0.90765375 1.2419333 0.13404553 49
-0.89035088 1.2421708 0.026457848 99
-0.888596 1.2415955 0.079341307 100
-0.91348737 1.2497554 0.13474278 73
-0.89636964 1.2494614 0.026597468 100
-0.88892001 1.246992 0.07944598 100
-0.90810603 1.2533519 0.13439415 82
-0.88701946 1.2522148 0.026457848 96
-0.88716215 1.2522627 0.07944598 100
-0.89688021 1.2555237 0.1335226 84
-0.87405032 1.2531228 0.02624842 96
-0.88744634 1.2576675 0.079550654 100
-0.89714903 1.2609591 0.13369691 82
-0.86865729 1.2565449 0.02617861 96
-0.87637514 1.2591919 0.079027295 100
-0.8936283 1.2651091 0.1335226 100
-0.87081486 1.2625568 0.02624842 83
-0.86908382 1.2619567 0.078713275 100
-0.90515584 1.2744617 0.13474278 87
-0.88203329 1.2728943 0.026492752 75
-0.87463528 1.2702963 0.079131968 78
-0.90499896 1.2809592 0.1349171 47
-0.86339706 1.2716209 0.02617861 78
-0.86167496 1.2710097 0.078503937 40
-0.88264245 1.2784512 0.13299966 35
-0.85043198 1.2722547 0.025969181 93
-0.86940593 1.2790595 0.079027295 17
-0.88282388 1.2838718 0.13317397 37
-0.85251886 1.2782586 0.026038991 93
-0.84893233 1.2769588 0.077980578 59
-0.87549239 1.2865839 0.13265105 20
-0.86191183 1.2875247 0.02624842 100
-0.84706491 1.2820828 0.077980578 97
-0.85675341 1.285634 0.13108224 11
-0.85268694 1.2894263 0.0261088 100
-0.85285097 1.2894871 0.078399263 100
-0.86624604 1.2944474 0.1321281 3
-0.83579212 1.2889537 0.025829561 100
-0.83597416 1.2890217 0.077561885 55
-0.87177783 1.3024297 0.13282534 1
-0.83032292 1.2921312 0.025759751 93
-0.84358579 1.2971482 0.078085244 51
-0.84577852 1.2979777 0.1305593 3
-0.83017558 1.2981422 0.025794657 72
-0.83409005 1.2996401 0.077666558 55
-0.84932345 1.3054693 0.13108224 22
-0.8358776 1.3055995 0.025934275 74
-0.83046311 1.303507 0.077561885 76
-0.84382313 1.3086703 0.13073361 60
-0.83409375 1.3101923 0.025934275 83
-0.82496518 1.3066294 0.077352546 63
-0.85316545 1.3176357 0.13177948 100
-0.81927186 1.3096466 0.025689943 100
-0.82503623 1.3119185 0.077457212 68
-0.83280545 1.3149803 0.13003637 97
-0.81347448 1.3134196 0.025620133 100
-0.8340773 1.321631 0.078085244 91
-0.83070272 1.3202859 0.13003637 99
-0.81537527 1.3194311 0.025689943 100
-0.82112318 1.321744 0.077457212 97
-0.8399604 1.3293241 0.13108224 100
-0.81696004 1.3261769 0.025759751 100
-0.81529456 1.3254993 0.077247873 97
-0.83964795 1.335408 0.13125655 100
-0.77204186 1.3079009 0.17524812 15
-0.82250708 1.333746 0.025899371 100
-0.81529242 1.3307825 0.077352546 100
-0.82302147 1.3339572 0.12986206 100
-0.78126818 1.3168073 0.17671055 15
-0.80215806 1.3306353 0.025550323 100
-0.80604547 1.332247 0.076933853 100
-0.81010109 1.3339286 0.12881619 100
-0.79595107 1.3280617 0.17890419 21
-0.79291278 1.3320279 0.025410704 100
-0.80601591 1.3375118 0.077038527 99
-0.80638558 1.3376665 0.12864187 100
-0.77578121 1.3248582 0.17646681 18
-0.79821116 1.3400613 0.025550323 100
-0.79840809 1.3401446 0.076724514 100
-0.80796605 1.3441861 0.1289905 100
-0.78105217 1.3328061 0.17744176 26
-0.80183095 1.3468837 0.025655037 72
-0.79283601 1.3430451 0.076515168 45
-0.81155211 1.351032 0.12951343 73
-0.76639789 1.3317628 0.17573559 15
-0.81817383 1.3595119 0.026004085 63
-0.82017535 1.3603742 0.078189917 55
-0.83330256 1.3660305 0.13177948 18
-0.79542106 1.3497082 0.17987914 7
-0.795937 1.3555094 0.025620133 100
-0.81078035 1.3619666 0.077771232 100
-0.80380851 1.3589337 0.12916481 61
-0.77700645 1.3472743 0.1776855 15
-0.79388493 1.360204 0.025620133 100
-0.81236309 1.3683192 0.077980578 100
-0.81268984 1.3684627 0.13021068 100
-0.78952366 1.3582885 0.17963541 36
-0.79730088 1.3673229 0.025724847 100
-0.80478865 1.3706427 0.077666558 100
-0.81969959 1.3772533 0.13108224 100
-0.75479668 1.3484788 0.17524812 26
-0.79885811 1.3736559 0.025794657 100
-0.80268377 1.3753681 0.077666558 100
-0.80847853 1.3779614 0.13021068 100
-0.75820524 1.3554626 0.17597933 22
-0.80220991 1.3808303 0.025899371 100
-0.80784303 1.3833749 0.078085244 100
-0.7990852 1.3794188 0.12951343 100
-0.78690785 1.3739181 0.18012288 24
-0.79279143 1.3822284 0.025759751 100
-0.81296283 1.3914253 0.078503937 100
-0.80057544 1.3857774 0.12986206 100
-0.77395445 1.3736398 0.17866045 14
-0.78701299 1.3852401 0.025689943 100
-0.81622857 1.3986838 0.078817949 100
-0.80203766 1.3921537 0.13021068 100
-0.75560933 1.3707893 0.17646681 13
-0.79392558 1.3941146 0.025864467 100
-0.80315691 1.3984016 0.078189917 100
-0.81069988 1.4019046 0.13125655 100
-0.76610714 1.3811958 0.17817298 12
-0.8007924 1.4030449 0.026038991 100
-0.79914671 1.4022737 0.078085244 100
-0.81570226 1.4100324 0.13195379 100
-0.76756066 1.387471 0.17866045 7
-0.8039977 1.4103209 0.026143705 100
-0.80595905 1.4112484 0.07860861 100
-0.80985755 1.4130921 0.13160518 100
-0.77795905 1.3980069 0.18036664 3
-0.7909258 1.4098761 0.025934275 100
-0.80551499 1.4168379 0.078713275 100
-0.80041188 1.4144027 0.13090792 100
-0.78868407 1.4145529 0.025934275 100
-0.81404608 1.4267642 0.079341307 100
-0.80533487 1.42257 0.13160518 100
-0.79541939 1.4235908 0.0261088 100
-0.80635566 1.4289036 0.079027295 100
-0.81380135 1.4325205 0.13265105 100
-0.79312974 1.4282832 0.0261088 100
-0.79508024 1.4292392 0.078503937 100
-0.81863672 1.4407845 0.13334829 100
-0.80157906 1.4382855 0.02631823 100
-0.79456121 1.4348155 0.07860861 100
-0.80914289 1.4420254 0.13265105 100
-0.79208022 1.439429 0.02617861 100
-0.79580694 1.4412879 0.078817949 100
-0.79609138 1.4414299 0.13160518 100
-0.78616267 1.442312 0.0261088 100
-0.80772859 1.4531633 0.079655327 100
-0.80085868 1.4497066 0.13230242 100
-0.7910592 1.4503582 0.02624842 100
-0.80189341 1.4558547 0.07944598 100
-0.81281167 1.4613938 0.13369691 100
-0.79579669 1.458679 0.026388038 100
-0.79237908 1.4569302 0.079027295 100
-0.81571096 1.4688696 0.13421984 100
-0.79681712 1.4654419 0.026457848 100
-0.80050021 1.4673436 0.079655327 100
-0.80428869 1.4692998 0.13334829 100
-0.79438144 1.4701389 0.026457848 100
-0.80337209 1.4748211 0.079969339 100
-0.79653805 1.4712621 0.13282534 100
-0.78142923 1.469016 0.02624842 99
-0.80456406 1.4811621 0.080178685 100
-0.80478948 1.4812803 0.13387123 100
-0.78781742 1.4783378 0.026422944 71
-0.78618747 1.4774748 0.079236634 78
-0.80758089 1.4888021 0.13439415 94
0.1302346 1.2915235 0.13013174 11
0.19198829 1.2147996 0.13182132 7
0.16175157 1.2558285 0.010855397 26
0.13853413 1.2848812 0.03454173 27
0.16690153 1.2493842 0.053687938 26
0.1360836 1.2879477 0.081408724 13
0.15537429 1.2638086 0.10011806 12
0.13941142 1.2837834 0.12784202 46
0.199626 1.2084349 0.12957181 16
0.15321508 1.2665105 0.17030293 7
0.16096395 1.2603137 0.010925206 100
0.16019651 1.261281 0.032866981 87
0.15867016 1.2632047 0.055082429 100
0.16874033 1.2505128 0.075315252 30
0.16937852 1.2497087 0.096989371 25
0.16805345 1.2513785 0.11944643 100
0.18420097 1.2310274 0.13587044 30
0.15615141 1.2663791 0.16978529 29
0.16020292 1.2648103 0.010995016 100
0.17550915 1.2453806 0.031715591 100
0.1505307 1.2770884 0.056476921 96
0.15813583 1.2674344 0.077752642 28
0.16616574 1.2572411 0.098240845 36
0.158802 1.2665887 0.122881 100
0.18822432 1.2292399 0.13497064 45
0.14951822 1.2783736 0.17340876 42
0.15700465 1.2724686 0.011134636 100
0.18455359 1.2372456 0.031087559 94
0.15230319 1.2784797 0.056476921 100
0.15987459 1.2687992 0.077752642 28
0.18003863 1.2430183 0.095112152 25
0.16537586 1.2617655 0.12135452 100
0.20063469 1.2166849 0.13092151 40
0.14653456 1.2858553 0.17547931 42
0.16112652 1.2706106 0.011064826 100
0.17997885 1.2463413 0.031610917 61
0.16376954 1.2672081 0.055082429 75
0.17492628 1.2528456 0.075071514 30
0.19130376 1.2317624 0.092609204 26
0.18146122 1.244433 0.1167751 79
0.18538126 1.2393866 0.13722014 30
0.14587721 1.2902416 0.1765146 41
0.17753088 1.2529631 0.010645968 53
0.16456774 1.2697718 0.033076324 29
0.17280799 1.2590871 0.054036561 51
0.17297715 1.2588677 0.075802729 45
0.18326691 1.2455255 0.095112152 25
0.17592582 1.2550443 0.11906482 13
0.18464178 1.2437428 0.13811995 22
0.1500552 1.2885895 0.17547931 49
0.18156639 1.2510206 0.010576159 54
0.17108503 1.2647048 0.032657638 29
0.16716287 1.2698256 0.055082429 50
0.18667108 1.2443559 0.073365346 46
0.19325399 1.2357614 0.092922069 53
0.19066805 1.2391376 0.11486702 20
0.19687948 1.2310281 0.13407083 31
0.16117468 1.2776437 0.1713382 58
0.176157 1.2619848 0.010785587 52
0.17057061 1.2693367 0.032866981 29
0.16787943 1.2728783 0.055256739 49
0.1920982 1.2410059 0.072634131 78
0.1842888 1.2512832 0.095737889 51
0.19009647 1.2436402 0.11563025 13
0.20572641 1.2230709 0.13137141 47
0.16897076 1.2714421 0.16875002 66
0.17779055 1.2632219 0.010785587 39
0.16741619 1.2769691 0.03328567 28
0.16114804 1.2852752 0.056476921 48
0.18768325 1.2501128 0.073852822 46
0.19421619 1.2414559 0.093547814 65
0.19285169 1.243264 0.11524864 13
0.21544781 1.2133214 0.12822211 40
0.1741268 1.2680768 0.16719711 67
0.17471856 1.2709196 0.010925206 39
0.1883485 1.2527266 0.031610917 30
0.17728427 1.2674949 0.054385185 51
0.18817115 1.2529633 0.07409656 61
0.19941726 1.2379522 0.092609204 53
0.19450587 1.2445078 0.11524864 13
0.20764989 1.2269634 0.13182132 39
0.18745074 1.2539248 0.16202073 70
0.19070575 1.2529092 0.010506349 81
0.1923357 1.2507184 0.031401575 31
0.18369329 1.2623342 0.053687938 52
0.18977469 1.2541605 0.07409656 76
0.19979182 1.240697 0.092922069 53
0.20662859 1.231508 0.11181407 14
0.21382013 1.2218423 0.13002171 32
0.17983213 1.2675238 0.16616182 68
0.19120553 1.2557689 0.010541254 95
0.18808284 1.2599967 0.031924933 61
0.18186292 1.2684177 0.054210871 76
0.19382569 1.2522215 0.073609084 93
0.201437 1.2419167 0.092922069 79
0.20940807 1.2311246 0.11143246 14
0.20729488 1.2339857 0.13317102 31
0.18730983 1.2610433 0.16357364 69
0.19045293 1.260181 0.010611063 94
0.20624763 1.2386475 0.030459527 65
0.17291218 1.2840947 0.055779677 73
0.20951575 1.234192 0.070684217 32
0.2053405 1.2398843 0.092296332 93
0.20048857 1.2464991 0.11486702 13
0.22497156 1.2131207 0.12687239 16
0.18322721 1.2700319 0.16616182 68
0.19233775 1.2615578 0.010611063 94
0.21157491 1.235119 0.030145511 65
0.18778339 1.2678171 0.053862248 100
0.20662892 1.2419165 0.071659178 96
0.200174 1.250788 0.094173551 100
0.20578602 1.243075 0.11372216 13
0.23814085 1.1986077 0.12237337 17
0.18969631 1.2651881 0.16409127 69
0.18928516 1.2692246 0.010750682 92
0.20844024 1.2427142 0.030564198 64
0.19176993 1.2657857 0.053513627 100
0.20354533 1.2494887 0.072634131 78
0.21449625 1.2343328 0.090731993 100
0.21310574 1.2362573 0.11181407 14
0.22358555 1.2217534 0.128672 16
0.19360322 1.2632484 0.163056 78
0.20276937 1.2542919 0.010401634 83
0.21250269 1.2407166 0.030354854 65
0.19823328 1.2606186 0.05281638 100
0.1995216 1.2588217 0.073852822 46
0.21735141 1.233954 0.090419121 100
0.22511265 1.2231292 0.10837951 14
0.22978553 1.2166117 0.12687239 16
0.19991615 1.2582715 0.16098544 80
0.2090165 1.2489247 0.010262015 98
0.21290711 1.2434602 0.030459527 97
0.19986215 1.2617824 0.05281638 100
0.2092039 1.2486615 0.072146654 63
0.21889177 1.2350545 0.090419121 100
0.20270494 1.2577896 0.11639348 19
0.23804983 1.2081463 0.12417299 16
0.19817588 1.2641509 0.16253836 70
0.20607388 1.2566442 0.010401634 97
0.2214781 1.2348478 0.029831495 99
0.19008195 1.2792723 0.054559495 100
0.21775094 1.2401216 0.070684217 65
0.20797628 1.2539524 0.093860678 100
0.20554283 1.2573956 0.11601187 46
0.23395762 1.2171896 0.12642249 24
0.19655806 1.2701088 0.16409127 69
0.19849998 1.2708769 0.010680873 93
0.22646329 1.23103 0.029517479 67
0.19406173 1.2772012 0.054210871 100
0.21361023 1.2493453 0.071902916 64
0.22319967 1.2356806 0.090106249 100
0.20039442 1.2681773 0.11830158 91
0.22872576 1.2278061 0.1291219 48
0.20265728 1.2649529 0.16202073 70
0.20490891 1.2655976 0.010541254 95
0.21902487 1.2453252 0.030354854 97
0.20047715 1.2719622 0.053513627 100
0.21196634 1.2554622 0.072634131 78
0.22490868 1.2368752 0.090106249 96
0.21231946 1.2549551 0.11486702 100
0.22483802 1.2369766 0.13137141 86
0.2044737 1.2662226 0.16202073 78
0.2111032 1.26016 0.010401634 97
0.22173876 1.2447773 0.030250182 98
0.20440981 1.2698408 0.053165004 100
0.21132019 1.2598461 0.073121607 100
0.22645867 1.2379507 0.090106249 96
0.21951205 1.2479979 0.11295892 89
0.22638837 1.2380524 0.13137141 86
0.20721981 1.2657766 0.16150309 70
0.22404826 1.2447951 0.010052586 86
0.21427181 1.2590359 0.031087559 94
0.20606923 1.2709842 0.053165004 100
0.22305804 1.2462375 0.070927955 48
0.22689423 1.2406496 0.090419121 96
0.21998781 1.2507098 0.11334054 100
0.22573638 1.2423362 0.13227122 94
0.21214589 1.2621326 0.15995017 72
0.21548781 1.2607445 0.010366729 69
0.22939453 1.2403426 0.029831495 66
0.20997682 1.2688293 0.05281638 100
0.22799334 1.2423983 0.07019674 82
0.21844327 1.2564087 0.093234941 100
0.22711262 1.2436903 0.11143246 91
0.23169491 1.2369679 0.13047162 96
0.21160352 1.2664428 0.16098544 72
0.21513468 1.2653385 0.010436539 41
0.23232147 1.2399156 0.029726824 33
0.21077883 1.2717818 0.05299069 79
0.23425668 1.2370529 0.069221787 33
0.23137668 1.2413131 0.090106249 100
0.2256352 1.249806 0.1125773 96
0.24003875 1.2285 0.1277722 97
0.21026635 1.2725399 0.16253836 70
0.21900803 1.2631255 0.010366729 41
0.23833388 1.234333 0.029308135 34
0.21133429 1.2745582 0.053165004 52
0.22916934 1.2479868 0.070684217 98
0.23514318 1.2390867 0.089480512 97
0.22832221 1.2492489 0.11219569 91
0.23395851 1.2408516 0.13092151 96
0.22162446 1.2592275 0.15787962 73
0.22294867 1.2609495 0.010296919 28
0.23109823 1.2487159 0.030145511 32
0.22082978 1.2641302 0.051944822 54
0.22973922 1.2507559 0.070927955 97
0.23459217 1.2434709 0.090106249 96
0.2354393 1.2421993 0.1102876 85
0.23452362 1.2435739 0.13137141 94
0.22333419 1.2603707 0.15787962 73
0.228991 1.2553596 0.0101573 28
0.20183763 1.2964151 0.033076324 29
0.22576746 1.2602336 0.051421888 55
0.23243031 1.2501595 0.070684217 81
0.23943311 1.2395715 0.089167647 84
0.24133897 1.2366898 0.10876112 87
0.23502079 1.2462428 0.13182132 94
0.22389641 1.2630626 0.15839726 73
0.23077211 1.256533 0.0101573 28
0.21034336 1.2876682 0.032448292 29
0.22428745 1.2664162 0.051944822 54
0.23854828 1.2446814 0.069709264 66
0.23790529 1.2456614 0.090106249 96
0.23766649 1.2460253 0.11066922 92
0.23997557 1.242506 0.13047162 96
0.22146663 1.2707154 0.1604678 72
0.23247236 1.2576444 0.0101573 28
0.23394907 1.2553766 0.030354854 32
0.22602224 1.2675501 0.051944822 54
0.24020711 1.2457657 0.069709264 83
0.25034645 1.2301941 0.086977564 100
0.2457577 1.2372414 0.10837951 87
0.24588022 1.2370532 0.128672 97
0.22427061 1.2702403 0.15995017 72
0.22766468 1.2688271 0.010366729 41
0.23781323 1.2531217 0.030145511 32
0.227761 1.2686779 0.051944822 54
0.23325071 1.2601824 0.071659178 64
0.25088257 1.2328964 0.087290429 85
0.23780078 1.253141 0.11181407 91
0.2475124 1.2381119 0.128672 97
0.23440662 1.2583936 0.15580906 75
0.23804334 1.2564826 0.010087491 71
0.24381402 1.2474835 0.029726824 67
0.23165464 1.2664454 0.051596198 54
0.241393 1.2512589 0.07019674 66
0.24823496 1.2405891 0.08854191 84
0.24796727 1.2410066 0.10876112 87
0.24914825 1.2391649 0.128672 89
0.23298493 1.2643709 0.15736198 74
0.24189049 1.2541943 0.010017681 72
0.25084382 1.2401242 0.029203463 68
0.23125026 1.2709155 0.051944822 81
0.24840337 1.2439594 0.068978049 67
0.24987945 1.2416396 0.08854191 70
0.2517212 1.2387453 0.10799789 79
0.25183398 1.2385681 0.12822211 81
0.23367539 1.2671044 0.15787962 65
0.24358252 1.2552669 0.010017681 87
0.24822128 1.2479206 0.029622151 100
0.23512822 1.2686558 0.051596198 54
0.25323921 1.2399738 0.068246834 68
0.25152761 1.2426844 0.08854191 70
0.24287724 1.2563838 0.11181407 98
0.25555232 1.2363106 0.1273223 97
0.22922394 1.2780063 0.16098544 64
0.23775911 1.2681408 0.010262015 84
0.25405076 1.2421496 0.029203463 100
0.23784173 1.2680089 0.051421888 82
0.24952787 1.2493652 0.069465525 49
0.25519499 1.240324 0.087916173 70
0.24866262 1.2507457 0.1102876 78
0.26124018 1.2306798 0.12552269 90
0.22885829 1.282341 0.16202073 63
0.24266821 1.2641336 0.0101573 85
0.25148132 1.2499636 0.029622151 100
0.24694785 1.2572527 0.050201707 85
0.24386415 1.2622107 0.071171694 48
0.25683853 1.2413503 0.087916173 56
0.24515817 1.2601302 0.11219569 91
0.26285002 1.2316849 0.12552269 90
0.24085155 1.2670543 0.15684435 66
0.25069606 1.254993 0.0099478718 73
0.24791399 1.259501 0.030145511 100
0.24655783 1.2616986 0.05055033 100
0.25288177 1.2514513 0.069465525 49
0.26263529 1.2356466 0.086664692 71
0.25821248 1.2428133 0.10799789 72
0.25934622 1.2409762 0.1277722 97
0.24461761 1.2648425 0.15580906 67
0.25761205 1.2475078 0.0097733475 89
0.25692531 1.2486293 0.029412808 100
0.24411431 1.2695514 0.051247578 100
0.25145432 1.2575642 0.07019674 82
0.25807321 1.2467546 0.08854191 70
0.25268817 1.2555492 0.11066922 92
0.26200962 1.240326 0.1273223 89
0.2463468 1.2659055 0.15580906 67
0.25512752 1.2553617 0.0099129668 87
0.26067185 1.2462356 0.029203463 100
0.24999788 1.263805 0.05055033 84
0.25831157 1.2501206 0.068978049 50
0.26384181 1.2410178 0.087290429 71
0.26661724 1.2364495 0.1060898 66
0.26770043 1.2346666 0.12552269 82
0.24607357 1.2702644 0.15684435 66
0.25682354 1.2563879 0.0099129668 87
0.26646021 1.2404004 0.028784776 100
0.24658072 1.273381 0.051421888 82
0.26203883 1.2477357 0.068490572 50
0.2654877 1.2420139 0.087290429 57
0.25608516 1.2576129 0.11066922 78
0.27334818 1.2289732 0.12372308 92
0.24782166 1.2713223 0.15684435 66
0.25236517 1.2677057 0.010122396 85
0.26297855 1.249958 0.029308135 100
0.24731714 1.2761471 0.051596198 82
0.25759518 1.2589601 0.069953002 49
0.27524784 1.2294413 0.084787481 73
0.25980431 1.255266 0.10990598 78
0.27295163 1.233281 0.12462288 83
0.26057577 1.2539759 -0.0098431576 87
0.25552249 1.2624261 0.15373851 68
0.26226693 1.2549833 0.0098431576 88
0.26159841 1.2561101 0.029622151 100
0.25721857 1.2634925 0.050201707 85
0.26335528 1.2531488 0.068978049 50
0.27786118 1.2286987 0.084474608 59
0.26250169 1.2545875 0.10952436 78
0.27158746 1.2392732 0.12597258 82
0.26020029 1.2584666 0.1521856 77
0.26497591 1.2542614 0.0098082526 74
0.26734933 1.2502289 0.029203463 100
0.25490052 1.2713797 0.050898954 83
0.27108499 1.2438819 0.067515619 51
0.27645802 1.234753 0.085413218 58
0.27116582 1.2437446 0.10685304 81
0.2742157 1.2385628 0.12552269 82
0.25896743 1.2644699 0.15373851 68
0.26565975 1.2569802 0.0098431576 88
0.27104151 1.247763 0.028994121 100
0.25062475 1.2827301 0.051944822 81
0.27073899 1.2482811 0.068003096 51
0.27608991 1.2391168 0.086038955 72
0.26589173 1.2565829 0.10952436 85
0.28076601 1.2311082 0.12327318 85
0.25679886 1.272156 0.15580906 67
0.27337494 1.2475874 0.0096337283 90
0.2767151 1.2418207 0.028575432 100
0.26040515 1.2699795 0.05055033 84
0.27141526 1.2509708 0.068246834 34
0.27871919 1.2383606 0.08572609 58
0.26857597 1.2558727 0.10914274 78
0.28823757 1.2219274 0.12057377 86
0.26049 1.269833 0.15477379 67
0.26906639 1.2589533 0.0098431576 88
0.27438369 1.2496989 0.028994121 100
0.26413733 1.2675322 0.050201707 85
0.27210692 1.2536615 0.068490572 50
0.28232393 1.2358792 0.085100345 58
0.27027369 1.2568521 0.10914274 85
0.28690419 1.2279074 0.12192347 85
0.26607776 1.264155 -0.0099478718 86
0.26608619 1.2641404 0.15270324 68
0.26879457 1.2634058 0.0099129668 87
0.27309299 1.2558637 0.029308135 100
0.27179503 1.258141 0.049155839 100
0.27281398 1.2563533 0.068734311 50
0.28101742 1.2419593 0.086038955 58
0.27683541 1.2492971 0.10723466 88
0.28560939 1.2339022 0.12327318 85
0.27163905 1.2584147 0.15063268 70
0.28134358 1.2452357 0.0095290141 76
0.27380776 1.2585659 0.029412808 100
0.27350068 1.2591093 0.049155839 100
0.26865193 1.2676864 0.07019674 33
0.28461075 1.2394562 0.085413218 58
0.2833409 1.2417024 0.10532656 67
0.28531229 1.2382152 0.12417299 83
0.26574004 1.2728373 0.15477379 67
0.28015408 1.2514503 0.0096337283 90
0.27755332 1.2560904 0.029203463 100
0.27139869 1.2670714 0.049853086 85
0.27921298 1.2531294 0.068003096 51
0.28246993 1.2473184 0.086664692 57
0.2764326 1.25809 0.10876112 87
0.29369971 1.2272826 0.12102367 77
0.27136305 1.2671349 0.15270324 68
0.27600667 1.262876 0.0098431576 88
0.28313345 1.2500559 0.028784776 100
0.27410355 1.2662995 0.049678773 86
0.28090107 1.2540716 0.068003096 51
0.28989646 1.2378901 0.084787481 73
0.27909192 1.257326 0.10837951 87
0.29624432 1.2264712 0.12057377 86
0.26371363 1.2849894 0.15787962 65
0.27465808 1.2689868 0.0099478718 73
0.28657278 1.2473946 0.028575432 100
0.27566406 1.2671638 0.049678773 86
0.27954599 1.2601287 0.068734311 33
0.29423076 1.2335165 0.083848871 59
0.27872723 1.2616125 0.10914274 78
0.29767963 1.2272662 0.12057377 77
0.27852255 1.2619835 -0.0098082526 88
0.27653295 1.2655891 0.15166797 69
0.2869615 1.2506487 0.0095639192 91
0.2844055 1.2553194 0.028994121 100
0.28218362 1.2593794 0.048807215 88
0.27458763 1.2732595 0.070440479 49
0.29300532 1.2396049 0.084787481 59
0.28609994 1.2522231 0.10685304 81
0.29647073 1.2332727 0.12192347 76
0.27832156 1.2664366 -0.0098780617 87
0.28290167 1.2580673 0.14907977 78
0.28872493 1.2516097 0.0095639192 91
0.27666211 1.2738452 0.03004084 99
0.28112885 1.2656115 0.049330149 87
0.28589997 1.2568169 0.068003096 51
0.29472825 1.2405437 0.084787481 59
0.29161385 1.2462845 0.10532656 82
0.29817039 1.2341988 0.12192347 76
0.27728224 1.272702 -0.0099827768 96
0.28192869 1.2641371 0.15063268 78
0.29230249 1.2489967 0.0094941091 92
0.2916702 1.250172 0.028575432 100
0.27908465 1.2735654 0.050027397 85
0.29606536 1.2420025 0.065809444 70
0.29637229 1.241432 0.084787481 59
0.29234782 1.2489125 0.10570818 81
0.2799941 1.2718749 0.15270324 68
0.28935504 1.2587603 0.0096686333 75
0.28655726 1.2640069 0.048981529 87
0.28752211 1.2621975 0.068490572 50
0.29624286 1.2458444 0.085413218 58
0.29133344 1.2550505 0.10685304 73
0.28276837 1.2711117 -0.0099129668 97
0.28092635 1.2745659 0.15322088 76
0.29012793 1.261435 0.0097035384 90
0.29698011 1.248477 0.028366089 100
0.2948029 1.2525944 0.047761347 90
0.29666552 1.249072 0.066540658 52
0.29302815 1.2559505 0.10685304 73
0.28732356 1.2667382 -0.0098082526 88
0.28901079 1.2635477 0.14959741 70
0.29640365 1.2534398 0.0095290141 76
0.29300144 1.2599256 0.028994121 100
0.28807488 1.2693173 0.049330149 87
0.29456702 1.2569411 0.067515619 51
0.29555303 1.2550614 0.10647142 73
0.28618547 1.2729191 -0.0099129668 87
0.29244369 1.2609888 0.14856213 71
0.29471317 1.2608197 0.028994121 100
0.29441625 1.2613906 0.048458595 88
0.29443631 1.2613519 0.068003096 51
0.29237628 1.2653127 0.14959741 70
0.29878333 1.2569319 0.0095639192 91
0.29696065 1.2604648 0.048284281 59
0.29886061 1.2567821 0.10647142 73
0.29402021 1.2661642 0.14959741 78
0.29684201 1.2649271 0.0097035384 100
0.2904675 1.2773893 -0.0099478718 100
0.29047522 1.2773743 0.15270324 76
0.29498419 1.2728812 0.049330149 58
0.29404905 1.2747252 -0.0098780617 100
0.2974903 1.2679392 0.14959741 70
0.29321054 1.280791 0.07019674 99
