# .PCD v0.7 - Point Cloud Data file format
VERSION 0.7
FIELDS x y z intensity
SIZE 4 4 4 4
TYPE F F F F
COUNT 1 1 1 1
WIDTH 725
HEIGHT 1
VIEWPOINT 0 0 0 1 0 0 0
POINTS 725
DATA ascii
0.052677125 0.003311336 0.015951499 100
0.04781574 0.0017042756 0.016021309 34
0.046850622 0.0060638189 0.047939736 100
0.046887279 0.01189357 0.015881689 4
0.047500253 0.012817204 0.047625721 100
0.038199067 0.004614234 0.048253752 70
0.035397232 0.0064952374 0.048253752 35
0.029369056 0.0033392906 0.048567768 25
0.031472027 0.011573732 0.048149079 17
0.020896912 0.0018746853 0.048881784 7
0.029606044 0.020134687 0.047835063 9
-1.0273263 1.1295179 0.084784247 5
-1.0370786 1.1317408 0.14241248 6
-1.0318806 1.1363693 0.028342709 8
-0.99492973 1.1278113 0.083109498 11
-1.0261011 1.1350307 0.14154093 19
-0.99756438 1.1338329 0.027749326 15
-0.99762315 1.1338468 0.083318844 75
-1.03264 1.1420792 0.14223817 68
-1.0079551 1.1420194 0.027958754 41
-0.99440104 1.1387829 0.083214171 100
-1.0158284 1.1438994 0.14084367 100
-0.97950429 1.1405911 0.027470088 38
-0.99122852 1.1434319 0.083109498 100
-1.0029616 1.1462748 0.13979781 84
-0.98014325 1.1464056 0.027504992 31
-0.98797613 1.1483325 0.083004825 100
-0.9977693 1.1507416 0.13944919 92
-0.98263341 1.1529809 0.027574802 22
-0.98270386 1.1529984 0.082795486 63
-0.99829632 1.1568948 0.13962349 81
-0.97159559 1.1558707 0.027400278 34
-0.98135751 1.1583463 0.082795486 39
-0.99693638 1.162297 0.13962349 68
-0.97023934 1.1611797 0.027400278 56
-0.97225565 1.1616986 0.082376793 40
-0.98398036 1.1647155 0.13857763 87
-0.96499485 1.1654738 0.027330469 64
-0.97667664 1.1685232 0.082690813 84
-0.97680992 1.168558 0.1380547 92
-0.95587283 1.1687124 0.027190849 74
-0.98106843 1.1753834 0.083004825 91
-0.96963125 1.1723552 0.13753176 98
-0.95060939 1.1729293 0.027121039 83
-0.94685215 1.1719204 0.081225403 94
-0.97399026 1.1792073 0.1380547 100
-0.9549821 1.1797409 0.027225753 92
-0.93773156 1.1750443 0.080806717 100
-0.9725526 1.1845245 0.1380547 100
-0.96510834 1.188184 0.027435184 81
-0.94593507 1.182892 0.081330076 100
-0.96725518 1.1887765 0.13770607 92
-0.9406032 1.1867448 0.027016325 92
-0.94263405 1.1873126 0.081225403 90
-0.95626408 1.1911232 0.13683452 94
-0.93913943 1.1919454 0.027016325 88
-0.94885474 1.1946983 0.081644088 76
-0.94903415 1.1947491 0.13631158 100
-0.96464187 1.2046027 0.027504992 50
-0.92632049 1.1936069 0.080492698 54
-0.94761735 1.1997178 0.13631158 100
-0.94967419 1.2059795 0.027260659 39
-0.92099708 1.1976426 0.080283359 22
-0.96332687 1.2099485 0.13788038 87
-0.93655735 1.2080815 0.027051231 64
-0.91941983 1.2030312 0.080283359 26
-0.94259292 1.2098602 0.13613728 84
-0.921606 1.2092642 0.026806897 78
-0.9198131 1.208729 0.080388032 28
-0.93150264 1.2122183 0.13526571 91
-0.91432136 1.2126625 0.026702182 75
-0.92783171 1.2167467 0.08091139 58
-0.92995006 1.217387 0.13526571 99
-0.91467935 1.2183565 0.026737086 81
-0.90907532 1.2166411 0.079969339 100
-0.93218952 1.2237166 0.13561434 99
-0.92082506 1.2255777 0.026876707 88
-0.90758616 1.221477 0.079969339 90
-0.9287737 1.2280397 0.13544002 84
-0.91922587 1.2307091 0.026876707 83
-0.90600127 1.2265623 0.079969339 80
-0.92526466 1.2326027 0.13526571 54
-0.90617281 1.2322049 0.026667276 81
-0.90820605 1.2328503 0.080178685 68
-0.90085262 1.2305163 0.13317397 46
-0.89312738 1.2336154 0.026457848 81
-0.90848309 1.2385485 0.080283359 78
-0.90492707 1.237406 0.13369691 45
-0.89530379 1.2398865 0.026527658 89
-0.89544231 1.2399316 0.079655327 100
-0.91276044 1.245562 0.13456847 57
-0.88985568 1.2436789 0.026457848 100
-0.8881014 1.2431018 0.079341307 100
-0.91676933 1.252533 0.13509139 73
-0.88827688 1.248451 0.026457848 100
-0.88841981 1.2484986 0.07944598 100
-0.90570849 1.2542498 0.13421984 85
-0.87901706 1.2509174 0.02631823 96
-0.89052659 1.2547908 0.079655327 100
-0.89456767 1.2561507 0.13334829 80
-0.86975759 1.2533249 0.02617861 96
-0.8888256 1.2598162 0.079655327 100
-0.89852017 1.2631165 0.13387123 85
-0.86806184 1.2582779 0.02617861 93
-0.87577635 1.2609341 0.079027295 100
-0.88925463 1.2655752 0.13317397 100
-0.88145655 1.2684859 0.026457848 85
-0.86650938 1.2632807 0.07860861 100
-0.91385788 1.2797692 0.13561434 78
-0.87216312 1.2708228 0.02631823 77
-0.85159189 1.2635784 0.077875905 65
-0.89891475 1.2802434 0.13439415 38
-0.86475474 1.2737715 0.026213514 88
-0.84986037 1.2684679 0.077875905 31
-0.88210922 1.2799511 0.13299966 37
-0.8535803 1.2753201 0.026038991 99
-0.86502451 1.2794402 0.078817949 23
-0.87469667 1.2829223 0.13247673 31
-0.85556608 1.2815843 0.0261088 93
-0.85573035 1.281644 0.078399263 68
-0.88225871 1.2912996 0.13334829 18
-0.85001832 1.2851064 0.026038991 100
-0.84456378 1.2830995 0.077875905 100
-0.87669057 1.29492 0.13299966 13
-0.84464413 1.2881094 0.025969181 100
-0.84107274 1.2867826 0.077771232 100
-0.88810819 1.3042562 0.13421984 1
-0.8390829 1.2915686 0.025899371 100
-0.84113008 1.2923373 0.077875905 48
-0.87131268 1.3036702 0.13282534 1
-0.82603616 1.2921575 0.025689943 96
-0.84676772 1.3000244 0.07829459 53
-0.84522492 1.299439 0.1305593 7
-0.83354074 1.3005375 0.025864467 74
-0.84304422 1.3041817 0.078189917 57
-0.86569196 1.3128663 0.13265105 33
-0.82795113 1.3039187 0.025794657 74
-0.82813472 1.3039899 0.077457212 72
-0.85635716 1.3149253 0.13195379 86
-0.83352739 1.3116415 0.025934275 83
-0.82440251 1.308069 0.077352546 63
-0.85630172 1.3205574 0.1321281 100
-0.81489247 1.3098481 0.025620133 96
-0.82623047 1.3143325 0.077561885 80
-0.82472771 1.3137381 0.12933913 97
-0.80928594 1.3131253 0.025550323 100
-0.82988602 1.3213563 0.077875905 95
-0.83577245 1.3237083 0.1305593 100
-0.8074773 1.3176298 0.025550323 100
-0.81878895 1.3221931 0.077352546 97
-0.83577639 1.3290461 0.13073361 100
-0.80926114 1.3238741 0.025620133 100
-0.81315392 1.3254604 0.0771432 97
-0.83935171 1.3361355 0.13125655 100
-0.81220335 1.325073 0.18061037 22
-0.81452018 1.332136 0.025759751 100
-0.805471 1.328408 0.07682918 100
-0.81506139 1.3323591 0.12916481 100
-0.79537839 1.3242502 0.17866045 17
-0.80147201 1.3322868 0.025550323 100
-0.80166954 1.3323689 0.076724514 100
-0.80389243 1.3332938 0.12829325 100
-0.80259949 1.3327558 0.17987914 17
-0.79232353 1.333434 0.025410704 100
-0.80910414 1.3404776 0.077247873 99
-0.80211622 1.3375444 0.12829325 100
-0.78435141 1.3300877 0.1776855 28
-0.79034859 1.3381162 0.025410704 99
-0.78871554 1.337424 0.076201156 87
-0.80196124 1.3430383 0.12846756 100
-0.7622835 1.3262205 0.17500438 16
-0.81041819 1.3522329 0.025829561 63
-0.78672677 1.3420935 0.076201156 40
-0.80544776 1.3501058 0.1289905 56
-0.76398391 1.33236 0.17549185 11
-0.81939131 1.3617375 0.026038991 71
-0.80672246 1.356263 0.077457212 65
-0.82719082 1.3651078 0.13125655 31
-0.79299098 1.3503294 0.17963541 5
-0.80071884 1.3595531 0.025724847 100
-0.80456465 1.3612318 0.077457212 100
-0.80674011 1.3621812 0.12951343 97
-0.79449362 1.3568361 0.18012288 22
-0.78767318 1.3594265 0.025515418 100
-0.81163102 1.3699832 0.077980578 100
-0.82107383 1.3741441 0.13108224 100
-0.78335422 1.3575234 0.17890419 33
-0.79302007 1.3671086 0.025655037 100
-0.80233389 1.3712497 0.077561885 100
-0.80996007 1.3746402 0.13021068 100
-0.77414304 1.3587159 0.17792924 39
-0.80369836 1.3775244 0.025899371 100
-0.8020491 1.3767842 0.077666558 100
-0.81874758 1.3842783 0.13125655 100
-0.75396925 1.3552065 0.17549185 20
-0.7962113 1.3795357 0.025794657 100
-0.80548781 1.3837359 0.077980578 100
-0.8058129 1.383883 0.13021068 100
-0.76287168 1.3644402 0.17695428 18
-0.79225665 1.3834 0.025759751 100
-0.81242007 1.3926144 0.078503937 100
-0.80003756 1.3869557 0.12986206 100
-0.77342719 1.374795 0.17866045 14
-0.79192322 1.3889191 0.025794657 100
-0.81386572 1.3990393 0.078713275 100
-0.80511266 1.3950024 0.1305593 100
-0.771308 1.379411 0.17866045 12
-0.78975457 1.3935995 0.025794657 100
-0.80622953 1.4012678 0.078399263 100
-0.81014794 1.4030917 0.13125655 100
-0.75837451 1.3789934 0.17719802 11
-0.79661947 1.402523 0.025969181 100
-0.79859442 1.4034507 0.078085244 100
-0.81514317 1.4112239 0.13195379 100
-0.77420837 1.3919964 0.17963541 10
-0.7998243 1.4097893 0.026073895 100
-0.80720371 1.4132869 0.078713275 100
-0.805695 1.4125719 0.13125655 100
-0.75767869 1.3898131 0.1776855 3
-0.78664726 1.4095538 0.025864467 100
-0.8030352 1.417395 0.07860861 100
-0.80153352 1.4166765 0.13108224 100
-0.78260583 1.4133463 0.025829561 100
-0.80796164 1.4255874 0.079027295 100
-0.80465072 1.4239888 0.13160518 100
-0.7948485 1.4247646 0.0261088 100
-0.79859728 1.4265897 0.07860861 100
-0.80963999 1.4319661 0.13230242 100
-0.79625994 1.4309833 0.02617861 100
-0.79282683 1.4292977 0.078399263 100
-0.81101424 1.4382274 0.13265105 100
-0.80111212 1.4392289 0.02631823 100
-0.79051727 1.4339812 0.078399263 100
-0.80867344 1.4429741 0.13265105 100
-0.79172951 1.4401317 0.02617861 100
-0.80081564 1.4446697 0.079131968 100
-0.79217476 1.440354 0.13125655 100
-0.7891466 1.4452785 0.02617861 100
-0.8089152 1.4552472 0.07976 100
-0.80382293 1.4526793 0.13265105 100
-0.79403001 1.4533408 0.02631823 100
-0.79595321 1.4543185 0.079131968 100
-0.81575984 1.4643888 0.13404553 100
-0.79863328 1.4619136 0.026457848 100
-0.789882 1.4574237 0.078922622 100
-0.81320566 1.4693899 0.13404553 100
-0.79988366 1.4682194 0.026527658 100
-0.79469103 1.4655335 0.079341307 100
-0.8020305 1.4693298 0.13317397 100
-0.78680056 1.4673777 0.02631823 100
-0.79933816 1.4739182 0.07976 100
-0.80311412 1.475888 0.1335226 100
-0.78094083 1.4699452 0.02624842 99
-0.79876417 1.4793186 0.079864666 100
-0.79900247 1.4794439 0.13334829 100
-0.78543228 1.4785678 0.026388038 50
-0.78380519 1.4777045 0.079131968 48
-0.80343312 1.4881189 0.13404553 84
0.13543156 1.2859879 0.011553493 11
0.075891197 1.3600941 0.039670654 20
0.098261416 1.3322513 0.063100755 19
0.13068986 1.2918895 0.13013174 11
0.18017101 1.2303034 0.13632034 7
0.12287706 1.3016137 0.18272625 6
0.15219951 1.2686729 0.011134636 25
0.15268415 1.2680655 0.033390339 28
0.16110769 1.2575059 0.054559495 50
0.14643908 1.2758942 0.07945881 14
0.15580538 1.2641528 0.10011806 12
0.14475715 1.2780025 0.12631555 52
0.14882967 1.2728972 0.17237349 14
0.16139197 1.260653 0.010925206 100
0.16806567 1.2522268 0.032238949 90
0.15786368 1.2651079 0.055256739 99
0.16546234 1.2555139 0.076046467 14
0.16489145 1.2562346 0.098240845 24
0.16481689 1.2563288 0.12059128 100
0.1882332 1.2267635 0.13452072 31
0.14698926 1.2788378 0.1739264 28
0.16063488 1.2651503 0.010995016 100
0.17098585 1.2519872 0.032134276 100
0.15343651 1.2743044 0.056128297 100
0.17206764 1.2506114 0.075071514 30
0.16903317 1.2544703 0.097615108 24
0.17137104 1.2514973 0.11906482 100
0.19103441 1.2264917 0.13407083 46
0.15235031 1.2756858 0.17237349 42
0.16482681 1.2633541 0.010925206 100
0.18127421 1.2422872 0.031401575 93
0.15274709 1.2788265 0.056476921 100
0.17863399 1.2456689 0.07409656 30
0.17802033 1.246455 0.095737889 25
0.16942963 1.2574584 0.12020966 100
0.19382927 1.2262059 0.13362093 38
0.14698488 1.2862072 0.17547931 42
0.1652396 1.2662089 0.010960111 90
0.18529013 1.2403506 0.03119223 63
0.16298273 1.2691195 0.055256739 99
0.16196737 1.2704289 0.077752642 28
0.18202326 1.2445638 0.095112152 25
0.18307841 1.2432029 0.11639348 59
0.19176167 1.2320045 0.13497064 30
0.15225023 1.2829607 0.1739264 35
0.17551285 1.2564571 0.010715778 66
0.1735324 1.2590296 0.032343622 60
0.16351196 1.2720462 0.055431053 49
0.17703667 1.2544776 0.075071514 60
0.18127206 1.2489759 0.095737889 38
0.17634922 1.2553706 0.11906482 13
0.18148911 1.2486939 0.13946965 14
0.1505079 1.2889384 0.17547931 56
0.17721316 1.2577614 0.010715778 39
0.16796488 1.2698619 0.032971654 29
0.16526678 1.2733922 0.055431053 49
0.18596262 1.2463133 0.073609084 62
0.19734049 1.2314264 0.091983467 40
0.20069683 1.2270348 0.11181407 21
0.19499576 1.2344942 0.13497064 30
0.16874507 1.2688411 0.16823238 60
0.17650059 1.2622457 0.010785587 39
0.17212656 1.2680104 0.032762308 29
0.16823062 1.273145 0.055256739 49
0.1924271 1.2412556 0.072634131 63
0.18462488 1.2515384 0.095737889 51
0.19161391 1.2423273 0.11524864 13
0.20486486 1.2248635 0.13182132 47
0.1716564 1.26863 0.16771474 67
0.17581478 1.2667409 0.010855397 39
0.16906044 1.2757075 0.033180997 28
0.16399539 1.2824315 0.056128297 48
0.18810236 1.2504288 0.073852822 62
0.19343922 1.2433441 0.093860678 52
0.19917104 1.2357348 0.11334054 13
0.2134898 1.2167263 0.1291219 32
0.17339924 1.2699476 0.16771474 67
0.17515582 1.2712469 0.010925206 52
0.17561251 1.2706362 0.032762308 29
0.1812982 1.2630333 0.053862248 51
0.19572577 1.2437404 0.072634131 63
0.19982573 1.2382579 0.092609204 53
0.19727162 1.2416734 0.1144854 13
0.21038294 1.2241406 0.13092151 40
0.17746058 1.268165 0.16667947 67
0.18278143 1.2644602 0.010750682 79
0.18918291 1.2558407 0.031715591 30
0.18531099 1.2610542 0.053513627 52
0.19729871 1.2449126 0.072634131 78
0.19784716 1.2441742 0.093547814 65
0.21288419 1.2239268 0.10990598 14
0.21421456 1.2221354 0.13002171 32
0.18372187 1.2631938 0.16460891 69
0.1940029 1.2528627 0.010471444 82
0.19206622 1.2554896 0.031610917 61
0.18229803 1.2687389 0.054210871 76
0.19778061 1.2477387 0.072877869 94
0.20419338 1.2390406 0.092296332 80
0.20282042 1.2409029 0.11372216 13
0.21001276 1.2311475 0.13227122 31
0.19003126 1.2582498 0.16253836 70
0.18624234 1.2670119 0.010750682 79
0.20202023 1.2454541 0.030878214 63
0.18521792 1.2684115 0.054036561 100
0.20414001 1.2425578 0.071902916 48
0.19766608 1.2514032 0.094486415 91
0.21722087 1.224685 0.10952436 14
0.23464328 1.2008803 0.12327318 17
0.18831488 1.2641801 0.16409127 69
0.19033024 1.265043 0.010680873 80
0.21072572 1.2369709 0.030250182 65
0.17876223 1.280965 0.055256739 99
0.20229122 1.2485801 0.072634131 78
0.21328181 1.2334528 0.090731993 95
0.20611638 1.2433152 0.11372216 13
0.24416733 1.1909425 0.12012386 8
0.18322903 1.274817 0.16719711 67
0.19673938 1.2598079 0.010541254 81
0.21469447 1.2349126 0.03004084 66
0.19103727 1.2677141 0.053687938 100
0.19815794 1.2578411 0.073852822 93
0.20912406 1.2426362 0.092296332 100
0.21121591 1.2397357 0.1125773 13
0.1940338 1.2635593 0.163056 70
0.19379503 1.2675419 0.010680873 93
0.2151567 1.2377042 0.030145511 98
0.20553476 1.2511439 0.051770512 100
0.20795193 1.2477677 0.072146654 63
0.21537557 1.2373984 0.091044858 100
0.21400049 1.2393191 0.11219569 14
0.24938232 1.1898984 0.11922406 17
0.20025712 1.2585157 0.16098544 72
0.21398559 1.2426435 0.010122396 99
0.21323773 1.2436955 0.030459527 97
0.20020556 1.2620267 0.05281638 100
0.20723772 1.2521352 0.072634131 78
0.21234906 1.2449455 0.092296332 100
0.20532069 1.2548317 0.11563025 20
0.22480604 1.2274232 0.12957181 16
0.20075965 1.2612473 0.16150309 70
0.20171568 1.2633588 0.010541254 81
0.22287339 1.2333881 0.029726824 100
0.19034865 1.2794607 0.054559495 100
0.21570745 1.2435389 0.071171694 65
0.21392587 1.2460625 0.092296332 100
0.20579809 1.2575759 0.11601187 53
0.23306796 1.2189471 0.12687239 33
0.19570583 1.271872 0.16460891 77
0.20573506 1.2612963 0.010471444 96
0.22563908 1.2328914 0.029622151 100
0.19670263 1.2741863 0.053862248 100
0.21964079 1.2414515 0.070684217 81
0.22239128 1.2375263 0.090419121 100
0.2007423 1.2684213 0.11830158 97
0.23016375 1.2264342 0.128672 56
0.19856846 1.2715236 0.16409127 69
0.20508191 1.265718 0.010541254 95
0.21576864 1.2503591 0.03066887 96
0.19610062 1.278626 0.054210871 100
0.2166709 1.2490623 0.071659178 80
0.22732812 1.2337457 0.089480512 97
0.21585265 1.2502383 0.11372216 100
0.22834009 1.2322912 0.13002171 96
0.20575032 1.2647574 0.16150309 70
0.2206175 1.2472889 0.010122396 85
0.23122856 1.231913 0.029412808 100
0.20484614 1.2701423 0.053165004 100
0.21625781 1.2536062 0.072146654 63
0.22911114 1.2349813 0.089480512 100
0.22438973 1.2418227 0.11143246 91
0.22679693 1.2383347 0.13137141 94
0.21643072 1.2533557 0.15736198 82
0.22220206 1.2483785 0.010122396 99
0.21582767 1.2576811 0.030982886 95
0.20988518 1.2663534 0.05264207 100
0.22796211 1.2399725 0.069953002 66
0.22618848 1.2425609 0.090731993 95
0.22484639 1.2445195 0.11181407 100
0.23055485 1.2361887 0.13047162 80
0.20602354 1.2719889 0.163056 70
0.2172119 1.2594991 0.010331824 84
0.23558396 1.2324755 0.029308135 68
0.20722598 1.2741873 0.053339314 100
0.22745466 1.2444329 0.070440479 49
0.22348022 1.2502789 0.091983467 93
0.22879538 1.2424608 0.11105084 91
0.23117003 1.238968 0.13092151 96
0.2122103 1.266856 0.16098544 72
0.21324298 1.268887 0.010506349 40
0.23823676 1.2318602 0.029203463 34
0.20221159 1.2852294 0.054385185 51
0.22791907 1.2471453 0.070684217 65
0.22728506 1.2480845 0.09135773 100
0.23036388 1.2435234 0.11105084 91
0.24362978 1.2238708 0.12642249 99
0.20953643 1.2743781 0.163056 70
0.2171258 1.2666788 0.010436539 41
0.22642684 1.2528008 0.030459527 32
0.21390507 1.2714844 0.05281638 53
0.22287214 1.2581047 0.072146654 63
0.23876998 1.2343837 0.08854191 84
0.22537786 1.2543659 0.11334054 89
0.23754209 1.2362158 0.12957181 96
0.21981508 1.2626662 0.15891489 73
0.21877468 1.2677799 0.010436539 27
0.21696538 1.270499 0.031506244 31
0.22108856 1.2643025 0.051944822 54
0.22889131 1.2525761 0.071171694 65
0.23484012 1.243636 0.090106249 100
0.23786175 1.239095 0.10952436 92
0.2293739 1.251851 0.13362093 100
0.22680157 1.2557167 0.1563267 90
0.22721136 1.2589774 0.01022711 28
0.20559812 1.2917182 0.032762308 29
0.22180483 1.2671674 0.052119136 54
0.22410047 1.26369 0.072634131 63
0.23875475 1.2414908 0.089480512 97
0.24823591 1.2271283 0.10647142 95
0.2375837 1.2432648 0.13092151 96
0.21794108 1.2730205 0.16150309 70
0.22006562 1.2734251 0.010506349 40
0.21170926 1.2861756 0.032343622 30
0.22563955 1.2649202 0.051770512 54
0.23335624 1.2531459 0.070927955 97
0.23923719 1.2441726 0.089793384 97
0.24006808 1.2429047 0.10990598 85
0.24663219 1.2328889 0.1277722 89
0.22596461 1.2644243 0.15839726 73
0.22409296 1.271278 0.010436539 27
0.23755398 1.2505736 0.03004084 33
0.22528368 1.2694466 0.052119136 54
0.24053934 1.2459818 0.069709264 99
0.2474376 1.2353716 0.087916173 84
0.24073333 1.2456834 0.1102876 85
0.25151744 1.2290964 0.12642249 99
0.22777894 1.2656085 0.15839726 73
0.23660129 1.2555548 0.010087491 43
0.23914933 1.2516071 0.03004084 33
0.22802216 1.2688466 0.051944822 54
0.23888993 1.2520089 0.070440479 49
0.25112498 1.233053 0.087290429 85
0.2412478 1.2483559 0.11066922 85
0.25198472 1.2317209 0.12687239 99
0.22942421 1.2666744 0.15839726 73
0.23846799 1.2567546 0.010087491 57
0.24853742 1.2410216 0.029308135 68
0.23745814 1.2583325 0.05072464 56
0.23646262 1.2598879 0.071415432 48
0.25077546 1.2375247 0.087916173 70
0.25049508 1.2379628 0.10799789 87
0.2506083 1.2377859 0.12822211 97
0.23654065 1.259766 0.15580906 75
0.25080758 1.2409066 0.0097384425 75
0.2447457 1.2504475 0.029831495 66
0.23266849 1.2694561 0.051770512 81
0.24873433 1.2441698 0.068978049 67
0.25444612 1.2351798 0.087290429 85
0.24362588 1.2522101 0.11105084 98
0.25320622 1.2371314 0.1277722 89
0.23091453 1.2722168 0.15943253 73
0.24178842 1.2588638 0.010087491 71
0.25601122 1.2363046 0.028889447 100
0.24078932 1.2604485 0.05072464 84
0.24509788 1.2536147 0.07019674 66
0.24975067 1.2462347 0.089167647 84
0.25368729 1.2399907 0.10799789 79
0.26107442 1.2282736 0.12507279 83
0.22957867 1.2782301 0.16098544 64
0.24659383 1.2547979 0.0099827768 87
0.25544003 1.2406631 0.029098792 100
0.23501852 1.2732935 0.051944822 81
0.24986261 1.2495749 0.069465525 49
0.25761932 1.2371808 0.087290429 57
0.24274912 1.2609411 0.1125773 96
0.26259571 1.2292293 0.12507279 92
0.23741499 1.2694643 0.15787962 73
0.24002281 1.2695526 0.010262015 84
0.25514328 1.2451847 0.029308135 100
0.24010482 1.2694204 0.051421888 82
0.25379956 1.2473502 0.068978049 50
0.25941533 1.2383001 0.087290429 71
0.25498778 1.2454354 0.10876112 79
0.26538861 1.2286736 0.12462288 92
0.24137226 1.2673779 0.15684435 66
0.24902201 1.2586592 0.010017681 72
0.25253099 1.2529621 0.029726824 100
0.24907678 1.2585703 0.050201707 85
0.24393263 1.2669222 0.071659178 80
0.26096988 1.239261 0.087290429 85
0.25244763 1.2530975 0.1102876 85
0.2618013 1.2379112 0.12687239 90
0.24504957 1.2651088 0.15580906 67
0.26003158 1.2442997 0.0097035384 90
0.25413418 1.2539459 0.029726824 100
0.24654162 1.2663651 0.050898954 83
0.25283021 1.2560788 0.069953002 49
0.26046684 1.2435877 0.087916173 56
0.2642917 1.2373314 0.10647142 81
0.26132157 1.2421896 0.1277722 97
0.2456854 1.2677655 0.1563267 66
0.25538167 1.2555159 0.0099129668 87
0.26195738 1.2446796 0.029098792 100
0.25129008 1.2622588 0.05037602 84
0.25856298 1.2502733 0.068978049 50
0.25998938 1.2479227 0.08854191 56
0.25463969 1.2567387 0.11066922 92
0.26996568 1.2314823 0.12462288 92
0.24332896 1.2753782 0.15839726 73
0.2602565 1.2514524 0.0098082526 74
0.26781854 1.2388871 0.028680105 100
0.25104162 1.2667644 0.05072464 84
0.25827807 1.25474 0.069465525 66
0.27498448 1.2269797 0.084474608 59
0.26148728 1.2494073 0.10876112 72
0.27366865 1.2291662 0.12372308 92
0.24617946 1.2748437 0.15787962 65
0.25057495 1.2712951 0.010192205 85
0.26732662 1.2432495 0.028889447 100
0.25677732 1.2609111 0.050027397 85
0.26395887 1.2488878 0.068490572 50
0.2714366 1.2363687 0.086038955 58
0.25603145 1.2621598 0.11143246 91
0.27519283 1.23008 0.12372308 92
0.24983653 1.2725313 0.15684435 66
0.25657731 1.2655582 0.010052586 86
0.2630403 1.254643 0.029517479 100
0.26373997 1.2534614 0.049155839 87
0.26175424 1.2568151 0.069465525 49
0.27322939 1.2374349 0.086038955 72
0.26892626 1.2447023 0.10723466 73
0.27696145 1.2311318 0.12372308 92
0.26161095 1.2570571 0.15166797 69
0.2683534 1.2492881 0.0097035384 90
0.26464903 1.2555919 0.029517479 100
0.25726944 1.2681501 0.05055033 84
0.26135871 1.2611911 0.069953002 49
0.27578175 1.2366469 0.08572609 58
0.26950732 1.2473243 0.10761628 79
0.27849209 1.2320347 0.12372308 83
0.25931269 1.264673 0.15373851 68
0.26801398 1.2537234 0.0097733475 89
0.27036926 1.2496831 0.029098792 100
0.25901008 1.2691689 0.05055033 84
0.27307242 1.245046 0.067515619 51
0.27243811 1.2461342 0.087290429 71
0.26919773 1.2516928 0.10837951 87
0.28305084 1.2279289 0.12237337 76
0.25909534 1.2690226 0.15477379 67
0.27062097 1.2529249 0.0097384425 75
0.27396175 1.2471502 0.028889447 100
0.25468078 1.2804786 0.051596198 82
0.27464926 1.2459618 0.067515619 51
0.27797529 1.2402126 0.086038955 58
0.27079663 1.2526213 0.10837951 79
0.28554672 1.2271248 0.12192347 85
0.26861826 1.2563868 -0.0098082526 88
0.26075175 1.2699845 0.15477379 67
0.26650909 1.2644026 0.0099478718 73
0.27579591 1.2482066 0.028889447 100
0.26457164 1.2677815 0.050201707 100
0.27647886 1.2470155 0.067515619 51
0.28567842 1.2309717 0.084161744 59
0.26874548 1.2605023 0.10990598 78
0.28730389 1.2281369 0.12192347 85
0.2675038 1.2626679 -0.0099129668 87
0.27036136 1.2576844 0.15063268 70
0.27606171 1.2514356 0.0096686333 75
0.27343225 1.2560569 0.029308135 100
0.27016523 1.2617985 0.049504463 86
0.27217185 1.2582719 0.068978049 50
0.28330082 1.2387133 0.085413218 58
0.27717009 1.2494878 0.10723466 81
0.28786081 1.2306993 0.12237337 85
0.27006933 1.2619671 0.15166797 69
0.28069255 1.2471645 0.0095639192 91
0.27316722 1.260498 0.029517479 100
0.27090436 1.2645074 0.049678773 86
0.27485362 1.2575101 0.068734311 84
0.28202581 1.2448022 0.086351827 58
0.27788049 1.252147 0.10761628 87
0.28563926 1.2383999 0.12417299 83
0.27368736 1.2595764 0.15063268 78
0.2744596 1.2620127 0.0098431576 88
0.27869892 1.2544429 0.029098792 100
0.2715722 1.2671685 0.049853086 85
0.28132159 1.2497599 0.067515619 51
0.284567 1.2439648 0.086038955 58
0.28139943 1.2496208 0.10685304 81
0.29005057 1.2341732 0.12282328 85
0.27055123 1.2689917 -0.0099827768 86
0.27153662 1.2672322 0.15270324 68
0.28111824 1.2542779 0.0096686333 90
0.28823239 1.2414647 0.028261416 100
0.27339628 1.2681857 0.049853086 85
0.28115457 1.2542124 0.068003096 51
0.29110038 1.2362993 0.084474608 59
0.28315914 1.250602 0.10685304 81
0.29932123 1.2214928 0.11922406 87
0.27626479 1.2630193 -0.0098431576 87
0.26773438 1.2783833 0.15580906 67
0.27500653 1.2691789 0.0099478718 73
0.28786984 1.2458289 0.02847076 100
0.27793396 1.263865 0.049330149 87
0.27988824 1.2603174 0.068734311 67
0.29264811 1.2371552 0.084474608 59
0.28380704 1.2532039 0.10723466 81
0.28176075 1.2569184 -0.0097035384 89
0.27874333 1.2623957 0.15063268 70
0.2883395 1.2491231 0.0095290141 76
0.2896156 1.2467865 0.02847076 100
0.27592602 1.2718532 0.050027397 85
0.28454155 1.2560775 0.068003096 51
0.29625565 1.234628 0.083848871 59
0.28840283 1.2490072 0.1060898 73
0.29780912 1.2317834 0.12147357 77
0.28240174 1.2599957 0.14959741 70
0.28516659 1.2587792 0.0097035384 90
0.28358629 1.2616957 0.029308135 100
0.27759176 1.2727594 0.050027397 85
0.28804627 1.2534645 0.067515619 51
0.29685676 1.2372037 0.084161744 59
0.28999272 1.249872 0.1060898 81
0.29470003 1.2411841 0.12372308 83
0.27945074 1.2693284 -0.0099129668 87
0.27758586 1.2727702 0.15322088 76
0.28695983 1.2597466 0.0097035384 90
0.29673067 1.2415545 0.028052073 100
0.27755082 1.2772648 0.05037602 84
0.29545566 1.2439284 0.066053182 52
0.29763615 1.2398686 0.084474608 59
0.28989539 1.2542809 0.10685304 88
0.28582907 1.2618519 0.14959741 78
0.28670466 1.2641457 0.0097733475 89
0.28110829 1.2746489 0.050027397 85
0.28769395 1.262289 0.068490572 50
0.29242596 1.2534082 0.10647142 81
0.28952569 1.2588513 -0.0096686333 89
0.28019404 1.2763647 0.15373851 76
0.29038528 1.2615709 0.0097035384 90
0.29226425 1.2580132 0.048284281 88
0.29135412 1.2597365 0.068003096 51
0.29419947 1.254349 0.10647142 73
0.28851756 1.2651074 -0.0097733475 88
0.28836706 1.2653924 0.15011504 78
0.2957288 1.2553439 0.0095639192 91
0.2960386 1.2547525 0.028680105 100
0.29758242 1.2518058 0.047587037 90
0.29113713 1.2641083 0.068490572 50
0.28552085 1.2748284 -0.0099478718 96
0.29359734 1.2594124 0.1480445 79
0.29843089 1.2544979 0.0095290141 76
0.29965776 1.252135 0.02847076 100
0.29475936 1.2615689 0.048458595 88
0.29660895 1.2580068 0.067515619 51
0.29450259 1.2620634 0.14856213 71
0.29821539 1.25887 0.048109971 59
0.29436666 1.2663429 0.14959741 70
0.2971876 1.2651037 0.0097035384 100
0.29539302 1.2686181 0.048981529 58
0.29434368 1.2706732 0.15063268 78
0.29702383 1.2695073 0.0097733475 100
0.29521686 1.2730751 -0.0098431576 100
0.29949671 1.2646245 0.14856213 79
0.29871175 1.2707192 0.15011504 78
0.29965317 1.2729971 0.049155839 58
0.2970494 1.282933 -0.0099827768 100
0.29816344 1.2900221 0.05055033 28
