# .PCD v0.7 - Point Cloud Data file format
VERSION 0.7
FIELDS x y z intensity
SIZE 4 4 4 4
TYPE F F F F
COUNT 1 1 1 1
WIDTH 715
HEIGHT 1
VIEWPOINT 0 0 0 1 0 0 0
POINTS 715
DATA ascii
0.057958901 0.0094202161 0.015811881 122
0.054818988 0.010393858 0.047521047 38
0.049977422 0.0087882876 0.047730394 25
0.042913854 0.0038763881 0.048149079 100
0.039397955 0.015843928 0.047730394 28
0.032266557 0.011031091 0.048149079 17
0.028489172 0.011196971 0.048253752 8
0.025426149 0.023052812 0.047835063 9
0.0088458061 0.0054175854 0.049091127 7
-1.0179632 1.125657 0.084260888 3
-1.0510576 1.1331637 0.14363267 4
-1.0323269 1.1344364 0.028342709 7
-0.99925834 1.1268201 0.083318844 7
-1.0207212 1.1317635 0.14101799 11
-1.0134575 1.1361299 0.028028565 11
-1.0115526 1.1356838 0.084051549 54
-1.0213246 1.1379722 0.1411923 50
-0.9908343 1.1362261 0.027644612 35
-1.0006158 1.1385509 0.083528183 100
-1.0181575 1.1427202 0.14101799 95
-0.97976273 1.1395233 0.027470088 38
-1.0089617 1.1465765 0.084051549 100
-1.0070972 1.1461262 0.14014643 86
-0.9824788 1.1452787 0.027539898 35
-0.97673184 1.1438713 0.082376793 100
-1.005908 1.1510161 0.14014643 86
-0.97721201 1.1499275 0.027470088 22
-0.97341317 1.1489824 0.08227212 80
-1.0006342 1.1557542 0.13979781 86
-0.97982162 1.1559682 0.027539898 25
-0.98183089 1.1564751 0.082795486 39
-0.99355084 1.1594319 0.13927488 77
-0.96871096 1.1590912 0.027365373 48
-0.98620838 1.163574 0.083109498 35
-0.97667271 1.1611309 0.13788038 82
-0.95967048 1.1621144 0.027225753 61
-0.9771623 1.1666577 0.082690813 73
-0.9772957 1.1666923 0.1380547 92
-0.95822316 1.167645 0.027225753 71
-0.96217948 1.1686881 0.081958108 98
-0.97968453 1.1733034 0.13840333 92
-0.95296234 1.1718742 0.027155945 81
-0.95499009 1.1724164 0.081644088 90
-0.98019224 1.1791551 0.13857763 100
-0.96691865 1.1815691 0.027435184 83
-0.94964999 1.1768838 0.081434749 100
-0.96329933 1.1805872 0.13718314 100
-0.94633549 1.1810358 0.027086135 93
-0.94643837 1.181064 0.081330076 100
-0.96200198 1.1853392 0.13718314 98
-0.94096631 1.1854439 0.027016325 93
-0.95069355 1.1881542 0.081644088 90
-0.96238881 1.191413 0.13735744 91
-0.93573135 1.1892996 0.026946515 92
-0.93776566 1.1898736 0.081016064 82
-0.95331305 1.1942613 0.1366602 100
-0.9649449 1.2035451 0.027504992 56
-0.92661577 1.1925762 0.080492698 70
-0.95557898 1.2008648 0.13700883 100
-0.97118157 1.2107928 0.027644612 37
-0.92328805 1.1969146 0.080388032 26
-0.95031458 1.204746 0.1366602 92
-0.93133503 1.2045763 0.026946515 53
-0.92186421 1.2017978 0.080388032 24
-0.94695288 1.2091581 0.13648589 85
-0.91639107 1.2057571 0.026702182 72
-0.92992061 1.2097776 0.08091139 26
-0.94159108 1.2132456 0.13613728 89
-0.91685289 1.2111934 0.026737086 78
-0.91315311 1.2100806 0.080074012 40
-0.93629712 1.2170417 0.13578865 98
-0.91905171 1.2177327 0.026806897 81
-0.9038884 1.2131113 0.079655327 100
-0.93274277 1.2219055 0.13561434 99
-0.92520243 1.2249591 0.026946515 85
-0.90431947 1.2185187 0.07976 95
-0.91600484 1.2221226 0.13421984 91
-0.90825528 1.2255924 0.026667276 85
-0.90838498 1.2256329 0.080074012 78
-0.91053444 1.2263044 0.13387123 64
-0.89910954 1.2280149 0.026527658 81
-0.91638809 1.2334762 0.080597371 66
-0.91281277 1.2323461 0.13421984 45
-0.8935315 1.2323558 0.026457848 79
-0.89938098 1.2342294 0.07976 85
-0.91102666 1.2379594 0.13421984 43
-0.89959973 1.2396053 0.026597468 89
-0.89023346 1.2365711 0.079341307 100
-0.91515309 1.2446439 0.13474278 49
-0.89795166 1.2446625 0.026597468 96
-0.8961876 1.2440842 0.07976 100
-0.90591425 1.2472727 0.13404553 71
-0.88118464 1.2444278 0.02631823 100
-0.89460748 1.2488773 0.07976 100
-0.90243238 1.2514713 0.13387123 85
-0.87564462 1.2483978 0.02624842 96
-0.89473611 1.2548043 0.079864666 100
-0.90065795 1.2567915 0.13387123 82
-0.87405032 1.2531228 0.02624842 93
-0.88555497 1.2570258 0.07944598 100
-0.90658277 1.2641597 0.13456847 80
-0.87983531 1.2609365 0.026388038 92
-0.87620431 1.2596898 0.079027295 100
-0.89345545 1.265613 0.1335226 100
-0.87442118 1.264364 0.02631823 89
-0.87079889 1.2631068 0.078817949 100
-0.89368623 1.2710502 0.13369691 85
-0.86882621 1.2682563 0.02624842 81
-0.86709756 1.2676492 0.078713275 76
-0.89371985 1.2769983 0.13387123 47
-0.8671661 1.2729585 0.02624842 81
-0.86543947 1.2723458 0.078713275 40
-0.88827544 1.2804503 0.1335226 37
-0.85796124 1.274955 0.0261088 93
-0.85436577 1.2736654 0.078189917 17
-0.88845021 1.2858896 0.13369691 33
-0.85251886 1.2782586 0.026038991 96
-0.85644335 1.2796807 0.078399263 57
-0.87923878 1.2879416 0.13299966 20
-0.85815674 1.2861483 0.02617861 99
-0.84894007 1.2827702 0.078085244 100
-0.86049467 1.2870054 0.13143086 15
-0.84518594 1.2866486 0.025969181 100
-0.85097796 1.2887936 0.07829459 100
-0.87745649 1.2985988 0.13317397 3
-0.83204681 1.287551 0.025759751 100
-0.83597416 1.2890217 0.077561885 59
-0.87177783 1.3024297 0.13282534 1
-0.83406359 1.2935462 0.025829561 99
-0.83050925 1.2922018 0.077352546 51
-0.85882324 1.302912 0.13177948 3
-0.83773869 1.3007586 0.025934275 74
-0.83045155 1.2979715 0.077457212 55
-0.85313874 1.3066485 0.13143086 22
-0.83960801 1.3070412 0.026004085 72
-0.83418912 1.3049469 0.077771232 68
-0.84010631 1.3072338 0.130385 58
-0.8284114 1.3082517 0.025829561 81
-0.82487148 1.3068695 0.077352546 65
-0.84935802 1.316431 0.13143086 100
-0.81908339 1.3101245 0.025689943 99
-0.82484704 1.3123984 0.077457212 68
-0.83632189 1.3169253 0.130385 99
-0.81356937 1.3131816 0.025620133 100
-0.81932992 1.3154763 0.077247873 95
-0.83079869 1.320045 0.13003637 99
-0.82279581 1.322417 0.025829561 100
-0.81741744 1.3202529 0.077247873 95
-0.8399604 1.3293241 0.13108224 100
-0.82085913 1.3272057 0.025829561 100
-0.81733865 1.3257747 0.077352546 97
-0.8269251 1.3296713 0.13003637 100
-0.77958542 1.3104293 0.17622307 16
-0.81150621 1.3289497 0.025689943 100
-0.81169504 1.3290272 0.0771432 100
-0.81759053 1.3314476 0.12933913 100
-0.7887091 1.3195906 0.1776855 13
-0.79476911 1.3275716 0.025410704 100
-0.81527025 1.3360718 0.077457212 99
-0.80826062 1.3331654 0.12864187 100
-0.77027899 1.3174175 0.17549185 18
-0.80019277 1.3353517 0.025550323 100
-0.7985478 1.3346629 0.076619841 100
-0.81363767 1.3409814 0.12933913 100
-0.76836008 1.3220228 0.17549185 16
-0.79821116 1.3400613 0.025550323 100
-0.78185195 1.3331442 0.075782463 94
-0.81897658 1.3488415 0.13003637 100
-0.77922374 1.3320329 0.17719802 24
-0.80540842 1.34869 0.025724847 74
-0.79640967 1.3448479 0.076724514 47
-0.80045635 1.3465757 0.12846756 82
-0.76995116 1.3335515 0.17622307 15
-0.81072551 1.3565841 0.025864467 64
-0.81640416 1.3590322 0.077980578 59
-0.81673187 1.3591733 0.13021068 18
-0.80261153 1.3530864 0.18085411 5
-0.79583472 1.3557444 0.025620133 100
-0.8088457 1.361407 0.077666558 100
-0.8073594 1.3607602 0.12951343 61
-0.7623443 1.3411684 0.17573559 13
-0.7973401 1.3622825 0.025689943 100
-0.80484051 1.3655796 0.077561885 100
-0.81612867 1.3705418 0.1305593 100
-0.78386647 1.3563596 0.17890419 35
-0.79343659 1.3661709 0.025655037 100
-0.79910213 1.368685 0.077352546 100
-0.82312971 1.3793477 0.13143086 100
-0.78906935 1.3642328 0.17987914 42
-0.80240291 1.3755257 0.025864467 100
-0.80804676 1.3780527 0.077980578 100
-0.80109876 1.3749417 0.12951343 100
-0.77622074 1.3638029 0.17841671 21
-0.79481429 1.3777721 0.025759751 100
-0.80955607 1.3844345 0.078189917 100
-0.79897887 1.3796542 0.12951343 100
-0.79222924 1.3766038 0.18085411 19
-0.78733295 1.3797396 0.025655037 100
-0.80932826 1.3897681 0.07829459 100
-0.80057544 1.3857774 0.12986206 100
-0.77395445 1.3736398 0.17866045 15
-0.7942794 1.3885837 0.025829561 100
-0.80352789 1.3928394 0.078085244 100
-0.80927747 1.3954852 0.13090792 100
-0.74298602 1.3649805 0.17476064 13
-0.79573923 1.3949568 0.025899371 100
-0.80134553 1.3975604 0.078085244 100
-0.81069988 1.4019046 0.13125655 100
-0.76430672 1.3803596 0.17792924 11
-0.80441386 1.404742 0.0261088 100
-0.80818921 1.4065113 0.07860861 100
-0.8048777 1.4049594 0.13090792 100
-0.77834553 1.3925252 0.18012288 7
-0.79134351 1.4043366 0.025899371 100
-0.81498677 1.4155178 0.079131968 100
-0.80445415 1.4105368 0.13108224 100
-0.78334266 1.4005529 0.18109785 3
-0.79453522 1.4115984 0.026004085 100
-0.80912012 1.4185582 0.078922622 100
-0.80041188 1.4144027 0.13090792 100
-0.79408926 1.4171554 0.026038991 100
-0.80324882 1.4215655 0.078713275 100
-0.80892509 1.4242985 0.13195379 100
-0.79901677 1.4253383 0.02617861 100
-0.79737324 1.4245399 0.078503937 100
-0.82455403 1.4377441 0.13369691 100
-0.80390352 1.4335635 0.02631823 100
-0.79866713 1.4309971 0.078713275 100
-0.80074602 1.432016 0.13160518 100
-0.79082376 1.4329675 0.0261088 100
-0.80530339 1.440127 0.079236634 100
-0.80199891 1.4384931 0.13195379 100
-0.78145951 1.4338412 0.025969181 100
-0.80843598 1.4472911 0.079550654 100
-0.80690688 1.4465289 0.13265105 100
-0.78985292 1.4438758 0.02617861 100
-0.79892629 1.4484392 0.079131968 100
-0.80453712 1.4512612 0.13265105 100
-0.80175918 1.4557865 0.026457848 100
-0.79476875 1.4522401 0.079027295 100
-0.81814212 1.4640981 0.13421984 100
-0.799357 1.460501 0.026457848 100
-0.79593509 1.4587498 0.079236634 100
-0.80152172 1.4616086 0.13282534 100
-0.78983063 1.4615382 0.02631823 100
-0.8041715 1.46894 0.079864666 100
-0.80264026 1.4681497 0.13317397 100
-0.7838611 1.4643641 0.02624842 100
-0.80349511 1.4745849 0.079969339 100
-0.81256586 1.4793069 0.13439415 100
-0.78851122 1.4727341 0.026388038 96
-0.79749066 1.4774485 0.07976 100
-0.81008166 1.4840589 0.13439415 100
-0.78074831 1.474595 0.026283324 70
-0.77736193 1.4728019 0.078713275 82
-0.81462413 1.4925313 0.13509139 98
0.13278705 1.2885375 0.1293685 11
0.19939563 1.2057524 0.1291219 8
0.16058826 1.2574586 0.010890301 26
0.15482971 1.264667 0.033180997 28
0.15703678 1.2619042 0.055082429 25
0.14608601 1.2756122 0.07945881 14
0.14066526 1.2823979 0.10387249 11
0.15052944 1.27005 0.12440746 48
0.19362095 1.2161088 0.13182132 15
0.15330175 1.2665796 0.17030293 14
0.16212156 1.2586795 0.010890301 100
0.17252764 1.2455692 0.03182026 91
0.15610677 1.2662575 0.055431053 74
0.15754938 1.2644399 0.077508904 29
0.16683865 1.2527366 0.097615108 24
0.16674891 1.2528497 0.11982805 100
0.19260117 1.220279 0.13272113 23
0.1464566 1.2784154 0.1739264 28
0.16011658 1.2647424 0.010995016 100
0.17048132 1.25159 0.032134276 100
0.1479758 1.2801484 0.056825545 100
0.15067688 1.2767208 0.079215072 28
0.16852605 1.2540711 0.097615108 24
0.15750018 1.2680625 0.12326261 100
0.19055656 1.2261156 0.13407083 46
0.14823377 1.279821 0.1739264 42
0.1619325 1.266168 0.010995016 100
0.17717081 1.2466849 0.031715591 100
0.15966797 1.2690634 0.055431053 100
0.16354346 1.2641083 0.077021427 29
0.18977445 1.2305703 0.092609204 26
0.16900438 1.2571262 0.12020966 100
0.19343129 1.2258949 0.13362093 46
0.15367556 1.2767251 0.17237349 42
0.16734618 1.2627814 0.010890301 100
0.16658744 1.2637584 0.032762308 58
0.16019043 1.2719965 0.055605363 98
0.1677056 1.2623185 0.076533951 29
0.17684588 1.2505476 0.096363634 37
0.18154404 1.2444973 0.1167751 86
0.18307281 1.2425287 0.13811995 30
0.14359832 1.2933638 0.17754987 40
0.16654 1.2672145 0.010960111 77
0.18408328 1.2444669 0.031401575 62
0.1655075 1.2685533 0.055082429 50
0.17782632 1.25258 0.074827775 45
0.16879061 1.2642963 0.098866582 24
0.17869133 1.2514584 0.14036946 14
0.1500552 1.2885895 0.17547931 49
0.17678767 1.2574358 0.010715778 66
0.16752881 1.2695284 0.032971654 29
0.15877146 1.280966 0.056302611 48
0.19399467 1.2349625 0.071902916 48
0.19333529 1.2358238 0.092922069 53
0.19194347 1.2376416 0.1144854 20
0.20406815 1.221806 0.13137141 31
0.16126329 1.2777115 0.1713382 58
0.16889793 1.2715379 0.010995016 51
0.18144599 1.2550244 0.031924933 30
0.16908488 1.271292 0.055082429 50
0.18369111 1.2520698 0.074340299 46
0.18906933 1.244992 0.094486415 52
0.19365987 1.2389507 0.1144854 13
0.20926347 1.218416 0.13002171 40
0.17364597 1.2652894 0.16667947 67
0.17305949 1.2696724 0.010925206 39
0.16870749 1.2754414 0.033180997 28
0.17443669 1.2678468 0.054559495 50
0.18537608 1.2533455 0.074340299 46
0.20143631 1.2320561 0.091670595 54
0.18584028 1.2527301 0.11753834 13
0.20965722 1.2211584 0.13047162 48
0.17770401 1.2635156 0.16564418 68
0.17711651 1.2677188 0.010855397 39
0.17996585 1.2639155 0.032343622 30
0.17728427 1.2674949 0.054385185 51
0.18460047 1.2577294 0.074827775 45
0.20415485 1.2316285 0.09135773 54
0.2027458 1.2335093 0.1125773 13
0.20531303 1.2300825 0.13272113 39
0.18165922 1.2616553 0.16460891 69
0.18720987 1.2577856 0.010611063 81
0.17215672 1.278025 0.033180997 28
0.18496826 1.2607994 0.053513627 52
0.18985921 1.2542233 0.07409656 61
0.19515845 1.2470983 0.094173551 65
0.21022409 1.226842 0.11066922 14
0.20692113 1.2312829 0.13272113 31
0.17991894 1.2675884 0.16616182 68
0.18407717 1.26542 0.010750682 79
0.20588204 1.2358985 0.030354854 65
0.18186292 1.2684177 0.054210871 76
0.19854325 1.2458345 0.072634131 78
0.19204807 1.2546282 0.095425025 76
0.20940807 1.2311246 0.11143246 14
0.22118834 1.2151754 0.1277722 32
0.18616208 1.2625972 0.16409127 69
0.19526827 1.253793 0.010471444 82
0.20042443 1.2467608 0.030982886 63
0.18007061 1.2745199 0.054733805 75
0.20255396 1.2438567 0.072146654 63
0.21126282 1.2319793 0.090731993 95
0.19941086 1.2481432 0.11524864 13
0.22735354 1.2100343 0.12597258 16
0.18331447 1.2700959 0.16616182 68
0.18292558 1.2744936 0.010890301 91
0.20099911 1.2496539 0.031087559 63
0.18426672 1.2726504 0.054385185 76
0.20429307 1.2451268 0.072146654 79
0.2106339 1.2364123 0.09135773 94
0.21040633 1.2367251 0.11219569 14
0.2369943 1.2001835 0.12282328 17
0.19424272 1.2589397 0.16202073 70
0.1940558 1.2628033 0.010611063 81
0.21670887 1.2314402 0.029831495 66
0.19418967 1.2626179 0.053165004 100
0.20130441 1.2527676 0.073121607 78
0.2099508 1.2407967 0.091983467 93
0.21778524 1.22995 0.1102876 14
0.23393369 1.2075925 0.12462288 8
0.19255817 1.2648767 0.16357364 69
0.20501584 1.2509815 0.010331824 98
0.20892835 1.2455266 0.03066887 64
0.19118029 1.2702712 0.053862248 100
0.20522118 1.2506951 0.072634131 78
0.21151388 1.2419218 0.091983467 93
0.21816808 1.2326444 0.11066922 14
0.2297076 1.2165558 0.12687239 16
0.19307527 1.2676291 0.16409127 69
0.20669687 1.2521827 0.010331824 98
0.22101587 1.2320712 0.029726824 100
0.19061759 1.2747667 0.054210871 100
0.20344719 1.256747 0.073365346 46
0.20858043 1.2495372 0.093234941 100
0.20725963 1.2513924 0.11486702 20
0.23126832 1.2176712 0.12687239 16
0.1948145 1.268872 0.16409127 69
0.19684094 1.2697085 0.010680873 93
0.21686727 1.2413719 0.030250182 65
0.19238174 1.2760181 0.054210871 100
0.21316817 1.246606 0.071659178 64
0.21937707 1.2378206 0.090731993 100
0.19874433 1.2670152 0.11830158 45
0.23170823 1.2203724 0.1273223 24
0.19321316 1.2748417 0.16564418 68
0.20088422 1.2676641 0.010611063 94
0.22195572 1.2376268 0.029936166 99
0.20330396 1.2642148 0.05281638 100
0.21141383 1.2526541 0.072390392 47
0.22328097 1.2357376 0.090106249 100
0.1937165 1.2778816 0.12059128 89
0.2344014 1.2198853 0.12687239 49
0.20718145 1.2586874 0.15995017 72
0.20930895 1.2589145 0.010401634 97
0.21429148 1.2517642 0.030773543 96
0.21397093 1.2522242 0.051421888 100
0.21860635 1.2455721 0.071171694 81
0.22474572 1.2367617 0.090106249 96
0.2211296 1.2419511 0.11181407 91
0.22467503 1.2368631 0.13137141 78
0.20871842 1.259762 0.15995017 72
0.21329272 1.2568115 0.010331824 98
0.22392818 1.2414347 0.03004084 66
0.20658931 1.2665033 0.05281638 100
0.21801001 1.2499912 0.071659178 64
0.22525331 1.2395189 0.090419121 100
0.22836298 1.2350229 0.10990598 92
0.22408959 1.2412014 0.13227122 86
0.21482581 1.2545949 0.15787962 73
0.2127305 1.261281 0.010401634 97
0.2221846 1.2475098 0.030354854 97
0.20606923 1.2709842 0.053165004 100
0.21968752 1.2511472 0.071659178 80
0.22689423 1.2406496 0.090419121 100
0.22221011 1.2474726 0.1125773 96
0.23125106 1.2343032 0.13002171 96
0.20995912 1.2653179 0.16098544 72
0.21106941 1.2674129 0.010506349 68
0.22947663 1.2403986 0.029831495 66
0.2055763 1.2754745 0.053513627 100
0.22136903 1.2522973 0.071659178 64
0.22631443 1.2450395 0.091044858 100
0.22498429 1.2469915 0.11219569 91
0.23506838 1.2321922 0.1291219 96
0.20951456 1.2696948 0.16202073 70
0.21280774 1.2685931 0.010506349 40
0.22664508 1.2481322 0.030250182 32
0.21403971 1.2667713 0.052467756 80
0.22305456 1.2534415 0.071659178 80
0.23129442 1.2412574 0.090106249 100
0.21675286 1.2627596 0.11563025 100
0.23122516 1.2413599 0.13137141 94
0.21775427 1.2612787 0.15891489 73
0.21900803 1.2631255 0.010366729 41
0.21050656 1.2757914 0.031924933 30
0.21799657 1.2646325 0.052119136 54
0.21699989 1.2661173 0.073365346 93
0.23734498 1.2358065 0.088854775 100
0.22832221 1.2492489 0.11219569 100
0.23395851 1.2408516 0.13092151 96
0.21731791 1.2656436 0.15995017 72
0.22738326 1.2542925 0.0101573 42
0.22556174 1.2570269 0.03066887 32
0.21751598 1.2691047 0.052467756 53
0.23634255 1.2408434 0.069465525 99
0.23459217 1.2434709 0.090106249 100
0.23652774 1.2405654 0.10990598 92
0.23128244 1.2484393 0.13272113 100
0.21583694 1.2716252 0.16150309 70
0.22245872 1.2654243 0.010366729 27
0.21624887 1.274817 0.031715591 30
0.22255662 1.2652762 0.051944822 54
0.23689324 1.2435913 0.069709264 83
0.23624682 1.2445691 0.090106249 96
0.23708948 1.2432945 0.1102876 85
0.24477649 1.2316675 0.1277722 89
0.21972081 1.2695656 0.1604678 72
0.21760806 1.2765962 0.010576159 27
0.22239569 1.2692994 0.031296901 31
0.21554348 1.2797428 0.053339314 52
0.23419231 1.2513202 0.070684217 81
0.23682162 1.247313 0.090419121 96
0.23228145 1.2542326 0.1125773 82
0.24852797 1.2294714 0.12687239 99
0.21934706 1.2739458 0.16150309 70
0.22374308 1.2710505 0.010436539 27
0.23721856 1.2503554 0.03004084 33
0.23471963 1.2541931 0.05055033 56
0.22937521 1.2624009 0.072146654 79
0.24711278 1.2351602 0.087916173 84
0.2414726 1.2438222 0.10990598 100
0.24800694 1.2337871 0.1277722 97
0.22848716 1.2637646 0.15787962 73
0.22974882 1.2654121 0.010296919 42
0.23881319 1.25139 0.03004084 33
0.23849028 1.2518895 0.050201707 56
0.24070886 1.2484574 0.069953002 49
0.25080177 1.2328442 0.087290429 100
0.24411136 1.243194 0.10952436 92
0.25166243 1.2315128 0.12687239 99
0.23117509 1.2632058 0.15736198 74
0.24011791 1.2530618 0.010017681 72
0.24804434 1.2407056 0.029308135 68
0.22726488 1.2730978 0.052293446 53
0.24023718 1.2528758 0.070440479 49
0.25028601 1.2372111 0.087916173 84
0.25318533 1.2326915 0.10685304 88
0.25327525 1.2325513 0.12687239 82
0.23185554 1.2659416 0.15787962 73
0.24197501 1.2542481 0.010017681 58
0.2509259 1.2401763 0.029203463 68
0.23561504 1.2642467 0.051247578 82
0.2442244 1.2507118 0.069953002 49
0.2520822 1.2383585 0.087916173 70
0.24126604 1.2553626 0.11181407 98
0.25714532 1.2303988 0.12597258 82
0.22961479 1.2736797 0.15995017 64
0.24793667 1.2485564 0.0098780617 73
0.24510649 1.2530401 0.029936166 99
0.23308834 1.2720804 0.051944822 54
0.24590427 1.2517762 0.069953002 49
0.25582764 1.2360547 0.087290429 71
0.24505797 1.253117 0.11105084 70
0.26083452 1.2281224 0.12507279 100
0.22725031 1.2813295 0.16202073 63
0.23882115 1.2664465 0.01022711 70
0.25723302 1.2370727 0.028889447 100
0.2357254 1.2713854 0.051770512 81
0.24425644 1.2577752 0.070684217 65
0.25519499 1.240324 0.087916173 84
0.23927841 1.265717 0.11372216 89
0.26020521 1.2323309 0.12597258 99
0.2391184 1.2659723 0.15684435 66
0.2521733 1.2488511 0.0098431576 88
0.2504265 1.2516596 0.029726824 100
0.24589559 1.2589445 0.05037602 84
0.251203 1.2504112 0.069465525 49
0.25683853 1.2413503 0.087916173 56
0.25656381 1.241792 0.10799789 79
0.25873318 1.238304 0.1273223 89
0.2490139 1.2539308 0.15270324 68
0.2580474 1.2430809 0.0097035384 90
0.25106072 1.254402 0.029831495 100
0.24341878 1.2667851 0.051073264 83
0.25705186 1.244694 0.068490572 50
0.25848565 1.2423707 0.087916173 70
0.25718141 1.2444841 0.10837951 79
0.26548678 1.2310261 0.12507279 83
0.23650113 1.2779944 0.15995017 64
0.25134659 1.2577401 0.0099827768 87
0.2600542 1.2435194 0.029098792 100
0.24203345 1.2729497 0.051596198 82
0.25871062 1.2457137 0.068490572 50
0.25394702 1.2534933 0.089793384 55
0.25576383 1.2505262 0.10952436 85
0.27015069 1.2270305 0.12372308 92
0.24231154 1.2724955 0.15787962 65
0.25097436 1.2621977 0.010052586 86
0.26170889 1.2445287 0.029098792 100
0.24172199 1.2774272 0.051944822 81
0.26037297 1.2467276 0.068490572 50
0.2658931 1.2376413 0.086664692 57
0.26152042 1.2448388 0.10799789 72
0.27275956 1.2263391 0.12327318 85
0.24607357 1.2702644 0.15684435 66
0.25475889 1.2598133 0.0099827768 87
0.25511861 1.2592165 0.029936166 99
0.25378051 1.2614365 0.050201707 85
0.25589019 1.2579365 0.069953002 49
0.27262601 1.2301712 0.085100345 58
0.25709867 1.2559315 0.1102876 85
0.27234218 1.2306421 0.12417299 83
0.24981624 1.2680132 0.15580906 67
0.25852314 1.2574084 0.0099129668 87
0.26092839 1.2533863 0.029517479 100
0.2534526 1.2658874 0.05055033 84
0.25555751 1.2623675 0.070440479 49
0.27220631 1.2345273 0.08572609 58
0.26685765 1.2434714 0.10723466 73
0.27095127 1.236626 0.12552269 82
0.25155646 1.2690581 0.15580906 67
0.26736858 1.2463843 0.0096686333 90
0.26465568 1.250957 0.029308135 100
0.25518537 1.2669195 0.05055033 84
0.26538104 1.2497344 0.068490572 50
0.27786118 1.2286987 0.084474608 59
0.26550689 1.2495222 0.10837951 94
0.27457047 1.2342453 0.12462288 92
0.25724316 1.263451 0.15373851 68
0.26700455 1.2508147 0.0097384425 60
0.2703886 1.2450651 0.028889447 100
0.25388989 1.2730967 0.051073264 83
0.26907116 1.2473035 0.068003096 51
0.27044612 1.2449673 0.087290429 57
0.26917416 1.2471285 0.10761628 65
0.27915809 1.2301656 0.12327318 85
0.2550478 1.2711294 0.15580906 67
0.26364315 1.2604339 0.0099129668 87
0.27305567 1.2443135 0.028784776 100
0.25966629 1.2672449 0.05037602 84
0.26473337 1.2585667 0.069465525 49
0.27608991 1.2391168 0.086038955 58
0.26391187 1.2599736 0.1102876 78
0.28469643 1.2243767 0.12147357 77
0.25679886 1.272156 0.15580906 67
0.26635909 1.2597002 0.0098780617 73
0.27170989 1.2504621 0.029098792 100
0.26939258 1.2544628 0.048981529 87
0.27440009 1.2458175 0.067515619 51
0.28069934 1.234942 0.085100345 58
0.26562396 1.2609694 0.1102876 85
0.28530741 1.2269863 0.12192347 85
0.26242653 1.2664896 0.15373851 68
0.27205506 1.2537518 0.0097384425 60
0.2753787 1.247967 0.028889447 100
0.26215219 1.2709873 0.05055033 84
0.26815113 1.2605463 0.069465525 49
0.28429213 1.2324536 0.084474608 59
0.2780982 1.2432339 0.1060898 73
0.28593335 1.2295971 0.12237337 76
0.26416135 1.2674904 0.15373851 68
0.27671584 1.249507 0.0096337283 90
0.27507091 1.2523932 0.029098792 100
0.26784888 1.2650651 0.049853086 85
0.27674568 1.2494546 0.067759357 68
0.28101742 1.2419593 0.086038955 72
0.2778075 1.2475915 0.10685304 81
0.28753924 1.2305161 0.12237337 76
0.26681423 1.2668804 -0.0099827768 96
0.26016027 1.2785556 0.15684435 74
0.28134358 1.2452357 0.0095290141 76
0.28265378 1.242918 0.02847076 100
0.27840313 1.250437 0.048284281 88
0.27744406 1.2521336 0.068003096 51
0.27877802 1.2497739 0.087290429 71
0.2765778 1.2536659 0.10799789 87
0.2929844 1.2246437 0.12057377 77
0.26954284 1.2661103 0.15270324 68
0.27900773 1.2531 0.0096686333 75
0.2842235 1.2438018 0.02847076 100
0.26537678 1.2774001 0.050898954 83
0.27710202 1.2564974 0.068490572 50
0.28520256 1.2420565 0.08572609 58
0.28106466 1.2494332 0.10685304 81
0.29544684 1.223794 0.12012386 77
0.27020293 1.2687964 -0.0099827768 86
0.26551881 1.2771468 0.15580906 67
0.2797235 1.2557905 0.0097035384 90
0.28199485 1.251708 0.028889447 100
0.27780497 1.2592388 0.048981529 87
0.27880189 1.257447 0.068490572 50
0.29549551 1.2274421 0.082910269 60
0.27987632 1.2555158 0.10799789 79
0.296085 1.2263826 0.12057377 77
0.27583465 1.2627803 -0.0098431576 87
0.27292621 1.2680079 0.15270324 68
0.28625143 1.2479768 0.0095290141 92
0.28367797 1.2526406 0.028889447 100
0.28143957 1.2566972 0.048632905 88
0.27858692 1.2618668 0.068978049 50
0.29041329 1.2404345 0.085100345 58
0.28726378 1.2461423 0.10570818 81
0.29391363 1.234091 0.12237337 85
0.27755642 1.2637343 -0.0098431576 87
0.27466628 1.2689719 0.15270324 68
0.28216153 1.2594197 0.0097384425 90
0.28728196 1.2500632 0.028680105 100
0.28600955 1.2523882 0.048109971 89
0.28602344 1.252363 0.067515619 51
0.29395366 1.2378721 0.084474608 59
0.29269743 1.2401676 0.10418171 75
0.29553518 1.2349821 0.12237337 76
0.28197426 1.2597619 0.14959741 70
0.29341021 1.2427764 0.0093893949 93
0.29658094 1.2369342 0.027842728 100
0.2838935 1.2603112 0.048807215 88
0.28676191 1.2550261 0.067759357 68
0.29087704 1.2474438 0.086038955 72
0.28965777 1.2496904 0.1060898 81
0.27999946 1.2674862 0.15166797 69
0.28748026 1.257756 0.0096686333 75
0.28371808 1.264746 0.049155839 87
0.29127896 1.2506981 0.067028143 51
0.29722622 1.2396482 0.084474608 59
0.29040334 1.2523249 0.10647142 73
0.28084621 1.270082 -0.0099129668 87
0.28173766 1.2684257 0.15166797 77
0.28447661 1.2674901 0.0098431576 88
0.29608521 1.2457399 0.028261416 100
0.28732297 1.2621571 0.048807215 88
0.28454623 1.2673596 0.069221787 67
0.29208854 1.2532282 0.10647142 73
0.28353503 1.2692542 -0.0098780617 97
0.29075614 1.2557247 0.14752686 71
0.29276264 1.256042 0.0095988233 91
0.29401031 1.2536845 0.028680105 100
0.2890425 1.2630711 0.048807215 58
0.29092684 1.2595106 0.068003096 68
0.29745033 1.2471846 0.10494494 82
0.28808558 1.2648791 -0.0097733475 88
0.2924532 1.2566266 0.14752686 71
0.29941264 1.247501 0.028261416 100
0.29632026 1.2533937 0.047761347 90
0.29724938 1.2516233 0.066784397 34
0.29415342 1.2575226 0.14752686 79
0.29893124 1.2525042 0.0094941091 92
0.29616982 1.2578111 0.048109971 59
0.29801577 1.2542635 0.067028143 51
0.28600857 1.277339 -0.0099827768 86
0.2887229 1.2721226 0.15166797 69
0.29603276 1.2622633 0.0096686333 90
0.29513365 1.264006 0.048632905 59
0.29788741 1.2586684 0.067515619 51
0.29047725 1.2730315 0.15166797 69
0.29684201 1.2649271 0.0097035384 100
0.29411009 1.270268 -0.0098082526 100
0.29575372 1.2670548 0.14959741 70
0.29502037 1.2728097 0.069221787 67
0.29846278 1.2791706 -0.0099129668 100
