# .PCD v0.7 - Point Cloud Data file format
VERSION 0.7
FIELDS x y z intensity
SIZE 4 4 4 4
TYPE F F F F
COUNT 1 1 1 1
WIDTH 725
HEIGHT 1
VIEWPOINT 0 0 0 1 0 0 0
POINTS 725
DATA ascii
0.053938657 0.0014423132 0.047939736 66
0.053016484 0.017428696 0.015742071 9
0.04481703 0.0050124526 0.04804441 100
0.045733809 0.011592805 0.047730394 100
0.039621711 0.0084688067 0.04804441 72
0.035848856 0.0085998178 0.048149079 26
0.029690266 0.0055360198 0.048463095 25
0.03519398 0.018707395 0.047730394 19
0.0314399 0.018865347 0.047835063 9
0.019697607 0.0075628757 0.048672438 8
0.019331753 0.012689948 0.048463095 8
-1.0280759 1.1262136 0.084784247 3
-1.0320022 1.1270999 0.14188954 3
-1.0404408 1.1348438 0.028482327 7
-1.0151427 1.1290405 0.084156215 5
-1.0268621 1.131729 0.14154093 6
-1.0118926 1.1340386 0.02799366 10
-0.99442858 1.1299682 0.083109498 35
-1.0255899 1.1372311 0.14154093 42
-0.99504513 1.1358026 0.027714422 30
-0.97955793 1.132136 0.082376793 98
-1.0301149 1.1441057 0.14206386 86
-0.98987025 1.1402587 0.027644612 40
-0.99381989 1.1412084 0.083214171 100
-1.0113647 1.145427 0.14049506 86
-0.97892028 1.1429933 0.027470088 38
-0.97899789 1.1430123 0.082481466 100
-1.0043042 1.1491859 0.13997212 91
-0.98149115 1.1492894 0.027539898 22
-0.99513477 1.1526684 0.083423518 97
-0.99716932 1.1531723 0.13944919 92
-0.97240037 1.152683 0.027400278 27
-0.97635657 1.1536775 0.082481466 46
-0.9996869 1.159542 0.13979781 76
-0.97493058 1.1589833 0.027470088 38
-0.97887856 1.1599904 0.082690813 33
-0.99831778 1.1649491 0.13979781 74
-0.97356349 1.164304 0.027470088 53
-0.98330861 1.166826 0.083004825 69
-0.97764128 1.1653594 0.1380547 89
-0.96250707 1.1670809 0.027295563 68
-0.96645969 1.1681186 0.082167454 98
-0.96854359 1.1686656 0.13735744 92
-0.94944781 1.1695328 0.027086135 81
-0.9669202 1.1741884 0.08227212 94
-0.97477299 1.1762807 0.1380547 100
-0.95576602 1.1768508 0.027225753 92
-0.94814712 1.1747922 0.081330076 100
-0.97142214 1.1810809 0.13788038 100
-0.95055109 1.1807858 0.027155945 96
-0.94487017 1.1792307 0.081225403 100
-0.97005063 1.186124 0.13788038 98
-0.94910806 1.1860212 0.027155945 92
-0.94535702 1.1849803 0.081330076 98
-0.95898968 1.1887635 0.13700883 91
-0.93994671 1.1890857 0.027016325 92
-0.94389945 1.1901975 0.081330076 86
-0.94217497 1.1897125 0.13561434 100
-0.94616717 1.1964767 0.027155945 67
-0.94434434 1.1959572 0.081434749 72
-0.9502812 1.1976495 0.13648589 100
-0.96003872 1.2061357 0.027435184 46
-0.93517298 1.198954 0.081016064 36
-0.95069343 1.2034366 0.1366602 99
-0.94123405 1.2063498 0.027121039 49
-0.91641468 1.1990875 0.080074012 22
-0.95682007 1.2109106 0.13735744 84
-0.93203288 1.2092795 0.026981421 71
-0.91873783 1.2053387 0.080283359 28
-0.94190019 1.2122042 0.13613728 89
-0.91899902 1.2110002 0.026771991 75
-0.91720921 1.210463 0.080283359 34
-0.9327144 1.2151177 0.13544002 98
-0.90796179 1.2129626 0.026597468 78
-0.92529553 1.2182291 0.080806717 88
-0.92932385 1.219453 0.13526571 99
-0.91022927 1.2192252 0.026667276 88
-0.90654129 1.2180905 0.079864666 100
-0.93155462 1.2257857 0.13561434 99
-0.91247076 1.2255089 0.026737086 88
-0.90115446 1.2219843 0.079655327 89
-0.92805237 1.2303621 0.13544002 70
-0.9223147 1.2342191 0.026946515 88
-0.90718716 1.2294493 0.080074012 68
-0.90743464 1.2295274 0.13369691 47
-0.89782494 1.2320598 0.026527658 88
-0.9036718 1.2339258 0.079969339 76
-0.90012747 1.2327948 0.13317397 46
-0.89620322 1.2371109 0.026527658 85
-0.90964586 1.2414527 0.080388032 92
-0.90039915 1.2384661 0.13334829 48
-0.88315946 1.2384287 0.02631823 93
-0.89470226 1.2422014 0.079655327 100
-0.9157992 1.249097 0.1349171 64
-0.88910979 1.2459401 0.026457848 100
-0.89114898 1.2466145 0.079550654 100
-0.91411799 1.2542107 0.1349171 80
-0.88743967 1.2509606 0.026457848 99
-0.88758248 1.2510083 0.07944598 100
-0.8973034 1.2542609 0.1335226 90
-0.87438732 1.2521285 0.02624842 96
-0.8858946 1.2560235 0.07944598 100
-0.89371699 1.2586713 0.13334829 84
-0.86891192 1.2558022 0.02617861 99
-0.89174765 1.2636206 0.079864666 100
-0.8920024 1.2637078 0.13334829 97
-0.87098664 1.2620608 0.02624842 88
-0.88057929 1.2653825 0.079341307 100
-0.89403564 1.2700422 0.13369691 85
-0.86548585 1.265696 0.02617861 79
-0.86187619 1.264432 0.078399263 87
-0.90920514 1.2810063 0.13526571 57
-0.8750568 1.2746391 0.026388038 79
-0.85825902 1.2686907 0.07829459 53
-0.8886314 1.2794461 0.1335226 39
-0.86387342 1.2762399 0.026213514 88
-0.86215073 1.2756231 0.07860861 17
-0.88309282 1.2831215 0.13317397 43
-0.84893566 1.2764076 0.025969181 93
-0.87352318 1.2853081 0.079341307 51
-0.87567264 1.2860863 0.13265105 22
-0.84340364 1.2799133 0.025899371 99
-0.85108405 1.2827239 0.078189917 89
-0.86824936 1.2890055 0.1321281 15
-0.85286814 1.2889366 0.0261088 100
-0.84553939 1.2862257 0.077980578 100
-0.8757723 1.2974092 0.13299966 5
-0.84739321 1.2921859 0.026038991 100
-0.8363362 1.2880541 0.077561885 76
-0.87214917 1.3014369 0.13282534 1
-0.83807904 1.2942345 0.025899371 100
-0.83451945 1.2928901 0.077561885 48
-0.83673543 1.293727 0.12968774 3
-0.82689935 1.2955115 0.025724847 72
-0.84388155 1.3019929 0.078189917 53
-0.84606737 1.3028271 0.13073361 15
-0.83625108 1.3046318 0.025934275 72
-0.83083528 1.3025432 0.077561885 68
-0.85349351 1.3112817 0.13160518 56
-0.83623964 1.3101935 0.025969181 81
-0.82152408 1.3044591 0.0771432 63
-0.85902125 1.3190711 0.13230242 100
-0.83062428 1.3135641 0.025899371 96
-0.82522529 1.3114384 0.077457212 68
-0.84226495 1.3181471 0.13090792 100
-0.81756979 1.3139457 0.025689943 99
-0.823327 1.3162355 0.077457212 85
-0.82368118 1.3163764 0.12933913 99
-0.8119517 1.317225 0.025620133 100
-0.82882494 1.3240045 0.077875905 95
-0.82731193 1.3233967 0.12986206 100
-0.81003326 1.3219757 0.025620133 100
-0.81948012 1.3258097 0.077457212 95
-0.84014088 1.334195 0.13125655 100
-0.77618951 1.3082401 0.17573559 13
-0.81549925 1.3297536 0.025759751 100
-0.8101396 1.3275566 0.077038527 100
-0.82894546 1.3352656 0.130385 100
-0.77430254 1.3128661 0.17573559 15
-0.81003827 1.3325121 0.025689943 100
-0.80284435 1.3295368 0.076724514 100
-0.81611603 1.3350259 0.12933913 100
-0.79276878 1.3253696 0.17841671 17
-0.80068558 1.3341732 0.025550323 100
-0.80272597 1.3350255 0.07682918 100
-0.81045848 1.3382553 0.1289905 100
-0.7706731 1.3216372 0.17573559 16
-0.79482502 1.3377998 0.025480513 100
-0.80422634 1.3417691 0.077038527 100
-0.81193751 1.3450248 0.12933913 100
-0.79414803 1.3375139 0.17914793 26
-0.80019277 1.3456275 0.025620133 79
-0.78936154 1.3410099 0.076305822 58
-0.80992204 1.3497753 0.12933913 95
-0.77024609 1.3328602 0.17622307 16
-0.80929786 1.3548437 0.025829561 56
-0.81681496 1.358078 0.077980578 53
-0.81348246 1.3566442 0.12986206 24
-0.78296012 1.3435118 0.17817298 5
-0.81825274 1.3643653 0.026038991 94
-0.8055945 1.3588667 0.077457212 100
-0.83152801 1.3701321 0.13177948 71
-0.77730852 1.3465793 0.1776855 16
-0.7960251 1.3603034 0.025655037 100
-0.81267613 1.3676057 0.077980578 100
-0.82030147 1.37095 0.13090792 100
-0.79528528 1.3599789 0.18036664 33
-0.79395634 1.3649983 0.025655037 100
-0.81058186 1.3723588 0.077980578 100
-0.79451162 1.3652442 0.12864187 100
-0.77688128 1.3574388 0.17817298 33
-0.79187125 1.3696859 0.025655037 100
-0.80300051 1.3746597 0.077666558 100
-0.81243473 1.3788759 0.1305593 100
-0.78750902 1.3677366 0.17987914 38
-0.79888386 1.3784776 0.025829561 100
-0.80088168 1.3793788 0.077666558 100
-0.81756574 1.386905 0.13125655 100
-0.76008135 1.360974 0.17646681 22
-0.80424649 1.3860242 0.025969181 100
-0.80805057 1.3877547 0.078189917 100
-0.80473942 1.3862485 0.13021068 100
-0.77448064 1.3724842 0.17866045 15
-0.79118401 1.3857417 0.025759751 100
-0.80770105 1.3933247 0.07829459 100
-0.80258006 1.3909736 0.13021068 100
-0.77958578 1.3804169 0.17963541 15
-0.7889182 1.3906531 0.025759751 100
-0.81265551 1.4016566 0.078713275 100
-0.80571789 1.3984406 0.13073361 100
-0.77373749 1.3836162 0.17914793 10
-0.7921775 1.3978651 0.025864467 100
-0.80320591 1.4030242 0.07829459 100
-0.80532068 1.4040134 0.13090792 100
-0.76079911 1.3831863 0.1776855 5
-0.7991305 1.406579 0.026038991 100
-0.80471188 1.4092126 0.078503937 100
-0.81041819 1.4119052 0.13160518 100
-0.76773483 1.3917654 0.17890419 3
-0.79870564 1.4121442 0.026073895 100
-0.79886574 1.4122205 0.07829459 100
-0.80097371 1.413224 0.13090792 100
-0.79093605 1.4144844 0.025969181 100
-0.80190331 1.4197555 0.07860861 100
-0.79860705 1.4181713 0.13090792 100
-0.78879148 1.4189276 0.025969181 100
-0.80872744 1.4285908 0.079131968 100
-0.80362171 1.426116 0.13160518 100
-0.79370373 1.4271108 0.0261088 100
-0.79386085 1.4271877 0.078399263 100
-0.81564194 1.4378393 0.13299966 100
-0.79151732 1.4315631 0.0261088 100
-0.80242187 1.4369407 0.079027295 100
-0.81341976 1.4423642 0.13299966 100
-0.79970759 1.4420571 0.02631823 100
-0.799851 1.4421287 0.079027295 100
-0.80726093 1.4458182 0.13265105 100
-0.79389733 1.4447348 0.02624842 100
-0.80653936 1.451082 0.079550654 100
-0.80145127 1.4485275 0.13230242 100
-0.78439802 1.4458078 0.0261088 100
-0.80771714 1.4576178 0.07976 100
-0.80973917 1.4586418 0.13334829 100
-0.7928353 1.4556855 0.02631823 100
-0.79475683 1.4566667 0.079131968 100
-0.80744809 1.4631472 0.13334829 100
-0.79742354 1.4642663 0.026457848 100
-0.79578191 1.4634204 0.079341307 100
-0.81375402 1.4726806 0.13421984 100
-0.79511386 1.4687307 0.026457848 100
-0.7970199 1.4697208 0.079550654 100
-0.804344 1.4735253 0.1335226 100
-0.78900152 1.4717995 0.026388038 100
-0.79621524 1.4755803 0.079655327 100
-0.80528575 1.4803344 0.13387123 100
-0.78666693 1.4762359 0.026388038 85
-0.79739982 1.4819067 0.079864666 100
-0.80468434 1.4857556 0.13404553 94
-0.81084281 1.495402 0.1349171 36
0.1126219 1.3126297 0.13547438 5
0.15132976 1.267978 0.011134636 25
0.14682257 1.2736079 0.033809029 28
0.1316182 1.2925997 0.05856866 22
0.16235083 1.2542115 0.098240845 12
0.15245995 1.2665663 0.12364423 30
0.19315401 1.2157354 0.13182132 7
0.15278196 1.2661641 0.17030293 7
0.15680334 1.2646703 0.011029921 89
0.16101071 1.2593771 0.032762308 88
0.15576041 1.2659824 0.055431053 74
0.14979306 1.2734897 0.078971334 28
0.17879334 1.2370052 0.094486415 26
0.16274706 1.2571926 0.1209729 95
0.18743655 1.2261314 0.13452072 23
0.15571839 1.2660352 0.16978529 36
0.16464135 1.2581239 0.010855397 100
0.16387329 1.2590967 0.032657638 88
0.15493816 1.2704146 0.055779677 100
0.17483577 1.2452108 0.074340299 30
0.17299986 1.2475363 0.096363634 25
0.16436476 1.2584741 0.1209729 100
0.18049848 1.2380381 0.13767004 45
0.15138018 1.2749214 0.17237349 42
0.16643301 1.2595329 0.010855397 100
0.17429131 1.2495036 0.031924933 100
0.15677494 1.2718592 0.055779677 100
0.15943944 1.2684586 0.077752642 28
0.16744265 1.2582444 0.098240845 36
0.16979027 1.2552482 0.11982805 100
0.19062975 1.2286515 0.13452072 31
0.15561649 1.2733376 0.1713382 43
0.16314605 1.2671148 0.010995016 100
0.19060281 1.2318323 0.03066887 96
0.15477046 1.2778776 0.056302611 96
0.17206681 1.2556515 0.07555899 30
0.18119556 1.2439208 0.095112152 25
0.17863587 1.24721 0.11753834 100
0.18975905 1.2329166 0.13542053 30
0.14542335 1.2898887 0.1765146 41
0.1686376 1.2637814 0.010890301 78
0.17398554 1.256857 0.032238949 60
0.16515952 1.2682848 0.055082429 50
0.17142254 1.2601755 0.076046467 44
0.17569032 1.2546496 0.096989371 25
0.16598696 1.2672135 0.12211776 12
0.19145814 1.2342337 0.13542053 22
0.15205494 1.2852523 0.17444403 42
0.17149419 1.2634567 0.010855397 78
0.16709304 1.2691945 0.032971654 29
0.17287707 1.2616538 0.054210871 51
0.17425829 1.2598531 0.075802729 45
0.18811989 1.2417818 0.094173551 52
0.18795088 1.2420021 0.11563025 13
0.19181353 1.2369664 0.13587044 30
0.16082039 1.2773721 0.1713382 58
0.1781503 1.2584761 0.010715778 39
0.17618382 1.2610594 0.032343622 30
0.16502711 1.2757152 0.055605363 49
0.19048491 1.2422729 0.072877869 47
0.19104797 1.2415333 0.093860678 52
0.20157492 1.2277046 0.11181407 14
0.19352746 1.2382761 0.13587044 45
0.1732139 1.2649608 0.16667947 67
0.17977217 1.2597065 0.010715778 39
0.15372458 1.2941601 0.03443706 27
0.1679078 1.2753997 0.055431053 49
0.20043305 1.2323781 0.071171694 81
0.18903974 1.2474482 0.094799288 51
0.19835871 1.2351218 0.11334054 13
0.20448408 1.2270198 0.13227122 47
0.17602235 1.2646666 0.16616182 68
0.17916933 1.2642593 0.010785587 39
0.18441567 1.2572668 0.031924933 30
0.17574131 1.2688283 0.054559495 50
0.19379073 1.2447712 0.072877869 63
0.19671965 1.2408675 0.093234941 53
0.19653115 1.2411187 0.1144854 13
0.2026529 1.2329594 0.13362093 38
0.17551914 1.2691244 0.16719711 67
0.18319997 1.2622793 0.010715778 66
0.19796684 1.2424607 0.030878214 31
0.18215925 1.263676 0.053862248 51
0.19180891 1.2507253 0.073609084 93
0.19946328 1.2404524 0.092922069 53
0.20278746 1.2359911 0.11295892 13
0.20419002 1.2341087 0.13362093 31
0.17833063 1.2688143 0.16667947 67
0.1908665 1.2555182 0.010541254 81
0.18655312 1.2613497 0.032029606 60
0.18625441 1.2617534 0.053513627 78
0.19466963 1.2503767 0.073365346 46
0.20110762 1.2416731 0.092922069 79
0.20558369 1.2356219 0.1125773 13
0.2104477 1.2290461 0.13182132 31
0.19156244 1.2545774 0.16150309 70
0.19721389 1.2502601 0.010401634 83
0.1929141 1.2561135 0.031610917 61
0.18670762 1.2645626 0.053687938 78
0.20096537 1.2451531 0.072390392 95
0.206182 1.2380515 0.091983467 93
0.21410328 1.227268 0.1102876 14
0.22235495 1.2160347 0.1277722 24
0.18859661 1.261991 0.16357364 69
0.18955305 1.2644774 0.010680873 80
0.20763963 1.2396654 0.030459527 97
0.18148094 1.2755511 0.054733805 75
0.20387858 1.244825 0.072146654 79
0.20673621 1.2409048 0.092296332 80
0.20884269 1.2380149 0.1125773 13
0.24695024 1.1857374 0.11877415 17
0.18812636 1.2664347 0.16460891 69
0.19823018 1.2559509 0.010471444 82
0.21388355 1.2343266 0.03004084 66
0.18432772 1.2751565 0.054559495 100
0.20778304 1.2427542 0.071659178 64
0.20714134 1.2436407 0.092609204 100
0.21845496 1.2280115 0.10990598 14
0.24261713 1.1946328 0.12102367 8
0.18637621 1.2723265 0.16616182 68
0.19534716 1.2637335 0.010611063 94
0.21558765 1.2355554 0.03004084 66
0.19083109 1.2700205 0.053862248 100
0.20488569 1.2504543 0.072634131 78
0.21348938 1.2384766 0.09135773 100
0.20410082 1.251547 0.11524864 13
0.23053282 1.2147495 0.12642249 8
0.19610906 1.2626728 0.16253836 70
0.20868221 1.2486866 0.010262015 98
0.21489573 1.2399724 0.030250182 98
0.19720551 1.2647823 0.053165004 100
0.19965008 1.2613539 0.07409656 76
0.21397987 1.2412567 0.091670595 100
0.20464405 1.2543499 0.11563025 20
0.23434994 1.2126884 0.12552269 16
0.20343876 1.2560403 0.15995017 72
0.21035522 1.2498751 0.010262015 98
0.20730749 1.2541811 0.031087559 94
0.20123684 1.2627583 0.05281638 100
0.2105419 1.2496114 0.072146654 79
0.21562693 1.2424269 0.091670595 100
0.21314207 1.2459376 0.11334054 34
0.23139387 1.2201501 0.1273223 24
0.19844112 1.2667083 0.163056 70
0.20973328 1.2543303 0.010331824 98
0.22277749 1.2357633 0.029831495 99
0.19952297 1.2688634 0.053339314 78
0.21792391 1.2426718 0.070927955 48
0.21387133 1.2484403 0.092609204 93
0.20577663 1.2599621 0.11639348 92
0.23296714 1.2212596 0.1273223 40
0.20350873 1.2631902 0.16150309 70
0.20685065 1.262076 0.010471444 96
0.2221204 1.2401792 0.03004084 99
0.1955682 1.2782551 0.054210871 100
0.21844038 1.2454565 0.071171694 81
0.22684264 1.2334075 0.089480512 97
0.21759591 1.2466674 0.11295892 82
0.22562677 1.2351511 0.13092151 80
0.20302236 1.2675658 0.16253836 70
0.20629421 1.2665594 0.010541254 95
0.22603706 1.2380364 0.029831495 99
0.20641601 1.2663834 0.05281638 100
0.2144531 1.2547719 0.072390392 47
0.2340835 1.2264116 0.087916173 100
0.21590975 1.2526675 0.11410378 89
0.22947064 1.2330759 0.13002171 96
0.20805976 1.2640086 0.16098544 72
0.21473858 1.2578084 0.010331824 98
0.22306588 1.2456921 0.030250182 98
0.21257797 1.2609521 0.052119136 100
0.2171869 1.2542461 0.072146654 95
0.23224217 1.2323406 0.088854775 100
0.22196016 1.2473009 0.1125773 96
0.2265929 1.2405603 0.13182132 94
0.20969981 1.2651398 0.16098544 72
0.21644339 1.2589757 0.010331824 84
0.22923037 1.2402307 0.029831495 66
0.20867997 1.2703564 0.05299069 100
0.21664196 1.2586846 0.072634131 94
0.22829208 1.2416062 0.090419121 96
0.23137265 1.2370902 0.10990598 92
0.22823742 1.2416863 0.13182132 100
0.21360755 1.2631328 0.15995017 72
0.21927339 1.2584811 0.010296919 42
0.21967632 1.2578861 0.030878214 31
0.21154562 1.2698951 0.05281638 79
0.22947901 1.2434075 0.07019674 99
0.23104772 1.2410905 0.090106249 96
0.23190436 1.2398252 0.1102876 92
0.23534858 1.2347382 0.12957181 96
0.21424788 1.2659038 0.1604678 72
0.22098053 1.2596326 0.010296919 42
0.2347489 1.2391431 0.029622151 33
0.2144039 1.2694197 0.05264207 53
0.22338322 1.256057 0.071902916 96
0.23489761 1.2389219 0.089480512 100
0.22697634 1.2507099 0.1125773 100
0.23914653 1.2325988 0.128672 97
0.2192134 1.2622623 0.15891489 73
0.2204726 1.2641054 0.010366729 27
0.22752312 1.2535337 0.030459527 32
0.21172738 1.2772183 0.053339314 52
0.22838613 1.2522397 0.071171694 65
0.24530458 1.2268715 0.086977564 100
0.22865629 1.2518346 0.1125773 82
0.23751944 1.2385448 0.13002171 96
0.21878999 1.2666285 0.15995017 72
0.22219938 1.2652527 0.010366729 41
0.20275626 1.2946281 0.032971654 29
0.22339702 1.2634432 0.051770512 54
0.22788012 1.25667 0.071659178 80
0.23817894 1.2411102 0.089480512 97
0.2411761 1.236582 0.10876112 87
0.23808131 1.2412578 0.13047162 96
0.2247906 1.2613378 0.15787962 73
0.22393012 1.2663939 0.010366729 41
0.21116892 1.285821 0.032343622 30
0.22074598 1.2712414 0.052467756 53
0.2263113 1.262769 0.072390392 100
0.23765627 1.2454979 0.090106249 96
0.24065092 1.240939 0.10952436 99
0.24293792 1.2374574 0.1291219 100
0.22650766 1.26247 0.15787962 73
0.22348079 1.2708795 0.010436539 27
0.22387859 1.2702692 0.031296901 31
0.22793788 1.2640423 0.051596198 54
0.23670587 1.2505922 0.070440479 98
0.23823923 1.2482401 0.090419121 100
0.24444094 1.2387266 0.10876112 87
0.24669993 1.2352613 0.12822211 97
0.22717369 1.2652146 0.15839726 73
0.22740352 1.2686582 0.010366729 41
0.25600293 1.2244503 0.028366089 35
0.22533551 1.2718549 0.052293446 53
0.23838535 1.2516829 0.070440479 49
0.24742129 1.2377155 0.088229038 98
0.23648146 1.2546258 0.11219569 91
0.24938434 1.234681 0.1277722 97
0.22155896 1.2776926 0.16202073 70
0.23130676 1.2664157 0.010296919 56
0.24788004 1.2406002 0.029308135 68
0.23139477 1.2662786 0.051596198 54
0.24114105 1.2510972 0.07019674 66
0.25119013 1.2354442 0.087603301 99
0.24241754 1.2491089 0.11066922 85
0.25521937 1.2291681 0.12597258 90
0.23690078 1.2577021 0.15529142 75
0.23089266 1.2708982 0.010366729 69
0.25059772 1.2399675 0.029203463 100
0.23527005 1.2640271 0.051247578 82
0.23535615 1.2638919 0.071902916 48
0.25387803 1.2348185 0.087290429 71
0.2493661 1.2419007 0.10876112 72
0.25368279 1.2351248 0.1273223 89
0.23964307 1.2571628 0.15477379 67
0.24760264 1.2483454 0.0098780617 73
0.24583659 1.2511389 0.029831495 66
0.23593181 1.2668067 0.051421888 82
0.24768949 1.2482079 0.069465525 49
0.25550234 1.2358491 0.087290429 57
0.25101519 1.2429472 0.10876112 87
0.25426689 1.2378036 0.1277722 89
0.23308715 1.2713065 0.15891489 65
0.24183577 1.2612559 0.010122396 85
0.25070196 1.2471219 0.029517479 100
0.2397854 1.2645245 0.051073264 83
0.25779957 1.2358074 0.067515619 51
0.25293142 1.2435679 0.08854191 70
0.24432173 1.257293 0.11181407 98
0.25797272 1.2355313 0.12687239 99
0.23689213 1.2691367 0.15787962 65
0.24566588 1.2589332 0.010052586 86
0.25659096 1.2413814 0.029098792 100
0.23624924 1.2740617 0.051944822 81
0.24893734 1.2536774 0.069953002 49
0.26084948 1.2345397 0.086664692 71
0.25639915 1.2416894 0.10799789 79
0.26371866 1.2299302 0.12507279 92
0.23455289 1.276787 0.15995017 72
0.24930617 1.2564849 0.0099827768 87
0.2559731 1.2456987 0.029308135 100
0.24097696 1.2699605 0.051421888 82
0.25045833 1.2546208 0.069953002 49
0.2602331 1.2388065 0.087290429 57
0.24446362 1.2643195 0.11295892 89
0.2641404 1.2324849 0.12552269 90
0.24427223 1.2646291 0.15580906 67
0.25727874 1.2473036 0.0097733475 89
0.26181203 1.2399118 0.028889447 100
0.25105694 1.2574487 0.050027397 85
0.2500762 1.2590479 0.070440479 49
0.26393676 1.2364472 0.086664692 57
0.26569223 1.2335848 0.10570818 81
0.2677941 1.2301575 0.12462288 83
0.25100616 1.2575315 -0.0099827768 86
0.24802059 1.2623997 0.15477379 67
0.2599861 1.2466142 0.0097384425 75
0.25722483 1.2511522 0.029517479 100
0.23929644 1.280616 0.052293446 80
0.25900832 1.2482212 0.068734311 50
0.2594057 1.2475681 0.08854191 56
0.26016846 1.2463145 0.10837951 87
0.26433715 1.2394636 0.12687239 99
0.24873701 1.2651012 0.15529142 67
0.25441703 1.2596071 0.0099827768 87
0.26303512 1.2453319 0.029098792 100
0.24314019 1.2782861 0.051944822 81
0.25452363 1.2594304 0.07019674 82
0.26107448 1.2485795 0.08854191 56
0.25777417 1.2540462 0.10990598 85
0.2700063 1.2337848 0.12507279 92
0.24547485 1.2744188 0.15787962 65
0.25621352 1.2606871 0.0099827768 87
0.26477924 1.2463804 0.029098792 100
0.24193478 1.2845356 0.052467756 80
0.265497 1.2451817 0.068003096 51
0.27297783 1.232687 0.085413218 73
0.25854173 1.2567984 0.1102876 85
0.27971643 1.2214321 0.12147357 86
0.24831808 1.2738742 0.15736198 74
0.25997058 1.2582711 0.0099129668 87
0.26848382 1.2439388 0.028889447 100
0.25492522 1.2667651 0.05055033 100
0.2570197 1.2632389 0.070440479 49
0.27257699 1.2370479 0.086038955 72
0.26425326 1.2510611 0.10876112 72
0.27731305 1.2290746 0.12327318 85
0.25997058 1.2582711 -0.0099129668 87
0.25501168 1.2666194 0.15477379 67
0.26269194 1.2575576 0.0098780617 73
0.263042 1.2569637 0.029622151 100
0.26070711 1.2609259 0.049853086 85
0.26479006 1.2539972 0.068978049 50
0.27220324 1.2414172 0.086664692 57
0.26693094 1.2503642 0.10837951 79
0.27792782 1.2317026 0.12372308 83
0.25870857 1.2643175 0.15373851 68
0.2704508 1.2481995 0.0096686333 90
0.26776749 1.2527896 0.029308135 100
0.25035632 1.2825732 0.051944822 81
0.26848492 1.2515624 0.068490572 50
0.27484739 1.2406787 0.086351827 58
0.26860943 1.2513493 0.10837951 79
0.27757415 1.2360142 0.12462288 92
0.26043582 1.2653313 0.15373851 68
0.26902771 1.254313 0.0097733475 89
0.26937002 1.2537229 0.029308135 100
0.25705677 1.2749473 0.051073264 100
0.27307183 1.2473421 0.067759357 51
0.27541846 1.2432971 0.086664692 71
0.26725164 1.2573743 0.10952436 78
0.28596634 1.2251158 0.12147357 77
0.25820228 1.2729728 0.15580906 67
0.2677277 1.2604903 0.0098780617 88
0.2750451 1.2477752 0.028889447 100
0.25981492 1.2742399 0.050898954 83
0.27176932 1.2534673 0.068490572 50
0.28396934 1.232268 0.084474608 59
0.26699612 1.2617615 0.1102876 85
0.29047263 1.2209675 0.12012386 86
0.26092336 1.2723138 0.15529142 75
0.27250054 1.2563112 0.0097733475 89
0.28075752 1.241841 0.02847076 100
0.2636399 1.2718391 0.05055033 100
0.27157551 1.2579322 0.068978049 50
0.28566542 1.2332399 0.084474608 59
0.27561146 1.2508593 0.10761628 72
0.28922981 1.2269936 0.12147357 86
0.27448267 1.2528374 -0.0097035384 89
0.26851103 1.2633026 0.1521856 77
0.27616978 1.2537962 0.0097035384 90
0.28240618 1.2427779 0.02847076 100
0.27128181 1.2624322 0.049504463 86
0.26741359 1.2692665 0.070440479 49
0.28631103 1.2358789 0.084787481 59
0.28019279 1.2466885 0.10647142 81
0.28506717 1.2380766 0.12417299 83
0.26828977 1.2677184 -0.0099827768 86
0.26737994 1.2693259 0.15373851 68
0.27581716 1.2581887 0.0097733475 89
0.27615121 1.2575939 0.029308135 100
0.27096501 1.2668281 0.049853086 85
0.27879149 1.2528929 0.068003096 51
0.28495544 1.2419178 0.08572609 58
0.28081366 1.2492924 0.10685304 88
0.2875751 1.2372534 0.12372308 92
0.26714531 1.2736292 0.15477379 75
0.28044233 1.253902 0.0096686333 60
0.28465852 1.2463332 0.028575432 100
0.27367055 1.2660584 0.049678773 86
0.28047875 1.2538366 0.068003096 51
0.28948826 1.237663 0.084787481 59
0.28153294 1.2519441 0.10723466 88
0.29679441 1.2245471 0.12012386 86
0.27078527 1.2712381 0.15373851 68
0.27536389 1.2670922 0.0099129668 87
0.29115209 1.2385156 0.028052073 100
0.27444029 1.268764 0.049853086 85
0.28216931 1.2547745 0.068003096 51
0.29303282 1.2351115 0.084161744 59
0.28131807 1.2563152 0.10799789 79
0.29649785 1.2288398 0.12102367 86
0.27826497 1.2618413 -0.0098082526 99
0.27627349 1.2654458 0.15166797 77
0.27998349 1.2627869 0.0098082526 59
0.2812722 1.2604349 0.029308135 100
0.27618298 1.2697228 0.049853086 85
0.28577089 1.2522247 0.067515619 68
0.29465795 1.2360055 0.084161744 59
0.28207386 1.2589718 0.10837951 87
0.29810104 1.2297218 0.12102367 86
0.28286621 1.2575257 -0.0097035384 89
0.27986121 1.2630099 0.15063268 78
0.2884728 1.2514727 0.0095639192 91
0.29069805 1.2473761 0.02847076 100
0.28657532 1.254966 0.048284281 88
0.27996004 1.2671448 0.069465525 49
0.2973105 1.2352026 0.083848871 59
0.28480491 1.2582253 0.10799789 79
0.28274593 1.2620159 -0.0097733475 88
0.28167 1.2639967 0.15063268 70
0.29015505 1.2523828 0.0095639192 91
0.2866829 1.2588285 0.029098792 100
0.28638002 1.2593908 0.048632905 88
0.29487684 1.2436171 0.066053182 52
0.29116604 1.2505059 0.1060898 81
0.27973136 1.2717335 0.15270324 68
0.29269862 1.2514781 0.0095290141 76
0.29018804 1.256176 0.028889447 100
0.29082152 1.2549906 0.048109971 89
0.29270637 1.2514637 0.067028143 51
0.29489666 1.247365 0.08572609 58
0.29276088 1.2513616 0.1060898 73
0.28044617 1.2744057 -0.0099827768 86
0.28139666 1.2726271 0.15270324 68
0.29438084 1.2523733 0.0095290141 76
0.28785145 1.2646948 0.048981529 87
0.29438856 1.2523588 0.067028143 51
0.2916849 1.2574608 0.10723466 73
0.28595385 1.2682757 -0.0098431576 97
0.28586647 1.2684406 0.15115032 77
0.2952207 1.2550774 0.0095639192 91
0.29738855 1.25095 0.02847076 100
0.28966638 1.2656523 0.048981529 87
0.29431209 1.2568073 0.067515619 51
0.29164746 1.2618804 0.10799789 79
0.29336101 1.258618 -0.0096337283 100
0.29218665 1.2608539 0.14856213 71
0.29968649 1.250643 0.009459204 77
0.29906893 1.2518288 0.02847076 100
0.29784015 1.2541883 0.047761347 60
0.28959447 1.2700212 0.069221787 100
0.29568627 1.258324 0.14752686 71
0.29975143 1.2544327 0.028575432 100
0.29121733 1.2709532 0.049330149 87
0.29763156 1.2585363 0.067515619 51
0.29376045 1.2660301 0.14959741 78
0.29932526 1.2594401 0.048109971 59
0.2937322 1.2703605 0.15063268 70
0.29480866 1.2727921 0.049330149 58
0.29115775 1.2799853 -0.0099827768 100
0.29381916 1.2747416 0.15166797 69
0.29653478 1.2737405 0.0098431576 100
0.29818755 1.2704557 0.15011504 78
0.29633346 1.2825794 -0.0099827768 100
