# .PCD v0.7 - Point Cloud Data file format
VERSION 0.7
FIELDS x y z intensity
SIZE 4 4 4 4
TYPE F F F F
COUNT 1 1 1 1
WIDTH 731
HEIGHT 1
VIEWPOINT 0 0 0 1 0 0 0
POINTS 731
DATA ascii
0.053836644 0.0062672496 0.047730394 52
0.04679805 0.0013196468 0.048149079 29
0.049006283 0.01049155 0.015881689 9
0.043018162 0.0014135838 0.048253752 100
0.038909435 0.006542027 0.048149079 71
0.042948723 0.018265486 0.047521047 48
0.026856244 0.00021731853 0.048777111 24
0.029814303 0.010287941 0.048253752 17
0.026164055 0.010372877 0.048358422 8
0.030035973 0.027138472 0.047521047 9
0.0251441 0.025693536 0.047730394 9
-1.0622668 1.1380739 0.02886628 3
-1.0252535 1.129624 0.084679574 5
-1.0311248 1.1309644 0.14188954 6
-1.0317526 1.1369214 0.028342709 8
-1.0045328 1.1306072 0.083632857 16
-1.0201509 1.1342303 0.14101799 29
-0.99542731 1.1341845 0.027714422 23
-1.0032644 1.1360314 0.083632857 84
-1.0169308 1.1392518 0.14084367 81
-0.99408215 1.1398463 0.027714422 38
-0.99997014 1.1412567 0.083528183 100
-1.0213797 1.1463847 0.14136662 95
-0.98112339 1.1423984 0.027504992 43
-0.97343594 1.1405287 0.082167454 100
-1.0084405 1.1490425 0.14032075 91
-1.0012362 1.1527431 0.027888946 25
-0.98577255 1.1489277 0.082900152 100
-0.9975031 1.151822 0.13944919 91
-0.96885413 1.1503828 0.027330469 24
-0.98637789 1.1547713 0.083004825 56
-0.99036282 1.1557693 0.13892625 85
-0.95976478 1.1537119 0.027190849 35
-0.98502547 1.1601319 0.083004825 35
-0.99286884 1.1621253 0.13927488 78
-0.96616155 1.160977 0.027330469 50
-0.97978634 1.1644905 0.082795486 48
-0.98570281 1.1660161 0.13875194 89
-0.96672219 1.1667731 0.027365373 61
-0.9610098 1.1652787 0.081853434 100
-0.98623866 1.1718786 0.13892625 87
-0.97112638 1.1736035 0.027470088 67
-0.95769042 1.1700385 0.081748761 90
-0.96749467 1.1726398 0.13735744 99
-0.94839674 1.1734569 0.027086135 81
-0.96199971 1.1771196 0.082062781 100
-0.9640848 1.1776811 0.13718314 100
-0.93926293 1.1765782 0.026946515 92
-0.96249622 1.1829211 0.082167454 100
-0.96457464 1.1834885 0.13735744 99
-0.94568795 1.1833857 0.027086135 92
-0.94194061 1.1823499 0.081120729 100
-0.97094971 1.1903677 0.1380547 91
-0.95193809 1.1907618 0.027225753 96
-0.93664581 1.1864778 0.08091139 90
-0.96371752 1.1940618 0.13753176 94
-0.94846231 1.1957175 0.027190849 74
-0.93895179 1.1930155 0.081120729 80
-0.95257026 1.1968845 0.1366602 100
-0.95657545 1.2037115 0.027365373 55
-0.94130474 1.1993153 0.081330076 48
-0.9453271 1.2004733 0.13613728 100
-0.93785065 1.2036688 0.027051231 42
-0.93795532 1.2036995 0.081225403 22
-0.95536822 1.2087748 0.13718314 87
-0.93057424 1.2071609 0.026946515 68
-0.93068594 1.207194 0.08091139 26
-0.95191664 1.2134626 0.13700883 84
-0.92329174 1.2106076 0.026841801 75
-0.904275 1.2049204 0.079550654 34
-0.94081515 1.2158482 0.13613728 94
-0.92365855 1.2163273 0.026876707 78
-0.92377466 1.2163625 0.080702044 70
-0.92971557 1.2181618 0.13526571 99
-0.90695304 1.2162695 0.026597468 83
-0.91472632 1.2186506 0.080283359 100
-0.91687018 1.2193072 0.13421984 100
-0.90538639 1.2213526 0.026597468 88
-0.9226895 1.2267187 0.080806717 88
-0.92290479 1.2267854 0.1349171 80
-0.90364259 1.2269374 0.026597468 88
-0.91139823 1.2293754 0.080283359 72
-0.92494136 1.2336326 0.13526571 52
-0.90584987 1.2332214 0.026667276 81
-0.90217286 1.2320515 0.079864666 76
-0.90812522 1.2339454 0.13387123 43
-0.90430576 1.2380466 0.026667276 83
-0.90253383 1.2374765 0.079969339 84
-0.90657872 1.2387782 0.13387123 43
-0.89125472 1.2394047 0.026457848 96
-0.90089327 1.2425439 0.079969339 100
-0.90872234 1.2450938 0.13421984 57
-0.87829417 1.2404281 0.02624842 100
-0.89931828 1.2473526 0.079969339 100
-0.90903121 1.2505517 0.13439415 77
-0.88423198 1.2479397 0.026388038 99
-0.88816899 1.2492516 0.07944598 100
-0.91679591 1.2587912 0.13526571 85
-0.878681 1.2519149 0.02631823 93
-0.87694031 1.2513278 0.078922622 100
-0.9093309 1.2622535 0.13474278 71
-0.88834542 1.2607735 0.026527658 93
-0.87903208 1.2575957 0.079131968 100
-0.90194684 1.2654144 0.13421984 89
-0.86772066 1.2592677 0.02617861 93
-0.88487321 1.2651873 0.079550654 100
-0.88890833 1.2665797 0.13317397 100
-0.86978012 1.2655314 0.02624842 81
-0.87936455 1.2688766 0.079341307 100
-0.90221506 1.2768519 0.13456847 64
-0.86992747 1.2711499 0.026283324 74
-0.86254734 1.2685452 0.078503937 61
-0.90983099 1.2852335 0.13544002 36
-0.86440271 1.2747591 0.026213514 83
-0.84763104 1.2687737 0.077771232 27
-0.89113528 1.2842991 0.13387123 36
-0.86827523 1.2817292 0.02631823 96
-0.85903233 1.2783943 0.078503937 34
-0.87433821 1.2839168 0.13247673 30
-0.85520858 1.2825654 0.0261088 99
-0.86287814 1.285363 0.078817949 82
-0.86130506 1.2847891 0.13143086 16
-0.83482677 1.280066 0.025759751 100
-0.86312634 1.2904894 0.078922622 100
-0.86528963 1.2912862 0.13195379 13
-0.83303779 1.2848969 0.025759751 100
-0.84071165 1.2877536 0.077771232 95
-0.89520365 1.3080407 0.1349171 1
-0.84227866 1.2944328 0.025969181 100
-0.83123702 1.2902737 0.077352546 44
-0.87075299 1.3051583 0.13282534 1
-0.84417731 1.3007123 0.026038991 88
-0.83687896 1.2979341 0.077771232 53
-0.83535951 1.2973557 0.12968774 9
-0.82570356 1.2986341 0.025724847 72
-0.84453529 1.3058705 0.07829459 59
-0.85415381 1.3095665 0.13160518 46
-0.83130628 1.3063282 0.025864467 74
-0.84265631 1.3107351 0.07829459 68
-0.85411912 1.3151858 0.13177948 100
-0.82570261 1.3096859 0.025794657 88
-0.82960445 1.3112166 0.077666558 61
-0.84107894 1.3157181 0.13073361 99
-0.82566935 1.3152215 0.025829561 100
-0.81656629 1.3116138 0.077038527 87
-0.84657437 1.3235068 0.13143086 99
-0.82014066 1.3182945 0.025759751 100
-0.82774287 1.3213367 0.077771232 95
-0.82068413 1.318512 0.12916481 95
-0.81451052 1.321575 0.025689943 100
-0.82025486 1.3238971 0.077457212 97
-0.82614988 1.32628 0.12986206 100
-0.80517155 1.3233111 0.025550323 100
-0.82201117 1.3301867 0.077666558 97
-0.82788879 1.3325865 0.13021068 100
-0.797113 1.3200209 0.17866045 22
-0.80323189 1.3280382 0.025550323 100
-0.80342954 1.3281198 0.076724514 100
-0.81854886 1.3343546 0.12951343 100
-0.78600901 1.320936 0.17744176 20
-0.80486923 1.3345325 0.025620133 100
-0.79031318 1.3284675 0.076096483 100
-0.81831032 1.3401331 0.12968774 100
-0.77665108 1.3227749 0.17646681 18
-0.79920405 1.3377074 0.025550323 100
-0.79203743 1.3346919 0.076305822 96
-0.80529326 1.3402696 0.12864187 100
-0.80581862 1.3404906 0.18061037 28
-0.79363281 1.340615 0.025480513 99
-0.8030259 1.3446041 0.077038527 78
-0.79422539 1.3408667 0.12777032 100
-0.78382069 1.3364481 0.17792924 16
-0.80633563 1.3516064 0.025759751 59
-0.82854611 1.3611305 0.07860861 38
-0.80504245 1.3510518 0.1289905 41
-0.77453762 1.3379712 0.17695428 7
-0.81163758 1.3595154 0.025899371 86
-0.81181151 1.3595906 0.077771232 82
-0.82494658 1.3652775 0.13108224 41
-0.78165537 1.3465347 0.17817298 7
-0.79674536 1.3586586 0.025655037 100
-0.80425483 1.3619409 0.077457212 100
-0.8228603 1.3700733 0.13108224 100
-0.78145367 1.3519745 0.17841671 24
-0.80200034 1.366585 0.025794657 100
-0.80400759 1.3674707 0.077561885 100
-0.81164318 1.3708401 0.13021068 100
-0.78486258 1.3590229 0.17914793 29
-0.7944296 1.3688598 0.025689943 100
-0.81103605 1.3762569 0.078085244 100
-0.79861766 1.3707253 0.12916481 100
-0.80274504 1.3725638 0.18182907 42
-0.79233104 1.3735491 0.025689943 100
-0.81437629 1.3834612 0.078399263 100
-0.80923253 1.3811486 0.130385 100
-0.78252846 1.3691416 0.17939167 31
-0.79567891 1.3807101 0.025794657 100
-0.79949552 1.3824424 0.077666558 100
-0.80527669 1.385066 0.13021068 100
-0.76235241 1.3655856 0.17695428 18
-0.79353887 1.3854039 0.025794657 100
-0.80824453 1.3921397 0.07829459 100
-0.81942409 1.3972604 0.13177948 100
-0.78011793 1.3792564 0.17963541 15
-0.80045825 1.3942853 0.025969181 100
-0.80425161 1.396039 0.078189917 100
-0.80818373 1.3978567 0.13090792 100
-0.76717192 1.3788979 0.17817298 10
-0.79294354 1.3962249 0.025864467 100
-0.80940872 1.4039026 0.07860861 100
-0.79525989 1.397305 0.12986206 100
-0.77773923 1.3891349 0.17987914 10
-0.78351194 1.3975031 0.025724847 100
-0.81441635 1.4120456 0.079027295 100
-0.80027312 1.4053903 0.1305593 100
-0.7827546 1.3971467 0.18085411 3
-0.79395813 1.4081583 0.025969181 100
-0.80675429 1.4142343 0.078713275 100
-0.81244534 1.4169366 0.13195379 100
-0.7697981 1.3966862 0.17939167 1
-0.79352576 1.4137096 0.026004085 100
-0.79729253 1.4155145 0.07829459 100
-0.81377238 1.4234102 0.13230242 100
-0.80027241 1.4227471 0.02617861 100
-0.80402189 1.4245597 0.078817949 100
-0.80789572 1.4264324 0.13195379 100
-0.79079646 1.4239502 0.026038991 100
-0.81070441 1.4336598 0.079341307 100
-0.79843301 1.4276748 0.13125655 100
-0.78850561 1.4286263 0.026038991 100
-0.81017154 1.4392874 0.07944598 100
-0.80685526 1.4376554 0.13230242 100
-0.79336303 1.4368511 0.02617861 100
-0.80246013 1.441367 0.079131968 100
-0.80451638 1.4423878 0.13230242 100
-0.79460317 1.4433271 0.02624842 100
-0.79653662 1.4442954 0.078922622 100
-0.8164131 1.4542487 0.13369691 100
-0.79581445 1.4498198 0.02631823 100
-0.80308837 1.4534941 0.07944598 100
-0.80690283 1.455421 0.13299966 100
-0.79367203 1.4540443 0.02631823 100
-0.80805403 1.4613661 0.079864666 100
-0.80474275 1.4596803 0.13299966 100
-0.78771836 1.4569037 0.02624842 100
-0.8109625 1.4688393 0.080178685 100
-0.80764431 1.4671354 0.1335226 100
-0.78874272 1.4636419 0.02631823 100
-0.7995252 1.4692286 0.079655327 100
-0.81215614 1.4757731 0.13421984 100
-0.79694718 1.4738677 0.026527658 100
-0.79353601 1.472085 0.07944598 100
-0.80968422 1.4805236 0.13421984 100
-0.79448193 1.478565 0.026527658 92
-0.79284388 1.4777018 0.079550654 100
-0.81248349 1.4880521 0.13474278 100
-0.78670305 1.4804385 0.026422944 34
-0.80094725 1.488009 0.080178685 34
-0.79589409 1.4853232 0.13334829 76
0.13046804 1.2891896 0.12975012 5
0.14070842 1.2799668 0.011413874 12
0.13745669 1.2840183 0.03454173 27
0.098555863 1.3324878 0.063100755 19
0.14325166 1.276798 0.12631555 17
0.18773064 1.2213783 0.13362093 7
0.11590034 1.310877 0.18583207 6
0.15495306 1.2657534 0.011064826 38
0.16539186 1.2526536 0.032343622 60
0.14770484 1.2748494 0.056476921 48
0.15907505 1.2605807 0.077021427 14
0.15852627 1.2612693 0.099492319 12
0.14257619 1.2812855 0.12707879 70
0.20995411 1.1967313 0.12597258 16
0.14668518 1.276129 0.17340876 14
0.16164893 1.2608564 0.010925206 100
0.17203587 1.2477279 0.031924933 91
0.15441436 1.2700006 0.055779677 98
0.16571659 1.2557151 0.076046467 29
0.17249998 1.2471412 0.096363634 37
0.15654469 1.267308 0.12326261 100
0.18847242 1.2269529 0.13452072 38
0.14605707 1.2805638 0.17444403 42
0.1658352 1.259064 0.010855397 100
0.16877076 1.2553269 0.032343622 100
0.16846952 1.2557104 0.054036561 100
0.16128322 1.264859 0.077265166 29
0.17904878 1.2422423 0.095112152 38
0.17283598 1.2501516 0.1186832 100
0.19247726 1.2251471 0.13362093 31
0.15500182 1.2728555 0.1713382 43
0.16754472 1.260402 0.010855397 100
0.16555414 1.2629544 0.032762308 88
0.16036516 1.2696079 0.055431053 99
0.17522076 1.2505593 0.074827775 30
0.17584023 1.249765 0.096363634 25
0.1793437 1.2452728 0.11715672 100
0.18927449 1.2325391 0.13542053 30
0.15319541 1.2788012 0.17289113 42
0.17048311 1.2601528 0.010820492 91
0.17950478 1.2485012 0.031715591 61
0.15967193 1.2741157 0.055779677 73
0.18054643 1.2471559 0.07409656 30
0.1654236 1.2666873 0.099492319 24
0.18100497 1.2465637 0.11715672 39
0.18969819 1.2353362 0.13587044 30
0.1478776 1.2893482 0.17599694 34
0.17097765 1.2630601 0.010855397 78
0.19213244 1.2355403 0.030773543 32
0.16386256 1.2723159 0.055431053 49
0.18584374 1.2437211 0.073365346 46
0.18040264 1.2507993 0.096050762 51
0.18267074 1.2478487 0.11715672 13
0.19726306 1.2288661 0.13362093 23
0.14851555 1.2922804 0.1765146 61
0.16542199 1.2739179 0.011064826 51
0.17679584 1.2590146 0.032238949 30
0.16320083 1.2768283 0.055779677 49
0.18268228 1.2513015 0.074340299 46
0.19047216 1.2410944 0.093860678 52
0.18434098 1.2491281 0.11715672 13
0.203596 1.2238979 0.13182132 31
0.16557735 1.2737143 0.16978529 66
0.17442906 1.2656941 0.010855397 39
0.15196976 1.2953367 0.03454173 27
0.17580125 1.263883 0.054210871 51
0.18076816 1.2573276 0.075071514 60
0.19569758 1.237623 0.092922069 53
0.19194376 1.2425774 0.11524864 13
0.20518252 1.2251043 0.13182132 39
0.1813378 1.2565756 0.16357364 69
0.17856577 1.2638059 0.010785587 39
0.17061418 1.2743771 0.033076324 29
0.17752749 1.2651862 0.054210871 51
0.19440424 1.2427493 0.072634131 63
0.1985195 1.2372782 0.092609204 53
0.19831613 1.2375486 0.11372216 13
0.1997447 1.2356493 0.13452072 38
0.18071598 1.2609472 0.16460891 77
0.18986347 1.2522813 0.010506349 54
0.17237708 1.2756984 0.033076324 29
0.1768741 1.2696762 0.054559495 50
0.1913057 1.25035 0.073609084 62
0.19424316 1.2464162 0.094173551 65
0.201125 1.2372003 0.11334054 13
0.21303204 1.2212548 0.13002171 40
0.18127608 1.2637812 0.16512655 68
0.18083134 1.2679933 0.010820492 78
0.21220592 1.2256703 0.029726824 33
0.17506102 1.2757773 0.055082429 75
0.19534895 1.2484097 0.073121607 78
0.20061386 1.2413075 0.092922069 79
0.21211126 1.225798 0.1102876 14
0.2157698 1.2208629 0.12957181 32
0.18415242 1.2635133 0.16460891 69
0.18476927 1.2659304 0.010750682 79
0.20771727 1.2347703 0.030250182 65
0.18137774 1.2705356 0.054385185 76
0.20038512 1.2447263 0.072390392 95
0.20912459 1.2328594 0.091044858 81
0.19375339 1.2537313 0.1167751 13
0.21603227 1.2234797 0.13002171 24
0.18799579 1.2615492 0.16357364 69
0.19122335 1.260745 0.010611063 94
0.21169919 1.2327375 0.03004084 66
0.1913583 1.2605605 0.053165004 100
0.20087278 1.2475463 0.072634131 78
0.21307403 1.2308571 0.090419121 100
0.21282429 1.2311987 0.11105084 14
0.22681814 1.2120575 0.12642249 16
0.19541457 1.2550122 0.16098544 72
0.20711559 1.2426335 0.010192205 99
0.202842 1.2485242 0.030982886 63
0.18964878 1.2667098 0.053687938 78
0.20845386 1.2407887 0.071415432 64
0.20664555 1.2432814 0.092609204 100
0.21566978 1.2308424 0.11066922 14
0.2444613 1.1911559 0.12012386 8
0.19152251 1.264127 0.16357364 77
0.19941863 1.256809 0.010471444 96
0.21618629 1.2335259 0.029936166 66
0.18789181 1.2728149 0.054210871 100
0.20893922 1.2435889 0.071659178 64
0.21060848 1.241271 0.091983467 100
0.21498585 1.2351928 0.11143246 14
0.24934974 1.1874759 0.11877415 17
0.18873367 1.2716459 0.16564418 83
0.19879419 1.2612834 0.010541254 95
0.22129089 1.2298139 0.029622151 100
0.18964916 1.2740757 0.054210871 100
0.20828557 1.2480063 0.072146654 79
0.21110681 1.2440598 0.092296332 100
0.21775347 1.2347622 0.11105084 21
0.25080884 1.1885228 0.11877415 17
0.19048694 1.2729039 0.16564418 68
0.19588223 1.2690296 0.010680873 93
0.22405377 1.2293297 0.029517479 67
0.19141093 1.2753305 0.054210871 100
0.20880741 1.2508152 0.072390392 95
0.22076586 1.233963 0.090106249 96
0.20460773 1.2567334 0.11601187 26
0.23422742 1.2149928 0.12597258 16
0.2000705 1.2631273 0.16202073 70
0.19992942 1.2669929 0.010611063 94
0.21645796 1.2435274 0.030354854 65
0.20006108 1.266806 0.053165004 100
0.20248586 1.2633636 0.07409656 76
0.21669969 1.2431843 0.091670595 100
0.20517829 1.2595412 0.11639348 59
0.23017165 1.2240583 0.12822211 32
0.20179397 1.2643459 0.16202073 70
0.21312472 1.2518233 0.010262015 98
0.21696848 1.2463257 0.030459527 97
0.2017974 1.2680244 0.053165004 100
0.21785975 1.2450509 0.071171694 65
0.22174913 1.2394881 0.090731993 100
0.20913911 1.2575238 0.11563025 100
0.22952527 1.2283661 0.1291219 64
0.20573559 1.2623918 0.16098544 72
0.21235871 1.2561642 0.010331824 84
0.2218844 1.2424483 0.030145511 98
0.20336369 1.2691159 0.053165004 100
0.22048613 1.2444617 0.070927955 48
0.21759164 1.2486293 0.092296332 100
0.22411111 1.2392421 0.11105084 91
0.22763202 1.2341723 0.13047162 80
0.20728418 1.2634709 0.16098544 72
0.20951805 1.2639254 0.010471444 96
0.22920334 1.2353687 0.029622151 100
0.20510805 1.2703229 0.053165004 100
0.21425778 1.2570497 0.072634131 78
0.22823352 1.2367756 0.089793384 100
0.21572274 1.2549245 0.1144854 100
0.23810241 1.2224591 0.12687239 82
0.2310819 1.2326435 -0.0098082526 11
0.20133376 1.2757981 0.16460891 69
0.20455727 1.2750735 0.010680873 80
0.22527355 1.2447841 0.030145511 65
0.20919368 1.2682946 0.05281638 100
0.22052777 1.2517229 0.071659178 64
0.23217684 1.2346908 0.089167647 100
0.22082731 1.251285 0.11334054 96
0.23206192 1.2348588 0.13002171 96
0.21300533 1.2627215 0.15995017 72
0.21867684 1.2580768 0.010296919 56
0.22356755 1.2508721 0.030459527 65
0.21653026 1.2612389 0.051944822 81
0.21775159 1.2594397 0.072634131 78
0.23601979 1.2325287 0.08854191 100
0.22361198 1.2508067 0.11295892 100
0.23478103 1.2343534 0.12957181 96
0.21906739 1.2575014 0.15787962 73
0.22932133 1.2459631 0.010017681 43
0.21743619 1.2636034 0.03119223 31
0.21490726 1.267357 0.052467756 53
0.22833559 1.2474262 0.070684217 81
0.23432493 1.2385365 0.089480512 100
0.2307772 1.2438022 0.11105084 100
0.2287817 1.2467639 0.13272113 94
0.21861222 1.2618579 0.15891489 73
0.2220923 1.2603779 0.010296919 42
0.20805925 1.281364 0.032238949 30
0.21221542 1.2751485 0.053165004 52
0.23000407 1.2485461 0.070684217 65
0.23486432 1.2412777 0.089793384 97
0.22697657 1.2530736 0.11295892 100
0.23478079 1.2414026 0.13092151 96
0.21710965 1.2678294 0.1604678 72
0.22380605 1.2615196 0.010296919 28
0.24076939 1.2359586 0.029308135 34
0.21398079 1.2763245 0.053165004 52
0.23387179 1.2463522 0.07019674 82
0.24197277 1.2341453 0.088229038 98
0.23192155 1.2492908 0.11181407 98
0.24289361 1.2327578 0.12822211 97
0.21671295 1.2722076 0.16150309 70
0.22332391 1.2659953 0.010366729 27
0.1874688 1.3204343 0.03454173 27
0.22122973 1.2691748 0.052293446 53
0.23116896 1.254084 0.071171694 81
0.24250829 1.2368674 0.08854191 98
0.23143679 1.2536774 0.1125773 89
0.2455827 1.2321994 0.1277722 89
0.22909406 1.2572343 0.1563267 74
0.22278175 1.2704231 0.010436539 27
0.1892961 1.3216336 0.03454173 27
0.23379064 1.2535869 0.05055033 56
0.23494875 1.2518158 0.070684217 81
0.24838245 1.2312713 0.087290429 85
0.23841462 1.2465153 0.11066922 92
0.24818358 1.2315754 0.1273223 97
0.22965428 1.2599127 0.15684435 74
0.22888464 1.2648524 0.010296919 42
0.21296787 1.2893808 0.032448292 29
0.2268042 1.2680584 0.051944822 54
0.24527714 1.2395909 0.068734311 84
0.24461797 1.2406067 0.088854775 100
0.24862939 1.2344248 0.10761628 87
0.24449268 1.2407997 0.12957181 96
0.22821158 1.2658896 0.15839726 73
0.24368897 1.2458487 0.0098780617 73
0.24190006 1.2486277 0.029831495 66
0.2329455 1.2625384 0.051247578 55
0.24377692 1.245712 0.069465525 49
0.24955249 1.2367398 0.087916173 84
0.24820831 1.2388279 0.10837951 87
0.25465861 1.2288076 0.12597258 82
0.22793996 1.2703145 0.15943253 73
0.23019359 1.2704521 0.010366729 69
0.24779084 1.2429149 0.029412808 67
0.22814345 1.2736603 0.052293446 53
0.23894256 1.2567612 0.070927955 97
0.24684715 1.2443917 0.089167647 70
0.23919299 1.2563694 0.11219569 91
0.25408301 1.2330686 0.12687239 82
0.22960085 1.2713797 0.15943253 73
0.24265143 1.2546778 0.010017681 43
0.25051308 1.2422802 0.029308135 100
0.23630545 1.2646852 0.051247578 82
0.24064359 1.257844 0.070927955 48
0.25485218 1.2354376 0.087290429 71
0.25035512 1.2425293 0.10876112 79
0.25570121 1.2340987 0.12687239 90
0.23238748 1.2708635 0.15891489 65
0.25065216 1.2455404 0.0098082526 74
0.24888885 1.2483416 0.029622151 100
0.24643883 1.2522336 0.049853086 85
0.23803297 1.2655871 0.071902916 96
0.26060662 1.2297268 0.086038955 72
0.24460256 1.2551507 0.11143246 91
0.25724185 1.2350721 0.12687239 90
0.23816678 1.2653744 0.15684435 66
0.24913576 1.2516705 0.0099129668 87
0.24632806 1.2561655 0.03004084 99
0.23862439 1.2684988 0.051421888 82
0.25448781 1.2431021 0.068490572 50
0.25802714 1.2374358 0.087290429 57
0.2556586 1.2412277 0.10799789 79
0.25886703 1.2360911 0.12687239 90
0.23580411 1.2730138 0.15891489 65
0.25284222 1.2492664 0.0098431576 88
0.25425673 1.2469851 0.029412808 100
0.23292986 1.2813818 0.05264207 79
0.24768987 1.2575763 0.070440479 49
0.26061976 1.2367226 0.086977564 57
0.2520501 1.250544 0.10990598 85
0.26349494 1.2320853 0.12552269 90
0.24154589 1.2674856 0.15684435 66
0.24622068 1.2639794 0.010122396 85
0.25705317 1.2463646 0.029308135 100
0.23585001 1.2808433 0.052467756 80
0.2505188 1.2569902 0.07019674 99
0.25922799 1.242828 0.087916173 56
0.24764284 1.2616668 0.11219569 91
0.26927379 1.2264924 0.12372308 92
0.24337134 1.2686127 0.15684435 66
0.25098604 1.2598635 0.010017681 87
0.25655329 1.2507429 0.029517479 100
0.24688822 1.2665768 0.050898954 83
0.25420389 1.2545918 0.069709264 49
0.26903108 1.230301 0.085413218 58
0.25848079 1.2475851 0.10876112 72
0.27281973 1.2240942 0.12282328 85
0.2470395 1.2663289 0.15580906 67
0.25589028 1.2558242 0.0099129668 87
0.25728294 1.2535238 0.029622151 100
0.2549012 1.257458 0.049853086 85
0.25701001 1.2539746 0.069465525 49
0.27276605 1.2279481 0.084787481 59
0.25413284 1.2587272 0.11105084 100
0.2704491 1.2317753 0.12462288 83
0.25186205 1.2624782 0.15425615 67
0.25750294 1.2567968 0.0099129668 87
0.25888798 1.2544918 0.029622151 100
0.24831003 1.2720964 0.051247578 82
0.25452694 1.2617497 0.070440479 49
0.26818183 1.2390242 0.086664692 57
0.26586664 1.2428772 0.10723466 73
0.26897091 1.237711 0.12597258 90
0.25051188 1.2684319 0.15580906 67
0.26133636 1.2544299 0.0098431576 88
0.26577759 1.2469769 0.029098792 100
0.25219211 1.2697756 0.050898954 83
0.26446053 1.249187 0.068490572 50
0.26990277 1.240054 0.086664692 86
0.25755197 1.2607808 0.11105084 98
0.27966496 1.2236712 0.12192347 85
0.25431854 1.2662071 0.15477379 67
0.2568368 1.2657119 0.010052586 86
0.27651104 1.2324445 0.028156744 100
0.25486529 1.2690456 0.05072464 84
0.27413508 1.2364621 0.066540658 52
0.27548525 1.234179 0.085413218 58
0.26717609 1.248229 0.10799789 72
0.2781949 1.2295973 0.12327318 93
0.25399888 1.2705106 0.15580906 67
0.26270211 1.2598833 0.0099129668 87
0.27214554 1.2437809 0.028784776 100
0.25568843 1.2718426 0.050898954 83
0.26781282 1.2511687 0.068490572 50
0.27818772 1.2334781 0.085100345 58
0.25999221 1.2645041 0.11143246 91
0.28678209 1.2188236 0.12012386 86
0.26169908 1.2615936 0.15270324 68
0.2713694 1.2487353 0.0096686333 90
0.26367158 1.2619615 0.029831495 100
0.27038297 1.2504301 0.048632905 100
0.26940998 1.2521019 0.068490572 50
0.27873251 1.2360842 0.085413218 73
0.27545941 1.2417079 0.1060898 66
0.28239036 1.2297994 0.12282328 85
0.26333085 1.2625469 0.15270324 68
0.26604328 1.2618275 0.0099129668 87
0.26738787 1.2594986 0.029622151 100
0.26209974 1.2686579 0.05037602 100
0.27109453 1.2530785 0.068490572 50
0.27542266 1.2455819 0.086977564 57
0.27121788 1.2528648 0.10837951 79
0.28009951 1.2374814 0.12462288 83
0.26312006 1.2668906 0.15373851 68
0.27364039 1.2523558 0.0097035384 90
0.27496997 1.2500352 0.028994121 100
0.26870728 1.2609661 0.049504463 86
0.2746717 1.2505558 0.068003096 51
0.2828933 1.2362058 0.085100345 58
0.27574861 1.2486762 0.10723466 88
0.28746381 1.2282286 0.12192347 85
0.26092789 1.2745442 0.15580906 67
0.27648196 1.2516745 0.0096686333 75
0.27878764 1.2476141 0.028784776 100
0.26272395 1.2759029 0.050898954 83
0.27455848 1.2550619 0.068490572 50
0.28761163 1.2320747 0.084161744 59
0.27952749 1.2463113 0.10647142 73
0.28730068 1.2326224 0.12282328 85
0.27253225 1.2586302 -0.0098082526 88
0.26095945 1.2790102 0.15684435 66
0.27317247 1.2612897 0.0098431576 88
0.28233388 1.2450309 0.028575432 100
0.27418387 1.2594948 0.049155839 87
0.27811751 1.2525136 0.068003096 51
0.28914538 1.2329423 0.084161744 59
0.27725339 1.2540473 0.10799789 87
0.28883624 1.2334909 0.12282328 85
0.27513579 1.2578053 -0.0097733475 88
0.27213252 1.2631353 0.15166797 77
0.27595025 1.2605553 0.0098082526 89
0.27433598 1.2634449 0.029622151 100
0.27792323 1.2570237 0.048807215 88
0.27214268 1.2673709 0.069953002 49
0.2937341 1.2287219 0.083223134 60
0.28094435 1.2516158 0.10723466 81
0.29053676 1.2344451 0.12282328 85
0.27204919 1.2675383 -0.0099478718 86
0.28336358 1.2472852 0.14649157 72
0.28727323 1.2439717 0.009459204 93
0.279847 1.2573689 0.029203463 100
0.27471009 1.2666361 0.049678773 86
0.27764311 1.2613448 0.068978049 50
0.28855294 1.241663 0.085413218 58
0.28349471 1.2507882 0.10685304 88
0.28829929 1.2421206 0.12462288 83
0.27089909 1.2735114 0.15425615 75
0.28314912 1.2553999 0.0096686333 75
0.287323 1.2478077 0.028575432 100
0.27644536 1.2675941 0.049678773 86
0.28414151 1.2535948 0.067759357 68
0.29020095 1.2425728 0.085413218 58
0.28517461 1.2517157 0.10685304 81
0.29933703 1.2259543 0.12012386 86
0.27545041 1.2694039 0.15270324 68
0.28093007 1.2633042 0.0098082526 74
0.29273441 1.2416626 0.028156744 100
0.26855648 1.2859896 0.051421888 82
0.28099388 1.2631873 0.068978049 50
0.29366127 1.2399633 0.084787481 59
0.28301311 1.2594852 0.10837951 79
0.27614233 1.272082 -0.0099827768 96
0.27710798 1.2703116 0.15270324 76
0.28369102 1.2625282 0.0097733475 89
0.28686532 1.2566574 0.028994121 100
0.2780306 1.2729969 0.050027397 85
0.27902669 1.2711546 0.069953002 49
0.29820409 1.2356868 0.083848871 59
0.28761026 1.2552797 0.10723466 81
0.28273991 1.2642872 -0.0098082526 88
0.28629425 1.2577136 0.14856213 71
0.29005209 1.2545977 0.0095988233 76
0.29225704 1.2504872 0.028575432 100
0.2891182 1.2563386 0.048284281 88
0.28819695 1.258056 0.068003096 51
0.29788223 1.2400007 0.084474608 59
0.29386115 1.2474968 0.10532656 75
0.28517342 1.2636926 0.15011504 78
0.2966072 1.2467632 0.0094242999 93
0.29222918 1.2550006 0.028784776 100
0.27696159 1.2837269 0.050898954 55
0.29473108 1.2502933 0.066784397 86
0.29968876 1.2409652 0.084474608 59
0.29385373 1.2519441 0.1060898 81
0.28440678 1.2697185 -0.0098780617 87
0.29341757 1.2527646 0.14649157 81
0.29361132 1.2564902 0.0095988233 76
0.29578608 1.2523637 0.028575432 100
0.28340107 1.2758639 0.050027397 85
0.29733467 1.2494252 0.066540658 52
0.29645291 1.2510984 0.10570818 73
0.28429601 1.2741657 0.15270324 68
0.29716334 1.2538376 0.0095290141 92
0.28885952 1.2697281 0.049330149 87
0.29631528 1.2554605 0.10647142 81
0.29160649 1.2644714 -0.0097384425 99
0.28516278 1.2768023 0.15322088 76
0.2933341 1.2653704 0.0097384425 90
0.2970216 1.2582533 0.048109971 59
0.29064229 1.2705655 0.069221787 83
0.29981777 1.2528567 0.10570818 66
0.29149419 1.2689214 -0.0098082526 88
0.29315463 1.2657167 0.14959741 70
0.29711482 1.2620614 0.028994121 100
0.2986553 1.2590638 0.067515619 51
0.29792723 1.2647207 0.029098792 68
0.29856157 1.2634757 0.068003096 100
0.29035699 1.2795781 -0.0099827768 100
0.28864139 1.2829452 0.15425615 75
0.29846939 1.267946 0.048807215 58
0.29402041 1.2767534 0.069709264 83
0.29740173 1.2700596 0.15011504 78
0.29664063 1.275947 0.049504463 57
0.29914883 1.2709383 0.15011504 78
0.29570743 1.282269 -0.0099827768 100
0.29926288 1.2795651 -0.0099129668 100
