# .PCD v0.7 - Point Cloud Data file format
VERSION 0.7
FIELDS x y z intensity
SIZE 4 4 4 4
TYPE F F F F
COUNT 1 1 1 1
WIDTH 740
HEIGHT 1
VIEWPOINT 0 0 0 1 0 0 0
POINTS 740
DATA ascii
0.054587156 0.0068395138 0.015881689 100
0.055190742 0.0077693462 0.047625721 49
0.056304932 0.015267372 0.015742071 33
0.048159719 0.002815485 0.04804441 33
0.044519544 0.002816081 0.048149079 100
0.039635301 0.0012573004 0.048358422 94
0.044860244 0.014575839 0.047625721 77
0.039994419 0.013030946 0.047835063 37
0.034846961 0.011690617 0.04804441 27
0.031075001 0.011845291 0.048149079 17
0.031622946 0.0235973 0.047625721 9
0.022150576 0.015592575 0.048253752 8
0.010314703 0.0043800473 0.049091127 7
-0.74473649 0.65535885 0.022688128 25
-0.71357995 0.66655886 0.022129651 128
-0.72790581 0.67009985 0.022373985 133
-0.71825951 0.67508423 0.022199461 127
-0.73854536 0.67831403 0.02254851 85
-0.73285705 0.68299341 0.022443796 100
-0.72518486 0.68820792 0.022304175 125
-0.71946114 0.69280118 0.022199461 123
-0.7377035 0.69642794 0.022513604 78
-1.019537 1.1277425 0.084365562 5
-1.039021 1.1321836 0.1425868 6
-1.0396731 1.1381741 0.028482327 8
-0.99687546 1.128262 0.083214171 13
-1.0280421 1.1354803 0.14171524 19
-0.99166125 1.1327291 0.027644612 18
-1.0111687 1.1373188 0.084051549 78
-1.0112412 1.1373359 0.14032075 65
-0.98455089 1.1367139 0.027539898 37
-1.0021069 1.1409092 0.083632857 100
-1.0215764 1.1455619 0.14136662 100
-0.98131818 1.1415967 0.027504992 43
-0.97945255 1.1411439 0.082481466 100
-1.0028303 1.1468168 0.13979781 86
-0.99554485 1.1507665 0.02778423 28
-0.97814769 1.1464804 0.082481466 100
-1.0015054 1.152235 0.13979781 86
-0.97480673 1.1513078 0.027435184 23
-0.98263699 1.153266 0.082795486 61
-0.99049729 1.1552316 0.13892625 87
-0.96571344 1.1546606 0.027295563 35
-0.98709744 1.1600875 0.083109498 35
-0.99686795 1.162567 0.13962349 71
-0.96242493 1.1594504 0.027260659 59
-0.97798973 1.1634583 0.082690813 39
-0.98584098 1.16548 0.13875194 89
-0.96105629 1.1647273 0.027260659 64
-0.95921534 1.1642464 0.081748761 90
-0.9767403 1.1688244 0.1380547 91
-0.96740121 1.1720482 0.027400278 72
-0.9616912 1.1705353 0.081958108 96
-0.97726482 1.1746616 0.13822901 94
-0.95261103 1.1731856 0.027155945 81
-0.95656735 1.1742473 0.081748761 94
-0.96251565 1.1758432 0.13700883 100
-0.94347626 1.1763284 0.027016325 93
-0.95321995 1.1789793 0.081644088 100
-0.96108979 1.1811204 0.13700883 100
-0.94190508 1.1820599 0.027016325 92
-0.94778806 1.1836848 0.081434749 100
-0.97102302 1.1901022 0.1380547 91
-0.94430894 1.1883433 0.027086135 93
-0.93287176 1.1851413 0.080702044 90
-0.96187288 1.1932604 0.13735744 92
-0.94668704 1.1946485 0.027155945 83
-0.93525654 1.1914053 0.08091139 80
-0.96038622 1.1985353 0.13735744 99
-0.96057039 1.2042906 0.027435184 51
-0.93953496 1.1982429 0.081225403 52
-0.94164771 1.1988503 0.13578865 100
-0.9418419 1.2042673 0.027121039 39
-0.9342714 1.2020636 0.081016064 22
-0.94404334 1.2049081 0.13613728 87
-0.93456286 1.2077754 0.027016325 66
-0.92317563 1.2044175 0.080492698 26
-0.94442719 1.2106842 0.13631158 84
-0.9234454 1.2100933 0.026841801 74
-0.91973656 1.2089856 0.080388032 30
-0.94478887 1.2164682 0.13648589 89
-0.92190021 1.2152339 0.026841801 74
-0.92393035 1.215848 0.080702044 60
-0.93368596 1.218799 0.13561434 100
-0.91085511 1.2171859 0.026667276 78
-0.92435354 1.2213179 0.080806717 100
-0.92075878 1.2202175 0.13456847 100
-0.90928525 1.2222824 0.026667276 89
-0.92658466 1.2276442 0.081016064 88
-0.91917831 1.2253487 0.13456847 84
-0.90014499 1.2247258 0.026527658 89
-0.90409559 1.2259647 0.079864666 76
-0.92526466 1.2326027 0.13526571 52
-0.90617281 1.2322049 0.026667276 83
-0.90249509 1.2310376 0.079864666 72
-0.91034776 1.2335302 0.13404553 42
-0.90446895 1.2375391 0.026667276 83
-0.89699262 1.2351358 0.079655327 91
-0.89725822 1.2352211 0.13299966 48
-0.89522165 1.2401388 0.026527658 99
-0.90675598 1.243891 0.080283359 100
-0.90699345 1.2439682 0.13404553 54
-0.88605648 1.2424291 0.026388038 100
-0.90138203 1.2474709 0.080074012 100
-0.8978433 1.2463067 0.13334829 82
-0.88060397 1.2461759 0.02631823 99
-0.88833624 1.2487496 0.07944598 100
-0.91507608 1.2576499 0.13509139 82
-0.88263911 1.2526932 0.026388038 99
-0.88846463 1.2546558 0.079550654 100
-0.90572649 1.2604718 0.13439415 77
-0.8809455 1.257691 0.026388038 96
-0.88109261 1.2577412 0.079236634 100
-0.90023381 1.2642648 0.13404553 87
-0.87553912 1.2611308 0.02631823 96
-0.87757903 1.2618335 0.079131968 100
-0.88728446 1.2651772 0.13299966 100
-0.86626273 1.2634721 0.02617861 79
-0.88339764 1.2694424 0.079550654 100
-0.90436167 1.276747 0.13474278 75
-0.8683036 1.2697418 0.02624842 77
-0.86092442 1.2671417 0.078399263 65
-0.9025839 1.2818205 0.13474278 40
-0.86843425 1.2753606 0.026283324 88
-0.84601051 1.2673715 0.077666558 27
-0.89328116 1.2842131 0.13404553 33
-0.86854297 1.2809865 0.02631823 93
-0.85929841 1.2776566 0.078503937 25
-0.87460715 1.2831709 0.13247673 30
-0.85547668 1.2818295 0.0261088 96
-0.86502451 1.2853065 0.078922622 68
-0.87280709 1.2881407 0.13247673 16
-0.83875817 1.2809634 0.025829561 100
-0.85768467 1.2879272 0.07860861 100
-0.86547154 1.2907921 0.13195379 13
-0.84071463 1.2872021 0.025899371 100
-0.8427642 1.2879643 0.077875905 100
-0.88045186 1.3019803 0.1335226 1
-0.84255308 1.2937037 0.025969181 100
-0.82777041 1.2881444 0.0771432 46
-0.89341146 1.3128302 0.1349171 1
-0.85193199 1.302824 0.02617861 92
-0.8390221 1.2979174 0.077875905 48
-0.84494752 1.3001695 0.1305593 7
-0.83708924 1.3024536 0.025934275 70
-0.84099311 1.3039522 0.078085244 57
-0.85620219 1.3097904 0.13177948 41
-0.82403594 1.3029535 0.025724847 75
-0.83912069 1.3088044 0.078085244 68
-0.84687918 1.3118137 0.13108224 90
-0.82589084 1.3092058 0.025794657 88
-0.82421464 1.3085488 0.077352546 59
-0.85610944 1.3210483 0.1321281 100
-0.82585961 1.3147414 0.025829561 99
-0.82604033 1.3148129 0.077561885 72
-0.83935755 1.3200855 0.13073361 99
-0.8240456 1.3193009 0.025829561 100
-0.82422608 1.319373 0.077561885 95
-0.82642561 1.3202523 0.12968774 99
-0.81099457 1.3196012 0.025620133 100
-0.82600397 1.3256624 0.077771232 95
-0.83003885 1.3272917 0.13021068 100
-0.80536455 1.3228381 0.025550323 100
-0.82590526 1.3312165 0.077875905 97
-0.82255059 1.3298481 0.12968774 100
-0.80281907 1.3217998 0.17939167 21
-0.80722207 1.3288524 0.025620133 100
-0.80741531 1.3289319 0.076933853 100
-0.82437116 1.3359137 0.13003637 100
-0.77344829 1.3149457 0.17573559 18
-0.81264859 1.3366579 0.025759751 100
-0.79070264 1.3275316 0.076096483 100
-0.82606667 1.3422377 0.130385 100
-0.76787215 1.3180375 0.17524812 16
-0.80338663 1.3380777 0.025620133 100
-0.80357927 1.3381586 0.076933853 100
-0.80579036 1.3390867 0.12864187 100
-0.78252095 1.3293195 0.17744176 20
-0.79383188 1.3401461 0.025480513 100
-0.78851742 1.3378912 0.076201156 81
-0.79442459 1.3403975 0.12777032 100
-0.7803635 1.3344318 0.17744176 18
-0.80296344 1.3493218 0.025689943 59
-0.8141672 1.3541193 0.077771232 38
-0.79618877 1.346421 0.12811895 48
-0.77483481 1.3372777 0.17695428 11
-0.81755573 1.3609443 0.026004085 79
-0.8085559 1.3570553 0.077561885 74
-0.81987506 1.3619465 0.1305593 33
-0.77476865 1.3424551 0.17719802 11
-0.80275756 1.3598809 0.025759751 100
-0.79744786 1.3575656 0.077038527 100
-0.81973082 1.3672823 0.13073361 93
-0.77104336 1.3460517 0.17695428 20
-0.7987563 1.364029 0.025724847 100
-0.8062523 1.3673304 0.077666558 100
-0.82300264 1.3747077 0.13125655 100
-0.79254025 1.3612913 0.18012288 33
-0.7912969 1.3660622 0.025620133 100
-0.8060891 1.3726357 0.077771232 100
-0.80278271 1.3711665 0.12951343 100
-0.77605981 1.3592908 0.17817298 28
-0.79275197 1.3726118 0.025689943 100
-0.81480426 1.3825085 0.078399263 100
-0.80784124 1.3793836 0.13021068 100
-0.76302463 1.3592705 0.17671055 22
-0.79256803 1.3778861 0.025724847 100
-0.80548781 1.3837359 0.077980578 100
-0.80944294 1.3855267 0.1305593 100
-0.76648837 1.3660778 0.17744176 18
-0.79931635 1.3871956 0.025899371 100
-0.79948872 1.3872745 0.077771232 100
-0.81794053 1.3957145 0.13160518 100
-0.76960558 1.3736055 0.17817298 14
-0.8045252 1.3950181 0.026038991 100
-0.80287486 1.3942566 0.078085244 100
-0.80138534 1.3935692 0.13021068 100
-0.77660888 1.3821366 0.17939167 10
-0.79134947 1.3949115 0.025829561 100
-0.81144029 1.4042716 0.078713275 100
-0.7990908 1.3985181 0.13021068 100
-0.77075762 1.3853183 0.17890419 8
-0.78565007 1.3976552 0.025759751 100
-0.80571431 1.4070839 0.078503937 100
-0.80421203 1.4063779 0.13090792 100
-0.75972682 1.3854733 0.1776855 5
-0.79598755 1.4085462 0.026004085 100
-0.80337018 1.4120486 0.078503937 100
-0.80547065 1.413045 0.13125655 100
-0.77719074 1.3996289 0.18036664 3
-0.79386264 1.4130061 0.026004085 100
-0.79943198 1.4156709 0.078399263 100
-0.81051975 1.4209762 0.13195379 100
-0.80061406 1.4220401 0.02617861 100
-0.79896849 1.4212457 0.078503937 100
-0.80465072 1.4239888 0.13160518 100
-0.79125267 1.4230139 0.026038991 100
-0.80218869 1.4283383 0.078817949 100
-0.80963999 1.4319661 0.13230242 100
-0.7853753 1.4259286 0.025969181 100
-0.80705315 1.4365766 0.079236634 100
-0.80553275 1.4358296 0.1321281 100
-0.79036063 1.4339035 0.0261088 100
-0.80304545 1.4401865 0.079131968 100
-0.80867344 1.4429741 0.13265105 100
-0.79865021 1.4441764 0.02631823 100
-0.79700702 1.4433551 0.078922622 100
-0.80976194 1.4497311 0.13299966 100
-0.79997855 1.4504452 0.026388038 100
-0.79833382 1.4496162 0.079131968 100
-0.80038375 1.4506495 0.13230242 100
-0.790227 1.4519961 0.02624842 100
-0.80283445 1.4584116 0.079550654 100
-0.79953605 1.4567331 0.13247673 100
-0.78795809 1.4564366 0.02624842 100
-0.80409831 1.4647174 0.07976 100
-0.80788749 1.4666615 0.1335226 100
-0.78910571 1.4629409 0.02631823 100
-0.79811734 1.467604 0.079550654 100
-0.80190843 1.4695659 0.13317397 100
-0.7974382 1.4729271 0.026527658 100
-0.79579657 1.4720707 0.079550654 100
-0.81547934 1.4823387 0.13474278 100
-0.79131371 1.4759982 0.026457848 96
-0.79144686 1.4760683 0.07944598 100
-0.81109625 1.4864106 0.13456847 100
-0.78189939 1.4766932 0.02631823 44
-0.79086238 1.4814489 0.079550654 44
-0.79991311 1.4862511 0.13369691 84
0.12550402 1.298533 0.011832732 11
0.13727728 1.2838743 0.03454173 27
0.098359555 1.3323301 0.063100755 19
0.1356985 1.28584 0.12860526 17
0.20343691 1.2015001 0.1277722 8
0.13748646 1.2836138 0.1765146 6
0.15478003 1.2656155 0.011064826 38
0.16895911 1.2478346 0.032029606 60
0.15498179 1.2653625 0.055431053 49
0.15147796 1.2697563 0.078483857 14
0.14603892 1.276577 0.10262101 11
0.14606985 1.2765384 0.12593393 60
0.18672052 1.2255614 0.13452072 15
0.1501219 1.271457 0.17185585 14
0.15154731 1.2732632 0.011204445 100
0.17186916 1.2475959 0.031924933 91
0.1530031 1.2714245 0.055953987 97
0.15322486 1.2711444 0.078483857 14
0.17723823 1.2408144 0.095112152 25
0.15637112 1.2671707 0.12326261 100
0.18226466 1.234466 0.13677025 37
0.14707807 1.2789081 0.1739264 42
0.16566452 1.2589298 0.010855397 100
0.17477289 1.2473427 0.03182026 100
0.16583744 1.2587099 0.054385185 100
0.16111052 1.2647232 0.077265166 29
0.17155927 1.2514309 0.096989371 37
0.17388168 1.2484765 0.11830158 100
0.18870544 1.2296185 0.13497064 45
0.15243858 1.2757552 0.17237349 42
0.16474071 1.2632868 0.010925206 100
0.18242115 1.2406487 0.031296901 94
0.15265828 1.2787572 0.056476921 100
0.18221658 1.2409106 0.073365346 31
0.1755054 1.2495037 0.096363634 25
0.17659512 1.2481084 0.11791996 100
0.18535316 1.2368946 0.13677025 45
0.1540294 1.2770016 0.17237349 42
0.17014101 1.2598878 0.010820492 91
0.17917082 1.2482424 0.031715591 61
0.15443659 1.2801411 0.056476921 72
0.1777806 1.2500353 0.074584037 30
0.17233965 1.2570523 0.097615108 24
0.1878905 1.236997 0.11486702 60
0.18340278 1.2427846 0.13811995 30
0.14041245 1.2982274 0.17910278 33
0.17071953 1.2628615 0.010855397 65
0.18458036 1.2448499 0.031401575 31
0.16359958 1.2721136 0.055431053 49
0.16743606 1.2671282 0.077021427 87
0.18617454 1.2427783 0.094486415 39
0.16805267 1.266327 0.12173614 12
0.18157265 1.2487583 0.13946965 22
0.14942032 1.290539 0.17599694 48
0.17487028 1.2610044 0.010785587 52
0.17532733 1.2604063 0.032343622 30
0.17140254 1.2655433 0.054559495 50
0.18725091 1.2447995 0.073365346 46
0.19742104 1.2314879 0.091983467 40
0.18766582 1.2442565 0.11601187 19
0.20217532 1.225265 0.13227122 31
0.16883212 1.2689077 0.16823238 67
0.17650059 1.2622457 0.010785587 65
0.16971204 1.2711926 0.032971654 29
0.17063925 1.2699705 0.054908119 50
0.1792281 1.258651 0.075315252 90
0.1977593 1.2342283 0.092296332 53
0.19161391 1.2423273 0.11524864 13
0.2060428 1.2233112 0.13137141 39
0.17866275 1.2593961 0.16460891 69
0.18062744 1.260352 0.010715778 39
0.18348086 1.2565639 0.031924933 30
0.16759169 1.2776573 0.055605363 49
0.19407427 1.2425009 0.072634131 94
0.19462776 1.2417662 0.093547814 52
0.20625851 1.226326 0.11105084 14
0.20059219 1.2338482 0.13407083 38
0.17572394 1.2668614 0.16667947 67
0.18721637 1.255296 0.010576159 40
0.17569989 1.2707015 0.032762308 29
0.17661253 1.2694807 0.054559495 50
0.19818559 1.2406224 0.072146654 79
0.19635925 1.2430656 0.093547814 52
0.19970492 1.23859 0.11372216 13
0.211629 1.2226391 0.13047162 40
0.17986092 1.2651354 0.16564418 68
0.18295404 1.2645884 0.010750682 79
0.18935251 1.2559665 0.031715591 30
0.1831077 1.2643813 0.053862248 51
0.19273248 1.2514122 0.073609084 77
0.20272157 1.237952 0.092296332 66
0.20719269 1.2319272 0.11181407 14
0.21088839 1.2269473 0.13137141 31
0.18274277 1.264873 0.16512655 68
0.18459618 1.2658029 0.010750682 79
0.19689068 1.249121 0.03119223 63
0.18238509 1.268803 0.054210871 76
0.18962002 1.2589862 0.074584037 76
0.21130696 1.22956 0.090419121 82
0.20756164 1.2346419 0.11219569 14
0.21124941 1.2296381 0.13182132 31
0.18323973 1.2676433 0.16564418 68
0.19577509 1.2541642 0.010471444 82
0.20092389 1.2471267 0.030982886 63
0.18530491 1.2684752 0.054036561 77
0.19367334 1.2570369 0.07409656 76
0.20474845 1.2418993 0.092609204 93
0.20802638 1.2374189 0.1125773 13
0.21975988 1.2213812 0.1291219 16
0.19410458 1.2564476 0.16150309 70
0.19973335 1.2521007 0.010401634 83
0.20368198 1.2466658 0.030878214 63
0.1904732 1.2648462 0.053513627 100
0.20695847 1.2421561 0.071659178 80
0.20515412 1.2446396 0.092922069 100
0.21534815 1.2306087 0.11066922 14
0.23042205 1.2098613 0.12552269 16
0.19231313 1.2623137 0.163056 70
0.19907886 1.2565641 0.010471444 96
0.21469447 1.2349126 0.03004084 66
0.18520996 1.2757939 0.054559495 100
0.19931912 1.2562311 0.073609084 77
0.20796853 1.2442384 0.092609204 93
0.20662221 1.2461051 0.11410378 13
0.22853962 1.2157159 0.12687239 8
0.19629392 1.2604256 0.16202073 70
0.20077944 1.2577862 0.010471444 82
0.21399406 1.2393281 0.030250182 65
0.19161698 1.2705841 0.053862248 100
0.21257421 1.2413113 0.071171694 65
0.20617628 1.250248 0.093547814 100
0.20600051 1.2504934 0.11486702 13
0.25732318 1.1788067 0.11607474 18
0.19350967 1.2679404 0.16409127 69
0.19553393 1.2687823 0.010680873 100
0.21563435 1.2404982 0.030250182 65
0.19336653 1.271832 0.053862248 100
0.20962173 1.2489587 0.072146654 63
0.21586484 1.2401738 0.09135773 100
0.20085618 1.2612931 0.11715672 19
0.2282725 1.2227145 0.12822211 16
0.2019645 1.2597336 0.16098544 72
0.19958255 1.2667484 0.010611063 94
0.22648901 1.228606 0.029412808 67
0.20201129 1.2633054 0.05281638 100
0.20900714 1.2533882 0.072634131 78
0.21636942 1.2429515 0.091670595 100
0.20257324 1.2625089 0.11715672 53
0.22536147 1.2302045 0.13002171 32
0.2036761 1.2609454 0.16098544 72
0.20820051 1.2581402 0.010401634 83
0.21319929 1.2510012 0.030773543 96
0.20373535 1.2645172 0.05281638 100
0.21069658 1.2545755 0.072634131 63
0.2157563 1.2473495 0.092296332 100
0.20654669 1.2605021 0.11639348 99
0.22473434 1.2345275 0.13092151 56
0.20760804 1.2589864 0.15995017 72
0.20762402 1.2626145 0.010471444 96
0.2217195 1.2423337 0.030145511 98
0.20318949 1.2689949 0.053165004 100
0.22485223 1.2378263 0.069953002 66
0.21855196 1.2468913 0.091983467 93
0.21834508 1.2471889 0.11295892 89
0.22635785 1.2356601 0.13092151 88
0.20380434 1.2681103 0.16253836 70
0.21161669 1.2605145 0.010401634 97
0.23130918 1.2319686 0.029412808 100
0.20040795 1.2767625 0.053862248 100
0.22085112 1.2471285 0.071171694 81
0.22919229 1.2350372 0.089480512 97
0.22335726 1.2434956 0.11181407 84
0.22687867 1.238391 0.13137141 94
0.20225421 1.2740862 0.16409127 69
0.21107143 1.2649927 0.010471444 82
0.21825469 1.2545018 0.030773543 96
0.20893282 1.268116 0.05281638 100
0.21578953 1.2581021 0.072634131 78
0.22970152 1.2377841 0.089793384 100
0.21281114 1.2624519 0.11601187 100
0.23181856 1.2346923 0.13002171 96
0.21165594 1.2641391 0.1604678 72
0.21833616 1.2578453 0.010296919 70
0.2310923 1.2390823 0.029726824 67
0.21506724 1.2626536 0.052119136 100
0.22745466 1.2444329 0.070440479 49
0.2301439 1.2404773 0.090106249 100
0.22658777 1.245708 0.11181407 91
0.23445693 1.2341332 0.12957181 96
0.22307169 1.2508798 0.15580906 75
0.2200411 1.2590001 0.010296919 42
0.21820882 1.2617155 0.031087559 31
0.20898801 1.2753808 0.053339314 52
0.22356102 1.2537836 0.071659178 64
0.23399791 1.2383161 0.089480512 100
0.2337409 1.2386969 0.10990598 92
0.22953895 1.2449242 0.13227122 94
0.21286616 1.2696333 0.16150309 70
0.21498647 1.2700596 0.010506349 40
0.23318097 1.2429014 0.029831495 33
0.21177474 1.2748536 0.053165004 52
0.23621583 1.2383714 0.069221787 83
0.2333537 1.2426436 0.090106249 96
0.23638961 1.2381121 0.10952436 85
0.23762345 1.2362703 0.12957181 100
0.21667534 1.2675387 0.1604678 72
0.22116283 1.2645651 0.010366729 41
0.21714008 1.2706152 0.031506244 31
0.22346741 1.2610991 0.051596198 54
0.23345622 1.2460761 0.07019674 66
0.24047413 1.2355213 0.08854191 100
0.23041639 1.2506479 0.11219569 91
0.2435689 1.2308668 0.1277722 89
0.221623 1.2638731 0.15891489 73
0.22500801 1.262315 0.010296919 42
0.23200592 1.2517142 0.030250182 32
0.21851191 1.2721558 0.05264207 53
0.23503667 1.2471231 0.07019674 82
0.24201956 1.2365451 0.08854191 98
0.23633841 1.2451513 0.11066922 85
0.24187806 1.2367594 0.1291219 96
0.22113395 1.2681837 0.15995017 72
0.22791016 1.2618301 0.010262015 28
0.21188945 1.2862936 0.032343622 30
0.23127002 1.2566996 0.050898954 55
0.23026228 1.2582384 0.071659178 64
0.24589604 1.2343657 0.087916173 84
0.23915762 1.2446553 0.1102876 85
0.24145564 1.2411462 0.13002171 96
0.2314291 1.2564566 0.15580906 75
0.23499286 1.2545129 0.010087491 43
0.231022 1.2606205 0.03066887 32
0.2296277 1.262765 0.051421888 55
0.24162138 1.2443175 0.069465525 99
0.24205393 1.2436522 0.089480512 97
0.24394372 1.2407455 0.10914274 85
0.24408194 1.240533 0.12957181 100
0.23093799 1.2607497 0.15684435 74
0.23885432 1.2522489 0.010017681 43
0.24789587 1.2382352 0.029203463 34
0.2291894 1.2672286 0.051770512 54
0.23897406 1.2520633 0.070440479 65
0.24906391 1.2364249 0.087916173 84
0.24239567 1.2467601 0.1102876 85
0.24678278 1.2399604 0.1291219 96
0.2253215 1.2732235 0.1604678 72
0.236141 1.2600136 0.0101573 42
0.24837303 1.2409163 0.029308135 68
0.23191464 1.2666121 0.051596198 54
0.24913979 1.2397192 0.068490572 50
0.24848139 1.2407471 0.08854191 70
0.24609613 1.2444711 0.10952436 85
0.25570038 1.2294765 0.12597258 90
0.22699204 1.2742975 0.1604678 72
0.24025413 1.2578931 0.010087491 71
0.25454774 1.2353787 0.028889447 100
0.23711434 1.2628388 0.051073264 83
0.24889985 1.2442749 0.068978049 67
0.26096103 1.2252769 0.085413218 58
0.2374807 1.2622616 0.11334054 100
0.2575472 1.2306541 0.12597258 82
0.23419613 1.2674353 0.15787962 65
0.24720466 1.2504588 0.0099129668 87
0.25183308 1.2431147 0.029308135 100
0.24193722 1.258817 0.05055033 56
0.24306551 1.2570267 0.070684217 98
0.26036593 1.2295752 0.086038955 72
0.25376934 1.2400423 0.10799789 79
0.25492033 1.238216 0.1277722 89
0.23790744 1.2652111 0.15684435 66
0.24986014 1.249765 0.0098780617 73
0.24704799 1.2542602 0.029936166 99
0.24778664 1.2530794 0.049853086 85
0.24784067 1.2529931 0.069953002 49
0.25141487 1.2472799 0.089167647 70
0.248041 1.2526729 0.11066922 100
0.26164234 1.2309315 0.12552269 90
0.23750219 1.2695189 0.15787962 65
0.25145274 1.2507577 0.0098780617 73
0.25708476 1.2416884 0.029098792 100
0.24203268 1.2659271 0.051073264 83
0.24944401 1.2539924 0.069953002 49
0.25508344 1.2449111 0.08854191 84
0.25482184 1.2453324 0.10876112 79
0.26008824 1.2368517 0.12687239 99
0.23508376 1.277117 0.15995017 64
0.2458759 1.2637672 0.010122396 99
0.25462583 1.2495611 0.029517479 100
0.24280754 1.2687489 0.051247578 82
0.2501789 1.256781 0.07019674 82
0.26304176 1.2358972 0.086664692 57
0.24832925 1.259784 0.11181407 98
0.26588923 1.2312741 0.12507279 100
0.23289207 1.2848474 0.16202073 63
0.24542886 1.2681853 0.010192205 85
0.25830129 1.2471298 0.029308135 100
0.25277707 1.2561657 0.049853086 85
0.25386563 1.2543852 0.069709264 66
0.26870978 1.2301047 0.085413218 73
0.25405127 1.2540816 0.1102876 71
0.26742041 1.2322137 0.12507279 100
0.25377327 1.2545363 -0.0099129668 87
0.25072372 1.2595245 0.15373851 68
0.25563595 1.2556702 0.0099129668 87
0.25495934 1.2567865 0.029831495 100
0.25051516 1.2641189 0.05055033 84
0.24955419 1.2657044 0.071171694 97
0.27047852 1.2311814 0.085413218 58
0.26100022 1.2468196 0.10837951 87
0.26919726 1.2332954 0.12507279 83
0.25160423 1.2623221 0.15425615 75
0.25827891 1.2549301 0.0098780617 88
0.26378214 1.245782 0.029098792 100
0.24907422 1.2702311 0.051073264 83
0.25426951 1.261595 0.070440479 98
0.27099112 1.2337985 0.08572609 58
0.25853488 1.2545047 0.10990598 78
0.2697306 1.2358938 0.12552269 90
0.25025097 1.268275 0.15580906 67
0.25894859 1.2576625 0.0099129668 87
0.26135033 1.2536384 0.029517479 100
0.26001194 1.2558808 0.049504463 100
0.26005667 1.255806 0.069465525 49
0.26754996 1.2432508 0.087290429 57
0.26425248 1.2487757 0.10837951 87
0.27735087 1.2268292 0.12282328 85
0.24803185 1.2759538 0.15787962 65
0.25852907 1.2620661 0.0099827768 87
0.27211672 1.2391272 0.028575432 100
0.25553235 1.2671251 0.05055033 84
0.26268095 1.2550569 0.069221787 33
0.27314779 1.2373865 0.086038955 58
0.25883785 1.2615448 0.11105084 84
0.28184676 1.2227008 0.12147357 77
0.25364953 1.2703037 0.15580906 67
0.26143312 1.2614572 0.0099478718 73
0.26684111 1.2522469 0.029308135 100
0.25744334 1.2682521 0.05055033 84
0.26354045 1.2578683 0.069465525 49
0.27694488 1.2350392 0.085413218 58
0.26569769 1.2541943 0.10914274 78
0.28161353 1.227088 0.12237337 76
0.26042062 1.2631816 -0.0099827768 86
0.25752905 1.2681062 0.15477379 67
0.26105085 1.265867 0.010017681 72
0.26944742 1.2514576 0.029203463 100
0.26110345 1.2657766 0.050201707 85
0.26715872 1.2553852 0.068978049 50
0.27451032 1.2427691 0.086664692 57
0.26532802 1.2585269 0.10990598 78
0.27724394 1.2380779 0.12507279 100
0.26890877 1.2523819 0.14959741 70
0.26878804 1.256485 0.0098082526 74
0.26813114 1.2576214 0.029517479 100
0.26482999 1.2633322 0.049853086 85
0.2698482 1.254651 0.068734311 84
0.28209376 1.2334666 0.084787481 59
0.2709651 1.2527187 0.10837951 79
0.28278053 1.2322786 0.12327318 85
0.26092631 1.2700855 0.15477379 67
0.27438286 1.2504765 0.0096686333 75
0.27770004 1.2446938 0.028680105 100
0.26448476 1.2677317 0.050201707 85
0.27639562 1.2469678 0.067515619 51
0.28068343 1.2394929 0.08572609 58
0.27354425 1.2519385 0.10799789 79
0.28722394 1.228091 0.12192347 85
0.25777999 1.2794199 0.15736198 74
0.2762298 1.2515312 0.0096686333 90
0.28051189 1.2439995 0.028575432 100
0.26344383 1.2740204 0.05072464 84
0.27626678 1.2514662 0.068003096 51
0.28444079 1.237089 0.085100345 58
0.27539682 1.2529964 0.10799789 79
0.29476374 1.2189322 0.11922406 87
0.26733473 1.2671766 -0.0099827768 86
0.25878337 1.2822176 0.15787962 65
0.26603729 1.2733362 0.010087491 71
0.28306657 1.2431511 0.02847076 100
0.27196965 1.2628208 0.049504463 86
0.2778649 1.2523713 0.068003096 51
0.28987363 1.2310853 0.083848871 59
0.26831803 1.2692935 0.11143246 91
0.29146621 1.2282624 0.12147357 77
0.27488041 1.2576615 -0.0097733475 88
0.2680774 1.2697201 0.15373851 76
0.27942944 1.2533364 0.0096686333 75
0.27878347 1.2544903 0.029098792 100
0.27847153 1.2550476 0.048632905 88
0.27752668 1.2567353 0.068490572 50
0.28947425 1.2353927 0.084474608 59
0.28915507 1.2359629 0.1038001 76
0.29489106 1.2257164 0.12057377 77
0.27539799 1.260538 0.15063268 70
0.2858887 1.2454903 0.0094941091 92
0.28427085 1.2484031 0.028680105 100
0.27427679 1.2663957 0.049678773 86
0.27914226 1.2576363 0.068490572 50
0.2823863 1.2517959 0.087290429 57
0.28593516 1.2454066 0.10570818 81
0.29545742 1.2282634 0.12102367 77
0.27229473 1.2699641 -0.0099827768 86
0.27327397 1.2682011 0.15270324 68
0.282895 1.2552601 0.0096686333 75
0.28803596 1.2459204 0.02847076 100
0.28002787 1.260469 0.048981529 87
0.28484559 1.2517165 0.067515619 51
0.29090607 1.2407061 0.085100345 58
0.28681582 1.248137 0.1060898 81
0.29533949 1.2326517 0.12192347 76
0.27612051 1.2675676 0.1521856 77
0.27779642 1.2684284 0.0099129668 87
0.2896156 1.2467865 0.02847076 100
0.27115124 1.2805964 0.050898954 83
0.28263861 1.259562 0.068490572 50
0.29341522 1.2398291 0.084787481 59
0.29028484 1.2455611 0.10532656 75
0.27587947 1.2719386 -0.0099827768 86
0.27499419 1.2735596 0.15373851 68
0.28334725 1.2623421 0.0097733475 89
0.28937915 1.251205 0.028680105 100
0.28337261 1.2622952 0.048981529 87
0.28245836 1.2639832 0.068978049 50
0.29976055 1.2320369 0.083223134 60
0.28540158 1.258549 0.10799789 79
0.29942259 1.2326609 0.12147357 86
0.28334725 1.2623421 -0.0097733475 88
0.28595382 1.2575294 0.14856213 71
0.29349983 1.24737 0.009459204 93
0.29475766 1.2450291 0.028261416 100
0.28877875 1.2561564 0.048284281 88
0.29161462 1.2508786 0.067028143 51
0.29942414 1.2363443 0.083848871 59
0.29259861 1.2490473 0.10570818 81
0.28498137 1.2632236 -0.0097733475 88
0.28574321 1.2618058 0.14959741 78
0.29713127 1.244777 0.0093893949 93
0.29462269 1.249487 0.02847076 100
0.28306955 1.2711787 0.049678773 86
0.2952452 1.2483182 0.066540658 52
0.29742065 1.2442336 0.085100345 58
0.29066452 1.2569187 0.10723466 81
0.28754756 1.262771 0.14959741 70
0.29123366 1.2597575 0.0096686333 75
0.29808021 1.2467995 0.028261416 100
0.2875253 1.2667763 0.049155839 87
0.29312336 1.256181 0.067515619 51
0.2873781 1.2670548 0.15063268 70
0.29024741 1.2660172 0.0097733475 89
0.29982945 1.2477195 0.028261416 100
0.28657493 1.27303 0.049678773 86
0.29859069 1.2500851 0.066540658 52
0.29771328 1.2517605 0.10570818 81
0.28746432 1.2713317 -0.0098780617 97
0.28292817 1.2799938 0.15425615 75
0.29558092 1.2597775 0.0096337283 90
0.29008135 1.2703648 0.049330149 87
0.29652378 1.2579625 0.067515619 51
0.29840726 1.2543367 0.1060898 73
0.28820646 1.2739741 -0.0099129668 97
0.29441673 1.2620188 0.14856213 79
0.29558811 1.264183 0.068246834 51
0.29280126 1.2695965 -0.0098082526 100
0.29445329 1.2663875 0.14959741 70
0.29539302 1.2686181 0.048981529 58
0.2988838 1.2664795 0.14907977 78
0.29271406 1.2828934 0.050201707 56
0.29356387 1.2811995 -0.0099827768 100
0.29879916 1.2707629 0.15011504 78
0.2998018 1.2731388 -0.0098082526 100
0.2990208 1.2839005 -0.0099827768 100
