# .PCD v0.7 - Point Cloud Data file format
VERSION 0.7
FIELDS x y z intensity
SIZE 4 4 4 4
TYPE F F F F
COUNT 1 1 1 1
WIDTH 727
HEIGHT 1
VIEWPOINT 0 0 0 1 0 0 0
POINTS 727
DATA ascii
0.04760325 0.0066265464 0.015951499 8
0.04321599 0.0060721636 0.04804441 100
0.043882191 0.012827218 0.047730394 76
0.041374087 0.014509737 0.047730394 38
0.030891776 0.0047196746 0.048463095 25
0.022163689 0.0034273267 0.048777111 8
0.030875385 0.021684945 0.047730394 9
0.014536619 0.0038568974 0.048986454 7
-1.0389357 1.1324558 0.028447423 3
-1.0175273 1.1275723 0.084260888 5
-1.0370154 1.1320177 0.14241248 6
-1.0201919 1.1336621 0.028133279 8
-1.0104957 1.1314166 0.083946876 15
-1.020278 1.1336821 0.14101799 22
-0.99549085 1.1339147 0.027714422 22
-1.0052724 1.1362181 0.08373753 82
-1.0266919 1.1412617 0.14171524 74
-0.99038571 1.1381083 0.027644612 38
-0.99627918 1.1395166 0.083318844 100
-1.0215764 1.1455619 0.14136662 95
-0.98902613 1.1437516 0.027644612 42
-0.97356516 1.1399969 0.082167454 100
-1.012445 1.1494389 0.14066938 87
-0.98583668 1.1483748 0.027609708 26
-0.99172252 1.1498249 0.083214171 100
-0.98989815 1.1493753 0.13875194 92
-0.97474021 1.151574 0.027435184 23
-0.99032003 1.155473 0.083214171 60
-0.99816126 1.1574352 0.13962349 79
-0.96758443 1.1554173 0.027330469 38
-0.98122197 1.1588808 0.082795486 33
-0.99486834 1.1623466 0.13944919 78
-0.97010273 1.1617103 0.027400278 59
-0.97792107 1.163725 0.082690813 46
-0.99155992 1.1672395 0.13927488 91
-0.9687261 1.1670141 0.027400278 66
-0.96687573 1.1665304 0.082167454 94
-0.98052591 1.1700987 0.13840333 91
-0.95186776 1.168213 0.027121039 75
-0.96934348 1.1728466 0.082376793 96
-0.96949071 1.1728857 0.13753176 98
-0.9427442 1.1713761 0.026981421 88
-0.95828432 1.1755546 0.081853434 96
-0.96615106 1.1776699 0.13735744 100
-0.95491058 1.1800035 0.027225753 92
-0.94729596 1.1779289 0.081330076 100
-0.96479088 1.1826954 0.13735744 99
-0.95732528 1.1863189 0.027295563 92
-0.93816227 1.1810261 0.08091139 100
-0.97102302 1.1901022 0.1380547 92
-0.95586282 1.1915779 0.027295563 92
-0.94825822 1.189449 0.081539422 90
-0.9599542 1.1927233 0.13718314 94
-0.93899196 1.1924652 0.027016325 81
-0.9429422 1.193586 0.081330076 82
-0.94696909 1.1947285 0.13613728 100
-0.95288306 1.2020805 0.027295563 55
-0.93569595 1.1971391 0.081016064 50
-0.94739217 1.2005018 0.13631158 100
-0.94944566 1.2067647 0.027260659 41
-0.92269057 1.1989713 0.080388032 22
-0.95544475 1.2085121 0.13718314 84
-0.92880875 1.2060785 0.026911611 64
-0.91742855 1.2027227 0.080178685 26
-0.94824928 1.2118113 0.1366602 84
-0.9234454 1.2100933 0.026841801 75
-0.91399533 1.2072707 0.080074012 30
-0.93142551 1.2124768 0.13526571 92
-0.91623551 1.2132411 0.026737086 78
-0.92783171 1.2167467 0.08091139 68
-0.92613572 1.216234 0.1349171 100
-0.90320665 1.2148446 0.026527658 81
-0.92244381 1.2207333 0.080702044 100
-0.92837936 1.2225503 0.13526571 99
-0.912947 1.2239771 0.026737086 92
-0.91116458 1.2234241 0.080178685 88
-0.91901928 1.2258615 0.13456847 84
-0.91135341 1.229081 0.026737086 81
-0.90385658 1.2267259 0.079864666 80
-0.9212206 1.2321808 0.1349171 52
-0.90974194 1.2341793 0.026737086 83
-0.89844674 1.2305876 0.079655327 76
-0.91200358 1.2348984 0.13421984 43
-0.89288443 1.2343709 0.026457848 88
-0.90823752 1.2393121 0.080283359 80
-0.90088886 1.2369471 0.13334829 48
-0.88753361 1.2379153 0.026388038 96
-0.90477401 1.2435269 0.080178685 100
-0.91259438 1.2460725 0.13456847 57
-0.88969022 1.2441815 0.026457848 100
-0.89742118 1.2467278 0.079864666 100
-0.91660076 1.2530448 0.13509139 77
-0.88431531 1.2476894 0.026388038 100
-0.89014763 1.2496318 0.079550654 100
-0.91310054 1.2572761 0.1349171 85
-0.89021927 1.2552471 0.026527658 99
-0.89035732 1.2552936 0.079655327 100
-0.9019503 1.2591995 0.13404553 77
-0.87707502 1.25665 0.02631823 99
-0.88478822 1.2592802 0.07944598 100
-0.89826173 1.2638748 0.13387123 89
-0.86032921 1.256166 0.026038991 99
-0.88126963 1.2633846 0.079341307 100
-0.89473242 1.2680254 0.13369691 100
-0.86617655 1.2637192 0.02617861 79
-0.87199491 1.2657477 0.078922622 100
-0.90803593 1.2783126 0.13509139 70
-0.87207574 1.271071 0.02631823 78
-0.85904068 1.2664779 0.07829459 63
-0.9025839 1.2818205 0.13474278 36
-0.87202471 1.2771993 0.026353134 88
-0.85336155 1.2705426 0.078085244 25
-0.88371867 1.2813703 0.13317397 39
-0.85716635 1.2771659 0.0261088 99
-0.85920972 1.2779025 0.078503937 27
-0.87076885 1.2820685 0.1321281 31
-0.84420282 1.2777239 0.025899371 96
-0.8631478 1.2846231 0.078817949 72
-0.87655133 1.2895042 0.13282534 16
-0.8462649 1.2837255 0.025969181 100
-0.850187 1.2851685 0.078189917 100
-0.8823002 1.2969838 0.1335226 13
-0.84812099 1.2902343 0.026038991 100
-0.83331448 1.2847248 0.077352546 99
-0.88782829 1.3050091 0.13421984 1
-0.84638816 1.2948678 0.026038991 100
-0.83159989 1.2893093 0.077352546 42
-0.87112623 1.3041662 0.13282534 1
-0.83697802 1.2971406 0.025899371 92
-0.84275609 1.2993366 0.078085244 53
-0.83749789 1.2973381 0.12986206 7
-0.82962173 1.2995871 0.025794657 72
-0.84845144 1.3068151 0.078503937 57
-0.86178225 1.3119324 0.13230242 46
-0.83326417 1.3068106 0.025899371 78
-0.83344084 1.306879 0.077771232 72
-0.86164397 1.3178241 0.13247673 100
-0.82589084 1.3092058 0.025794657 90
-0.81863588 1.3063625 0.077038527 67
-0.84126931 1.3152325 0.13073361 99
-0.83320111 1.3179274 0.025969181 100
-0.82965893 1.3165243 0.077771232 85
-0.83555692 1.3188605 0.130385 97
-0.82023638 1.3180554 0.025759751 100
-0.83154792 1.3225797 0.077980578 91
-0.82817942 1.3212324 0.12986206 95
-0.8108986 1.3198388 0.025620133 100
-0.83331424 1.3288952 0.078189917 95
-0.82994157 1.3275325 0.13021068 100
-0.80906779 1.3243486 0.025620133 100
-0.81480926 1.3266904 0.077247873 97
-0.83361953 1.334363 0.13073361 100
-0.77157193 1.3090544 0.17524812 16
-0.81062657 1.3310876 0.025689943 100
-0.79235107 1.3235512 0.076096483 100
-0.82039088 1.3351142 0.12968774 100
-0.76949233 1.3141249 0.17524812 15
-0.81245071 1.3371334 0.025759751 100
-0.80157131 1.3326049 0.076724514 100
-0.81115168 1.3365928 0.1289905 100
-0.78600734 1.3261261 0.1776855 18
-0.79930311 1.337472 0.025550323 100
-0.79950017 1.3375548 0.076724514 100
-0.80355614 1.3392606 0.12846756 100
-0.79676896 1.3364062 0.17939167 22
-0.7863695 1.3372552 0.025340894 99
-0.80496472 1.3451483 0.0771432 78
-0.797993 1.3421891 0.12811895 100
-0.76564676 1.3284589 0.17549185 16
-0.81011313 1.3529452 0.025829561 60
-0.81029183 1.3530219 0.077561885 40
-0.80514389 1.3508154 0.1289905 41
-0.77098757 1.3361759 0.17646681 9
-0.81734937 1.3614216 0.026004085 83
-0.80651778 1.3567367 0.077457212 78
-0.82515436 1.3647975 0.13108224 39
-0.77639061 1.3437057 0.17744176 7
-0.80784267 1.3632269 0.025864467 100
-0.81167907 1.364903 0.077875905 100
-0.81931359 1.3682383 0.13073361 100
-0.78337437 1.3525369 0.17866045 29
-0.79661554 1.3639282 0.025689943 100
-0.80959409 1.3696525 0.077875905 100
-0.80810219 1.3689945 0.12986206 100
-0.77951652 1.3563867 0.17841671 36
-0.78539997 1.3645585 0.025515418 100
-0.81479102 1.3776441 0.07829459 100
-0.80236274 1.3721106 0.12951343 100
-0.76114029 1.3537573 0.17622307 26
-0.7906124 1.3724951 0.025655037 100
-0.80719644 1.3799483 0.077980578 100
-0.80752188 1.3800945 0.13021068 100
-0.76814777 1.3623991 0.17744176 20
-0.79578549 1.3804753 0.025794657 100
-0.80324012 1.383857 0.077875905 100
-0.80901295 1.3864756 0.1305593 100
-0.77872652 1.3727371 0.17914793 21
-0.80091912 1.388499 0.025934275 100
-0.81016904 1.3927341 0.078399263 100
-0.80322963 1.3895569 0.13021068 100
-0.77841932 1.3781979 0.17939167 15
-0.78967553 1.389017 0.025759751 100
-0.81161314 1.3991536 0.07860861 100
-0.79744142 1.3926053 0.12986206 100
-0.78890234 1.3886597 0.18109785 12
-0.7820695 1.3911543 0.025655037 100
-0.81483907 1.4064349 0.078922622 100
-0.80248278 1.4006732 0.1305593 100
-0.75255173 1.3773899 0.17646681 7
-0.79458898 1.4021423 0.025934275 100
-0.80379564 1.4064708 0.078399263 100
-0.81131321 1.4100051 0.13160518 100
-0.76321238 1.3873911 0.17817298 5
-0.80321437 1.4119747 0.026143705 100
-0.80156571 1.4111924 0.078399263 100
-0.80907089 1.414753 0.13160518 100
-0.77898425 1.4004798 0.18061037 3
-0.79904872 1.4160664 0.0261088 100
-0.80280918 1.4178672 0.07860861 100
-0.8031047 1.4180088 0.13125655 100
-0.79498488 1.4199015 0.026073895 100
-0.80953103 1.4269302 0.079131968 100
-0.80262846 1.423595 0.13143086 100
-0.78922707 1.422606 0.026004085 100
-0.81273144 1.4340597 0.07944598 100
-0.80582672 1.4306951 0.13195379 100
-0.79232448 1.4299235 0.0261088 100
-0.80144328 1.4344066 0.078922622 100
-0.8070882 1.4371818 0.13230242 100
-0.79359573 1.4363823 0.02617861 100
-0.79195875 1.4355702 0.078503937 100
-0.80832082 1.4436854 0.13265105 100
-0.79841477 1.4446472 0.02631823 100
-0.80391663 1.4473999 0.079341307 100
-0.8095246 1.4502058 0.13299966 100
-0.79248124 1.4475479 0.02624842 100
-0.8033269 1.4530218 0.07944598 100
-0.80002719 1.4513564 0.13230242 100
-0.78654379 1.4504155 0.02617861 100
-0.80983382 1.4622722 0.079969339 100
-0.80119175 1.4578726 0.13265105 100
-0.78428012 1.454844 0.02617861 100
-0.80220014 1.4640417 0.079655327 100
-0.8077659 1.4668984 0.1335226 100
-0.79253644 1.4650133 0.026388038 100
-0.79267448 1.4650847 0.079236634 100
-0.81240243 1.4752976 0.13421984 100
-0.79719275 1.4733975 0.026527658 100
-0.80086285 1.4753137 0.079864666 100
-0.80286759 1.4763603 0.1335226 100
-0.78057414 1.4706421 0.02624842 93
-0.80015975 1.4809554 0.079969339 100
-0.80039364 1.4810784 0.1335226 100
-0.77812034 1.4752824 0.02624842 38
-0.80472571 1.4894109 0.080388032 34
-0.7855857 1.4792467 0.13230242 75
0.13046804 1.2891896 0.12975012 5
0.16824484 1.2456571 0.010645968 13
0.13745669 1.2840183 0.03454173 27
0.1185092 1.3076265 0.060311776 21
0.099937797 1.3307658 0.11388429 9
0.13342088 1.2890468 0.1293685 17
0.18773064 1.2213783 0.13362093 7
0.12073711 1.3048505 0.18376152 6
0.14498344 1.2782645 0.011344064 36
0.1629025 1.2557775 0.032552965 59
0.15391308 1.2670585 0.055605363 49
0.14670402 1.2761054 0.07945881 14
0.16345045 1.2550899 0.098240845 12
0.1450232 1.2782147 0.12631555 70
0.1856651 1.2272122 0.13497064 15
0.14909303 1.2731073 0.17237349 14
0.16032225 1.2623566 0.010960111 100
0.16947353 1.2507941 0.032134276 90
0.1605095 1.2621201 0.054908119 100
0.15577623 1.2681005 0.077996381 28
0.17732039 1.2408795 0.095112152 25
0.16254988 1.2595421 0.12135452 100
0.17992693 1.2375863 0.13767004 45
0.15436032 1.2698896 0.17082056 36
0.17077625 1.2527738 0.010715778 100
0.167537 1.2568974 0.032448292 100
0.15862358 1.2682447 0.055431053 100
0.16128322 1.264859 0.077265166 29
0.17904878 1.2422423 0.095112152 25
0.17162323 1.2516955 0.11906482 100
0.18525457 1.234342 0.13632034 38
0.15142179 1.2774131 0.17289113 35
0.16376901 1.2650652 0.010960111 100
0.17775348 1.24714 0.031715591 92
0.15537581 1.2758234 0.056128297 97
0.17513689 1.250494 0.074827775 30
0.17575651 1.2496997 0.096363634 25
0.17926076 1.245208 0.11715672 100
0.19159114 1.2294031 0.13452072 31
0.14954171 1.2833015 0.17444403 42
0.17293161 1.2569906 0.010750682 79
0.18684134 1.239026 0.031087559 63
0.15601262 1.2788417 0.056302611 72
0.17082396 1.2597126 0.076046467 29
0.17751721 1.2510681 0.096363634 25
0.18340886 1.243459 0.11639348 39
0.19089124 1.2337954 0.13542053 22
0.14314675 1.2954583 0.17806751 40
0.16854021 1.2662308 0.010925206 65
0.18726352 1.2418742 0.03119223 31
0.17114815 1.2628382 0.054385185 51
0.18342409 1.2468688 0.073852822 46
0.19846112 1.2273076 0.09135773 54
0.17668816 1.2556313 0.11906482 13
0.18538639 1.2443161 0.13811995 22
0.14851555 1.2922804 0.1765146 55
0.17755377 1.2580215 0.010715778 53
0.16467884 1.2748916 0.03328567 28
0.17528829 1.2609899 0.054036561 51
0.17666066 1.2591918 0.07555899 75
0.19406745 1.2363834 0.092922069 53
0.19744277 1.2319607 0.11295892 13
0.20123148 1.2269963 0.13272113 39
0.17143744 1.2660358 0.16719711 60
0.17925957 1.2593186 0.010715778 53
0.16403127 1.2794175 0.033495013 28
0.17700446 1.262295 0.054036561 51
0.19155738 1.2430874 0.072877869 47
0.18973291 1.2454954 0.094486415 52
0.19905746 1.2331885 0.11295892 13
0.2004751 1.2313174 0.13362093 38
0.17433789 1.2658144 0.16667947 67
0.17847958 1.263741 0.010785587 39
0.17773136 1.2647355 0.032448292 29
0.16785756 1.2778574 0.055605363 49
0.18954751 1.249032 0.073609084 77
0.1924994 1.2451091 0.094173551 52
0.18879116 1.2500372 0.1167751 13
0.21138036 1.2200167 0.13002171 40
0.17830724 1.2639701 0.16564418 68
0.18499231 1.2586267 0.010645968 66
0.18902287 1.253231 0.031610917 30
0.16724789 1.2823806 0.055953987 48
0.19597387 1.2439259 0.072634131 63
0.19652441 1.243189 0.093547814 65
0.1998685 1.2387123 0.11372216 13
0.21295327 1.2211959 0.13002171 32
0.17772147 1.2683599 0.16667947 67
0.18202218 1.266387 0.010785587 78
0.20506942 1.2352972 0.030354854 32
0.18573967 1.2613722 0.053513627 52
0.18589157 1.2611673 0.075071514 90
0.20767218 1.2317861 0.091044858 81
0.19223547 1.2526097 0.1167751 13
0.21925133 1.2161664 0.12822211 32
0.18300197 1.2650653 0.16512655 76
0.1873129 1.2628367 0.010680873 80
0.20077667 1.2445414 0.030878214 63
0.18981892 1.2594314 0.053165004 79
0.19702107 1.2496448 0.073121607 78
0.20928618 1.2329783 0.091044858 81
0.21021339 1.2317183 0.11143246 14
0.21619058 1.2235963 0.13002171 24
0.18358725 1.2678993 0.16564418 68
0.19602865 1.2543497 0.010471444 96
0.19645989 1.2537596 0.031401575 62
0.18439037 1.2702746 0.054210871 100
0.19275713 1.2588261 0.074340299 100
0.20266446 1.2452697 0.093234941 92
0.21290478 1.2312576 0.11105084 14
0.22459564 1.2152606 0.1273223 16
0.18865997 1.2644324 0.16409127 69
0.19067591 1.265294 0.010680873 80
0.20518768 1.2452909 0.030773543 96
0.18496889 1.2731605 0.054385185 100
0.21311662 1.2343616 0.070440479 65
0.20896551 1.2400835 0.091983467 100
0.2087526 1.2403769 0.11295892 13
0.23645091 1.2021976 0.12327318 17
0.19038808 1.2656907 0.16409127 69
0.19708142 1.2600543 0.010541254 81
0.21385193 1.2367673 0.030145511 65
0.18672749 1.2744317 0.054385185 100
0.20429894 1.2500323 0.072634131 94
0.21060848 1.241271 0.091983467 93
0.21728048 1.2320065 0.11066922 14
0.23454499 1.2080333 0.12462288 8
0.20002323 1.2559695 0.1604678 80
0.1918166 1.271044 0.010750682 92
0.21316028 1.2411873 0.030354854 65
0.19660127 1.2643509 0.053165004 100
0.20828557 1.2480063 0.072146654 79
0.21685076 1.236025 0.090731993 95
0.20861953 1.2475392 0.11410378 13
0.23494264 1.2107172 0.12507279 16
0.19722781 1.2634745 0.16253836 70
0.2051402 1.255983 0.010401634 97
0.22174209 1.2325873 0.029726824 100
0.20294112 1.2590821 0.052467756 100
0.2099562 1.2491963 0.072146654 79
0.22076586 1.233963 0.090106249 96
0.20801622 1.2519301 0.11486702 20
0.23197192 1.2181714 0.12687239 16
0.20454243 1.2568254 0.15995017 72
0.21144491 1.2506444 0.010262015 84
0.20610666 1.2582232 0.031296901 94
0.19776639 1.2700638 0.053513627 100
0.21163097 1.2503803 0.072146654 63
0.21556213 1.2447993 0.091983467 100
0.20856997 1.2547259 0.11524864 60
0.23129386 1.222465 0.1277722 32
0.19956902 1.2675046 0.163056 70
0.21999973 1.2419902 0.010052586 100
0.21696848 1.2463257 0.030459527 97
0.19494751 1.2778218 0.054210871 100
0.21785975 1.2450509 0.071171694 65
0.21835345 1.2443448 0.091670595 100
0.20913911 1.2575238 0.11563025 100
0.22840863 1.2299632 0.12957181 64
0.20573559 1.2623918 0.16098544 72
0.20796803 1.2628534 0.010471444 96
0.22774294 1.2343585 0.029622151 100
0.20126605 1.2725105 0.053513627 100
0.21612465 1.2511001 0.071902916 64
0.21663252 1.2503682 0.092609204 100
0.22315562 1.2409687 0.11143246 84
0.23001617 1.2310829 0.12957181 96
0.20194933 1.2715261 0.16357364 69
0.20733497 1.2672781 0.010541254 95
0.22701803 1.2387139 0.029831495 99
0.20519537 1.2703831 0.053165004 100
0.22110099 1.2473007 0.071171694 81
0.22495243 1.2417115 0.090731993 100
0.21803534 1.2517496 0.11372216 89
0.2282297 1.2369554 0.13092151 96
0.21128747 1.2615422 0.15995017 72
0.21358845 1.261869 0.010401634 97
0.2230185 1.2480812 0.030354854 65
0.21144325 1.2650055 0.052467756 100
0.2171658 1.2566385 0.072390392 63
0.23329198 1.2330604 0.088854775 98
0.22969392 1.2383211 0.1102876 85
0.2309618 1.2364674 0.13047162 96
0.21736771 1.2563432 0.15787962 73
0.2210077 1.2548251 0.01022711 70
0.22140855 1.2542346 0.03066887 64
0.21437854 1.2645943 0.052293446 80
0.22675416 1.2463568 0.070684217 81
0.23055458 1.2407563 0.090106249 96
0.22590065 1.2476146 0.11219569 100
0.22720248 1.2456962 0.13272113 94
0.2148135 1.2639533 0.15995017 72
0.22270206 1.2559706 0.01022711 42
0.22198513 1.2570351 0.030773543 32
0.21276811 1.2707205 0.05281638 53
0.22620112 1.2507752 0.071171694 97
0.23440671 1.2385917 0.089480512 97
0.22647312 1.2503715 0.1125773 100
0.23757368 1.2338893 0.1291219 96
0.21330228 1.2699274 0.16150309 70
0.21755937 1.2669691 0.010436539 27
0.23240072 1.2447826 0.029936166 33
0.21212727 1.2750895 0.053165004 52
0.22550568 1.25509 0.071659178 80
0.23478207 1.2412226 0.089793384 100
0.23235017 1.2448581 0.11105084 98
0.23686555 1.238108 0.13002171 96
0.21272627 1.2741941 0.16253836 70
0.21708405 1.2714584 0.010506349 40
0.20754749 1.285823 0.032448292 29
0.2171984 1.2712862 0.05264207 53
0.23378867 1.2462969 0.07019674 99
0.23970661 1.2373829 0.088854775 98
0.22749439 1.2557777 0.11334054 96
0.24065715 1.2359512 0.1291219 96
0.22196785 1.2641022 0.15891489 81
0.22323734 1.2659382 0.010366729 27
0.20275691 1.297022 0.033076324 29
0.22552738 1.2624625 0.051596198 54
0.2289001 1.2573436 0.071659178 80
0.24133998 1.2384632 0.088854775 98
0.23999366 1.2405066 0.10952436 85
0.24228552 1.2370281 0.1291219 96
0.22475749 1.263631 0.15839726 73
0.229348 1.2603811 0.01022711 28
0.2177152 1.2781715 0.03182026 30
0.23379064 1.2535869 0.05055033 56
0.23929429 1.24517 0.069709264 99
0.24081498 1.2428443 0.089480512 97
0.23841462 1.2465153 0.11066922 100
0.24391761 1.2380995 0.1291219 96
0.22648257 1.2647634 0.15839726 73
0.24202982 1.2447765 0.0098780617 44
0.23262286 1.2592785 0.030564198 32
0.22038558 1.278144 0.05299069 52
0.23887739 1.2496364 0.07019674 66
0.24147511 1.2456317 0.089793384 83
0.24123162 1.2460071 0.1102876 99
0.24669585 1.2375833 0.128672 97
0.22724682 1.2675664 0.15891489 73
0.23494461 1.2592453 0.0101573 57
0.25587401 1.2267442 0.02847076 35
0.22962344 1.2675084 0.051770512 54
0.24476865 1.2439896 0.069221787 33
0.25161004 1.2333658 0.087290429 85
0.2417489 1.2486789 0.11066922 85
0.25246838 1.2320328 0.12687239 99
0.22262299 1.2783793 0.16202073 70
0.23665431 1.260342 0.0101573 71
0.24886632 1.2412319 0.029308135 68
0.23136202 1.2686237 0.051770512 81
0.24214935 1.2517431 0.07019674 66
0.24897453 1.2410626 0.08854191 84
0.24447885 1.2480977 0.1102876 85
0.25303364 1.2347107 0.1273223 89
0.23584238 1.2616125 0.1563267 74
0.23935327 1.2596898 0.010122396 85
0.24508119 1.2506605 0.029831495 99
0.24048823 1.2579007 0.05055033 56
0.2426852 1.2544376 0.070440479 49
0.25053829 1.2420583 0.08854191 84
0.24501428 1.250766 0.11066922 92
0.25353241 1.2373384 0.1277722 97
0.23850921 1.2610204 0.15580906 67
0.24852157 1.248925 0.0098780617 73
0.24888885 1.2483416 0.029622151 100
0.23476338 1.270781 0.051770512 81
0.25283819 1.2420677 0.068490572 50
0.26060662 1.2297268 0.086038955 87
0.26029077 1.2302285 0.10570818 88
0.25620368 1.2367213 0.1273223 97
0.23610848 1.2686443 0.15787962 65
0.24587268 1.2567055 0.010017681 87
0.25259352 1.2459499 0.029412808 100
0.23853737 1.2684444 0.051421888 82
0.25440526 1.2430505 0.068490572 50
0.25585198 1.2407353 0.087916173 70
0.24829379 1.2528309 0.11066922 92
0.26291639 1.2294298 0.12507279 92
0.23571631 1.272959 0.15891489 65
0.24669057 1.2595695 0.010052586 100
0.25652698 1.2436926 0.029203463 100
0.23205909 1.2831861 0.05281638 79
0.25413287 1.2475569 0.068978049 50
0.25974235 1.2385027 0.087290429 71
0.25325185 1.2489791 0.10952436 71
0.26673523 1.2272156 0.12417299 92
0.2396847 1.2708776 0.15787962 65
0.24622068 1.2639794 0.010122396 85
0.24868327 1.259975 0.030145511 100
0.24628687 1.2638718 0.05072464 84
0.24843907 1.260372 0.070684217 49
0.26129755 1.2394627 0.087290429 57
0.24867126 1.2599945 0.11181407 98
0.26519048 1.2331324 0.12552269 82
0.23932344 1.2751951 0.15891489 65
0.25428084 1.2548462 0.0099129668 87
0.25568113 1.2525504 0.029622151 100
0.24913651 1.2632806 0.05055033 84
0.25333938 1.2563899 0.069953002 49
0.26713455 1.2337719 0.086038955 72
0.26478127 1.2376302 0.10647142 73
0.26688987 1.2341731 0.12552269 90
0.25324839 1.256539 0.15270324 68
0.26417506 1.2421391 0.0096337283 90
0.25624859 1.2552323 0.029726824 100
0.2487103 1.2676845 0.050898954 83
0.26112217 1.2471819 0.068490572 50
0.26458201 1.2414668 0.087290429 57
0.25921646 1.2503299 0.10914274 85
0.26742148 1.2367765 0.12597258 82
0.25086161 1.2641308 0.15477379 67
0.25973153 1.2534701 0.0098431576 88
0.26111323 1.2511687 0.029412808 100
0.24438307 1.2790344 0.051944822 81
0.26185125 1.2499394 0.068734311 50
0.26529515 1.2442033 0.087603301 57
0.26097891 1.2513924 0.10914274 78
0.27515274 1.2277845 0.12327318 85
0.2467083 1.2751615 0.15787962 65
0.26338363 1.2509943 0.0097733475 89
0.26475522 1.2486925 0.029203463 100
0.24811256 1.2766219 0.051596198 82
0.2583636 1.2594188 0.069953002 49
0.27698103 1.2281754 0.084474608 59
0.25956193 1.2574078 0.1102876 85
0.27866742 1.2253454 0.12237337 85
0.24838513 1.2761645 0.15787962 65
0.26506436 1.2519919 0.0097733475 89
0.26236233 1.2565625 0.029622151 100
0.25596628 1.2673819 0.05055033 84
0.26007378 1.2604338 0.069953002 49
0.27657154 1.2325265 0.085100345 58
0.26426232 1.2533486 0.10914274 64
0.28224191 1.2229346 0.12147357 86
0.26099384 1.2588774 -0.0099129668 97
0.25998485 1.2605842 0.15270324 68
0.26767617 1.2512093 0.0097384425 75
0.2700415 1.2471777 0.028994121 100
0.25862551 1.2666358 0.05037602 100
0.26772884 1.2511195 0.068490572 50
0.27710721 1.2351345 0.085413218 58
0.26984063 1.2475201 0.10761628 79
0.27881473 1.2322241 0.12372308 83
0.26464045 1.2563837 -0.0098431576 87
0.2557478 1.2715408 0.15580906 67
0.27245855 1.2470555 0.0096337283 100
0.26777488 1.255106 0.029412808 100
0.25944582 1.2694225 0.05055033 100
0.2664994 1.2572985 0.069221787 100
0.27484044 1.2429613 0.086664692 57
0.27455449 1.2434528 0.10647142 81
0.28149065 1.2315305 0.12327318 85
0.25953093 1.2692763 0.15477379 67
0.2710425 1.2531686 0.0097384425 75
0.27637553 1.2439315 0.028680105 100
0.25313398 1.2841871 0.051944822 81
0.27307963 1.2496401 0.068003096 51
0.27344728 1.2490034 0.087603301 57
0.27121788 1.2528648 0.10837951 87
0.28497136 1.229043 0.12237337 93
0.26312006 1.2668906 0.15373851 68
0.26685432 1.2646004 0.0099478718 73
0.27513754 1.2501311 0.028994121 100
0.26689893 1.2645224 0.049853086 85
0.27286699 1.2540975 0.068490572 50
0.28305605 1.236299 0.085100345 58
0.27103877 1.257291 0.10914274 85
0.29246467 1.2198641 0.11967396 87
0.26110402 1.2746451 0.15580906 67
0.27047148 1.2620592 0.0098780617 73
0.27870429 1.2475668 0.028784776 100
0.26460388 1.272388 0.05055033 84
0.27643487 1.2515616 0.068003096 51
0.28753099 1.232029 0.084161744 59
0.27071676 1.2616274 0.10990598 85
0.28721994 1.2325766 0.12282328 93
0.26849604 1.2655365 -0.0099478718 86
0.26850441 1.2655219 0.15270324 68
0.27914634 1.2508841 0.0096337283 90
0.27653587 1.2555188 0.029203463 100
0.27524707 1.257807 0.048981529 87
0.27430499 1.2594795 0.068978049 50
0.28728735 1.2364302 0.084787481 59
0.28022829 1.2489631 0.10685304 88
0.29082984 1.2301407 0.12192347 76
0.27032247 1.2665503 0.15270324 68
0.27684021 1.2587619 0.0097733475 89
0.2781474 1.256423 0.029203463 100
0.27297819 1.2656722 0.049678773 86
0.27980345 1.2534598 0.068003096 51
0.28979924 1.2355745 0.084474608 59
0.28277588 1.2481413 0.10647142 81
0.28665286 1.2412043 0.12462288 83
0.27762547 1.2573569 0.14959741 70
0.28444844 1.249265 0.0095639192 91
0.283804 1.2504281 0.028784776 100
0.26900303 1.2771406 0.05072464 84
0.28734976 1.2440287 0.066540658 52
0.28767788 1.2434365 0.08572609 58
0.27977261 1.2577038 0.10837951 79
0.29688191 1.2268251 0.12057377 77
0.2700507 1.27525 0.15477379 67
0.2764056 1.2676663 0.0099129668 87
0.28924736 1.2443073 0.028366089 100
0.27260599 1.2745779 0.05037602 84
0.27649093 1.2675111 0.069709264 66
0.29115257 1.2408417 0.085100345 58
0.283283 1.2551564 0.10761628 79
0.27544224 1.2694187 -0.0099478718 86
0.27545041 1.2694039 0.15270324 76
0.27622998 1.2721298 0.0099827768 100
0.29090458 1.2452146 0.028366089 100
0.2772302 1.2702951 0.049853086 85
0.27917945 1.2667201 0.069465525 49
0.29468888 1.2382737 0.084474608 59
0.28121898 1.2629793 0.10914274 85
0.29813159 1.2319593 0.12147357 86
0.2791017 1.2668626 -0.0098780617 87
0.28181913 1.2618785 0.15011504 78
0.29121634 1.2484107 0.0094941091 92
0.28678039 1.2566115 0.028994121 100
0.29216182 1.2466629 0.047412723 60
0.28743938 1.2553933 0.067759357 34
0.29624316 1.2391177 0.084474608 59
0.29219595 1.2465998 0.10532656 75
0.29966488 1.232792 0.12147357 86
0.28075084 1.2677583 -0.0098780617 87
0.28437087 1.261066 0.14959741 70
0.29683381 1.2423508 0.0093544899 93
0.28298977 1.2681807 0.029622151 100
0.2836408 1.2669661 0.049330149 87
0.29211834 1.2511489 0.067028143 51
0.2933805 1.2487941 0.086038955 58
0.29495528 1.2458558 0.10494494 75
0.28352058 1.2671903 0.15115032 77
0.29285321 1.2538265 0.0095639192 91
0.29785326 1.2444189 0.028156744 100
0.28818235 1.2626148 0.048807215 58
0.29379943 1.2520461 0.067028143 51
0.2978346 1.2444539 0.085100345 58
0.2966179 1.2467432 0.10494494 75
0.28616437 1.2664117 0.15063268 78
0.29454365 1.2547212 0.0095639192 91
0.28525889 1.2723386 0.049678773 86
0.29733467 1.2494252 0.066540658 52
0.29553759 1.2528352 0.1060898 81
0.28069323 1.2810018 0.15477379 75
0.29160649 1.2644714 0.0097384425 75
0.29531881 1.2573674 0.048109971 59
0.29349345 1.2608604 0.068003096 51
0.29722455 1.2537205 0.1060898 81
0.29160649 1.2644714 -0.0097384425 88
0.2950047 1.2579684 0.14752686 71
0.29977375 1.2529416 0.0094941091 92
0.29548445 1.2612201 0.028994121 100
0.29155552 1.268803 0.068978049 50
0.29149419 1.2689214 -0.0098082526 99
0.29848707 1.255425 0.14649157 81
0.29780605 1.2609271 0.0096337283 90
0.29902595 1.2585524 0.028784776 100
0.29841754 1.2597368 0.14752686 71
0.29943544 1.2617607 0.0096337283 90
0.29653478 1.2674534 0.14959741 70
0.29935029 1.2662021 0.0097035384 100
0.29936773 1.2661676 0.048632905 59
0.29303896 1.2786964 -0.0099478718 100
0.29391763 1.2769569 0.1521856 77
0.29759035 1.2742703 -0.0098431576 100
0.29935214 1.2751482 -0.0098431576 100
0.29854909 1.2857792 0.050201707 28
