# .PCD v0.7 - Point Cloud Data file format
VERSION 0.7
FIELDS x y z intensity
SIZE 4 4 4 4
TYPE F F F F
COUNT 1 1 1 1
WIDTH 741
HEIGHT 1
VIEWPOINT 0 0 0 1 0 0 0
POINTS 741
DATA ascii
0.058243632 0.0034222007 0.047730394 72
0.054620296 0.003379643 0.047835063 60
0.042213619 0.0019449592 0.048253752 100
0.041883469 0.006957829 0.04804441 90
0.040335834 0.010394692 0.047939736 63
0.03545028 0.0088691115 0.048149079 26
0.036929786 0.022360563 0.047521047 19
0.03318733 0.022513211 0.047625721 9
0.019165456 0.007933259 0.048672438 8
0.018803179 0.01306057 0.048463095 8
0.0093797445 0.0050399899 0.049091127 7
-0.88992065 0.63997042 0.02523618 11
-0.8843891 0.64551616 0.025131466 33
-0.8828221 0.65068984 0.02509656 22
-0.86130279 0.65744084 0.024712607 24
-0.87165672 0.6616078 0.024887132 27
-0.87001389 0.66646814 0.024852227 28
-0.88832074 0.67017955 0.02516637 17
-0.89065582 0.67506933 0.025201274 42
-0.90295321 0.67935169 0.025410704 34
-0.94318551 0.682073 0.0261088 4
-0.95745987 0.68651164 0.026353134 5
-0.9817062 0.69053084 0.026771991 11
-1.0199242 0.69404185 0.027435184 10
-1.0441267 0.69788992 0.02785404 12
-1.0923197 0.70145351 0.028691756 8
-1.0745649 0.70787448 0.028377613 3
-1.0358064 1.1282494 0.08520294 3
-1.0474873 1.1308882 0.14328404 4
-1.0384917 1.1343968 0.028447423 6
-1.0151427 1.1290405 0.084156215 5
-1.0190945 1.1299471 0.14084367 9
-1.0157876 1.1349463 0.028063469 11
-1.0041542 1.1322349 0.083632857 39
-1.0255899 1.1372311 0.14154093 42
-0.99309915 1.135342 0.027679516 31
-0.98733205 1.1339766 0.082795486 91
-1.0359311 1.1454828 0.1425868 91
-0.98987025 1.1402587 0.027644612 40
-0.99381989 1.1412084 0.083214171 100
-1.0055532 1.1440296 0.13997212 87
-0.97684747 1.1430523 0.027435184 40
-0.98274797 1.1444941 0.082690813 99
-0.99255913 1.1468911 0.13892625 89
-0.97747689 1.1488612 0.027470088 23
-0.97949296 1.1493613 0.082586139 98
-0.99316794 1.152753 0.13910057 91
-0.97233361 1.1529487 0.027400278 27
-0.9801634 1.1549183 0.082690813 41
-0.99961895 1.1598125 0.13979781 74
-0.96711236 1.1572711 0.027330469 42
-0.96719927 1.1572933 0.082062781 34
-0.99824876 1.1652193 0.13979781 78
-0.96768719 1.1630658 0.027365373 61
-0.97937232 1.1660922 0.082795486 69
-0.97757226 1.1656259 0.1380547 92
-0.96243769 1.1673449 0.027295563 67
-0.96832186 1.1688908 0.08227212 96
-0.97425491 1.1704495 0.13788038 94
-0.95138019 1.1700475 0.027121039 83
-0.96306044 1.1731598 0.082062781 94
-0.97092265 1.1752547 0.13770607 100
-0.94804412 1.1747644 0.027086135 89
-0.94429082 1.1737502 0.081120729 100
-0.97142214 1.1810809 0.13788038 100
-0.95047933 1.1810477 0.027155945 92
-0.94094604 1.1784362 0.081016064 100
-0.9738211 1.1874421 0.13822901 94
-0.96059602 1.1894933 0.027365373 89
-0.94528466 1.1852412 0.081330076 98
-0.95507699 1.1879606 0.1366602 92
-0.93994671 1.1890857 0.027016325 93
-0.93620878 1.1880343 0.08091139 88
-0.9498468 1.1918705 0.13631158 99
-0.94616717 1.1964767 0.027155945 66
-0.9366613 1.1937671 0.081016064 78
-0.94836503 1.1971033 0.13631158 99
-0.95619637 1.205026 0.027365373 49
-0.92365998 1.1956288 0.080388032 38
-0.95260757 1.2039895 0.13683452 94
-0.94123405 1.2063498 0.027121039 52
-0.92216533 1.2007701 0.080388032 22
-0.95873231 1.21147 0.13753176 84
-0.93970186 1.2115526 0.027121039 71
-0.92065269 1.2059064 0.080388032 28
-0.94190019 1.2122042 0.13613728 89
-0.91899902 1.2110002 0.026771991 75
-0.92294794 1.2121859 0.080597371 32
-0.93080622 1.2145449 0.13526571 99
-0.90788442 1.2132171 0.026597468 78
-0.92330641 1.2179055 0.080702044 88
-0.92162043 1.217393 0.13456847 100
-0.91015083 1.21948 0.026667276 83
-0.91409844 1.2206953 0.080283359 96
-0.9276666 1.2248719 0.13526571 99
-0.91620952 1.2269541 0.026806897 83
-0.90488917 1.2234261 0.079864666 91
-0.9431892 1.2353625 0.13683452 68
-0.91460544 1.2320694 0.026806897 88
-0.90710694 1.2297037 0.080074012 64
-0.91875488 1.2333784 0.13474278 47
-0.89774424 1.2323126 0.026527658 81
-0.89978558 1.2329644 0.07976 82
-0.90004665 1.2330477 0.13317397 46
-0.88851053 1.2349035 0.026388038 88
-0.90576261 1.2404791 0.080178685 92
-0.90031737 1.2387192 0.13334829 48
-0.88696092 1.2396712 0.026388038 99
-0.89470226 1.2422014 0.079655327 100
-0.91390544 1.2484781 0.13474278 63
-0.88531262 1.2446842 0.026388038 100
-0.89114898 1.2466145 0.079550654 100
-0.9160096 1.2548363 0.13509139 78
-0.88743967 1.2509606 0.026457848 99
-0.88758248 1.2510083 0.07944598 100
-0.8973034 1.2542609 0.1335226 88
-0.87817556 1.2534107 0.02631823 93
-0.88778645 1.2566638 0.079550654 100
-0.88239366 1.2548385 0.13230242 84
-0.86891192 1.2558022 0.02617861 96
-0.88796848 1.2623267 0.079655327 100
-0.89577228 1.2649984 0.13369691 91
-0.87476593 1.2633694 0.02631823 92
-0.87303001 1.2627683 0.078922622 100
-0.89027017 1.2687383 0.13334829 91
-0.86926037 1.267018 0.02624842 81
-0.8581062 1.2631118 0.078189917 87
-0.91296595 1.2823234 0.13561434 50
-0.86751682 1.2719691 0.02624842 81
-0.86014169 1.2693573 0.078399263 51
-0.89238769 1.2807763 0.13387123 38
-0.85822541 1.2742176 0.0261088 92
-0.85650975 1.2736034 0.07829459 17
-0.88684434 1.2844647 0.1335226 43
-0.85269624 1.2777689 0.026038991 100
-0.87164527 1.2846284 0.079236634 51
-0.87567264 1.2860863 0.13265105 22
-0.85091525 1.2826622 0.026038991 96
-0.85295969 1.2834103 0.07829459 93
-0.86450726 1.2876362 0.13177948 15
-0.8491171 1.2875491 0.026038991 100
-0.84741253 1.2869186 0.078085244 100
-0.87203497 1.2960267 0.13265105 5
-0.84730202 1.2924298 0.026038991 100
-0.83437496 1.2875966 0.077457212 76
-0.87205642 1.3016851 0.13282534 1
-0.84172875 1.2958905 0.025969181 100
-0.8362965 1.2938378 0.077666558 44
-0.85528165 1.3010117 0.13143086 3
-0.82680768 1.2957517 0.025724847 75
-0.84938627 1.3043736 0.078503937 53
-0.8348065 1.2988062 0.12968774 15
-0.82496411 1.3005545 0.025724847 71
-0.83260566 1.303503 0.077666558 68
-0.8533991 1.3115265 0.13160518 56
-0.83623964 1.3101935 0.025969181 81
-0.82152408 1.3044591 0.0771432 70
-0.85530847 1.3176243 0.13195379 99
-0.83434564 1.3150291 0.025969181 100
-0.82522529 1.3114384 0.077457212 61
-0.83670336 1.3159574 0.130385 99
-0.81756979 1.3139457 0.025689943 100
-0.82147115 1.3154974 0.077352546 91
-0.82368118 1.3163764 0.12933913 99
-0.80824059 1.3157339 0.025550323 100
-0.83438474 1.3262384 0.078189917 95
-0.82731193 1.3233967 0.12986206 100
-0.81003326 1.3219757 0.025620133 100
-0.81762952 1.3250587 0.077352546 100
-0.83644861 1.3326964 0.13090792 100
-0.81549925 1.3297536 0.025759751 100
-0.80089945 1.3237689 0.076515168 100
-0.82525843 1.3337542 0.13003637 100
-0.80984181 1.3329868 0.025689943 100
-0.80264896 1.330009 0.076724514 100
-0.81591874 1.3355027 0.12933913 100
-0.7797361 1.3205228 0.17671055 18
-0.79679877 1.333102 0.025480513 100
-0.79700059 1.3331864 0.076515168 100
-0.80842191 1.3379617 0.12881619 100
-0.77963775 1.3259268 0.17695428 16
-0.7911405 1.3362441 0.025410704 100
-0.79502648 1.3378848 0.076515168 96
-0.806431 1.3427 0.12881619 100
-0.78134662 1.332109 0.17744176 22
-0.79651374 1.344059 0.025550323 81
-0.7948733 1.3433597 0.076619841 58
-0.80625647 1.3482126 0.1289905 97
-0.76842004 1.3320818 0.17597933 16
-0.81307393 1.3561865 0.025899371 57
-0.81508285 1.3570504 0.077875905 53
-0.83005768 1.3634903 0.13143086 24
-0.76664764 1.336221 0.17597933 3
-0.81835645 1.3641266 0.026038991 94
-0.80752927 1.3594255 0.077561885 100
-0.8279776 1.368304 0.13143086 71
-0.79197615 1.3526725 0.17963541 14
-0.7996878 1.3619096 0.025724847 100
-0.81450528 1.368408 0.078085244 100
-0.81665224 1.3693495 0.1305593 100
-0.79346734 1.3591816 0.18012288 33
-0.79395634 1.3649983 0.025655037 100
-0.81058186 1.3723588 0.077980578 100
-0.80726451 1.3708901 0.12986206 100
-0.76962072 1.3542244 0.17719802 26
-0.79927915 1.372714 0.025794657 100
-0.80310613 1.3744235 0.077666558 100
-0.80526441 1.3753877 0.12986206 100
-0.78761333 1.367503 0.17987914 36
-0.79716712 1.3774203 0.025794657 100
-0.8028087 1.379964 0.077771232 100
-0.81404072 1.3850284 0.13090792 100
-0.76199418 1.3615613 0.17671055 22
-0.8003915 1.3848398 0.025899371 100
-0.80601722 1.3874011 0.078085244 100
-0.80452424 1.3867214 0.13021068 100
-0.75801045 1.3655434 0.17646681 16
-0.79642004 1.3887148 0.025864467 100
-0.8129279 1.3963004 0.07860861 100
-0.79512161 1.388118 0.12951343 100
-0.78658766 1.3841965 0.18061037 14
-0.79062396 1.3917282 0.025794657 100
-0.8143571 1.4027348 0.078817949 100
-0.80380064 1.3978391 0.1305593 100
-0.76822788 1.3813417 0.17841671 12
-0.79025668 1.3972517 0.025829561 100
-0.79947752 1.4015671 0.078085244 100
-0.808819 1.4059391 0.13125655 100
-0.75350028 1.3800495 0.17671055 7
-0.79710001 1.406196 0.026004085 100
-0.79545873 1.4054209 0.077980578 100
-0.81019408 1.41238 0.13160518 100
-0.77110773 1.3939207 0.17939167 3
-0.80750746 1.4169163 0.02624842 100
-0.80765647 1.4169873 0.078817949 100
-0.80434626 1.4154098 0.13125655 100
-0.79104847 1.4142504 0.025969181 100
-0.80921775 1.4229791 0.079027295 100
-0.79512841 1.4162104 0.1305593 100
-0.78159362 1.4154387 0.025829561 100
-0.81052476 1.429462 0.079236634 100
-0.80362171 1.426116 0.13160518 100
-0.79358906 1.4273453 0.0261088 100
-0.79733425 1.4291776 0.07860861 100
-0.8083666 1.4345752 0.13230242 100
-0.79487258 1.4338014 0.02617861 100
-0.79681605 1.4347607 0.078713275 100
-0.81318492 1.4428401 0.13299966 100
-0.80328768 1.4438398 0.026388038 100
-0.79091161 1.4376774 0.078503937 100
-0.80369395 1.4440422 0.13230242 100
-0.79032308 1.4429402 0.02617861 100
-0.80832428 1.4519782 0.079655327 100
-0.80323189 1.4494214 0.13247673 100
-0.78796595 1.4476148 0.02617861 100
-0.80415362 1.4558131 0.079550654 100
-0.80262941 1.4550412 0.13265105 100
-0.7928353 1.4556855 0.02631823 100
-0.80187196 1.4602998 0.079550654 100
-0.81277138 1.4658654 0.13387123 100
-0.79386836 1.4624345 0.026388038 100
-0.79578191 1.4634204 0.079341307 100
-0.81729621 1.4745058 0.13456847 100
-0.79866296 1.4705744 0.026527658 100
-0.7952475 1.4688001 0.07944598 100
-0.804344 1.4735253 0.1335226 100
-0.79254383 1.4736562 0.026457848 96
-0.79621524 1.4755803 0.079655327 100
-0.79646224 1.4757098 0.13299966 100
-0.78313071 1.4743676 0.02631823 83
-0.80093175 1.4837728 0.080074012 96
-0.79763788 1.4820325 0.13334829 100
-0.8073265 1.4935275 0.13456847 35
0.12608269 1.2957419 0.13127659 5
0.16632676 1.2492452 0.010715778 13
0.14557433 1.275167 0.033913698 27
0.15154114 1.2677139 0.055779677 24
0.12284517 1.3035579 0.10825265 10
0.14755207 1.2726967 0.12517071 24
0.18341076 1.2279056 0.13542053 7
0.15278196 1.2661641 0.17030293 7
0.16178051 1.2584087 0.010890301 91
0.16971016 1.2484325 0.032029606 60
0.15700015 1.2644227 0.055256739 74
0.15596908 1.2657199 0.077752642 28
0.1677309 1.2509227 0.097302236 25
0.15663895 1.2648771 0.122881 85
0.18743655 1.2261314 0.13452072 23
0.15091008 1.2720845 0.17185585 29
0.16472656 1.2581911 0.010855397 100
0.16890788 1.2528927 0.032238949 100
0.15502551 1.2704835 0.055779677 100
0.16631031 1.2561842 0.076046467 14
0.16574067 1.256906 0.098240845 36
0.16688251 1.2554592 0.12020966 100
0.18178743 1.2365727 0.13722014 37
0.15266511 1.2734745 0.17185585 36
0.17136633 1.2532367 0.010715778 100
0.16690034 1.2589365 0.032552965 100
0.14694431 1.2844057 0.057174169 100
0.17045841 1.2543955 0.07555899 30
0.17962599 1.2426952 0.095112152 25
0.16979027 1.2552482 0.11982805 100
0.18582213 1.2347872 0.13632034 38
0.154425 1.2748584 0.17185585 43
0.16446063 1.2656039 0.010960111 100
0.17474106 1.2523886 0.032029606 91
0.1548591 1.2779465 0.056302611 96
0.16483837 1.2651184 0.077021427 29
0.17642665 1.2502218 0.096363634 37
0.16545916 1.2643204 0.12173614 100
0.1910364 1.2314413 0.13497064 30
0.15144497 1.2823353 0.1739264 35
0.16732883 1.2652973 0.010925206 65
0.17390057 1.2567914 0.032238949 60
0.16750881 1.2650644 0.054733805 50
0.17376435 1.2569677 0.07555899 30
0.1792289 1.2498949 0.096050762 25
0.18899426 1.2372553 0.13632034 22
0.14605945 1.2928265 0.17703223 41
0.17271125 1.26187 0.010820492 78
0.16101515 1.2771182 0.033495013 28
0.17045185 1.2648156 0.054559495 50
0.17305011 1.2614282 0.076046467 89
0.19172665 1.2370796 0.093234941 39
0.18436623 1.2466755 0.1167751 13
0.19655773 1.2307814 0.13407083 31
0.15611732 1.2835035 0.17340876 57
0.1829111 1.2520475 0.010576159 67
0.16520777 1.275295 0.03328567 28
0.1721814 1.2661374 0.054559495 50
0.18799716 1.2453687 0.073365346 46
0.18258822 1.2524716 0.096050762 51
0.20030561 1.2292057 0.11219569 14
0.19462636 1.2366636 0.13542053 45
0.17663875 1.2602842 0.16512655 68
0.17736027 1.2628968 0.010785587 39
0.18142772 1.2575167 0.032029606 30
0.16910934 1.2738104 0.055256739 49
0.19564444 1.2387121 0.072146654 79
0.19618747 1.2379937 0.092922069 53
0.18770292 1.2492164 0.1167751 13
0.2056593 1.2254653 0.13182132 39
0.17485732 1.2662075 0.16667947 67
0.17908308 1.2641946 0.010785587 39
0.15435773 1.2971376 0.03454173 27
0.17685026 1.2671695 0.054385185 51
0.19251627 1.2462968 0.073121607 62
0.20612371 1.2281668 0.090731993 54
0.19644892 1.241057 0.1144854 13
0.21427 1.2173129 0.1291219 40
0.17195308 1.2736943 0.16875002 66
0.17842081 1.2686933 0.010855397 52
0.21586683 1.2184373 0.029308135 34
0.17739755 1.2700666 0.054559495 50
0.19180891 1.2507253 0.073609084 77
0.19474226 1.2467885 0.094173551 65
0.19809538 1.2422882 0.1144854 13
0.2111761 1.2247328 0.13092151 40
0.18063912 1.2657162 0.16564418 76
0.19205567 1.2539105 0.010506349 68
0.20674461 1.2340524 0.030250182 65
0.18269989 1.2665589 0.054036561 77
0.19348913 1.2519727 0.073609084 77
0.20110762 1.2416731 0.092922069 92
0.2079187 1.2324651 0.11181407 14
0.20928881 1.2306129 0.13227122 31
0.1869671 1.2607899 0.16357364 69
0.19493058 1.2535453 0.010471444 82
0.1965453 1.2513463 0.031296901 62
0.17971849 1.2742617 0.054733805 75
0.19164893 1.2580143 0.074340299 61
0.20509452 1.2397037 0.092296332 100
0.21418309 1.2273266 0.1102876 14
0.22243279 1.2160919 0.1277722 16
0.1886825 1.2620542 0.16357364 77
0.19426477 1.2580136 0.010541254 95
0.20411015 1.2445073 0.030773543 64
0.1838282 1.272331 0.054385185 76
0.20621723 1.2416167 0.071659178 64
0.20557258 1.242501 0.092609204 93
0.21346858 1.2316689 0.11105084 14
0.23661903 1.1999102 0.12282328 17
0.17788464 1.2804847 0.16926765 73
0.19831499 1.2560123 0.010471444 96
0.21045202 1.2392395 0.030354854 65
0.1750719 1.2881331 0.055953987 97
0.20786557 1.2428138 0.071659178 80
0.2106981 1.2388995 0.091670595 100
0.20817661 1.242384 0.11334054 13
0.24154884 1.1962652 0.12147357 17
0.19099393 1.2661297 0.16409127 69
0.19534716 1.2637335 0.010611063 94
0.21442243 1.2371776 0.030145511 65
0.18850639 1.2732569 0.054210871 100
0.20488569 1.2504543 0.072634131 78
0.21233693 1.240081 0.091670595 100
0.21097299 1.2419798 0.11295892 13
0.24190176 1.198922 0.12192347 17
0.19610906 1.2626728 0.16253836 70
0.20171654 1.2584558 0.010471444 96
0.21721476 1.23672 0.03004084 99
0.1925787 1.2712712 0.053862248 100
0.20425993 1.2548887 0.073121607 62
0.21627355 1.23804 0.091044858 100
0.20464405 1.2543499 0.11563025 20
0.21964225 1.2333155 0.13137141 15
0.19895253 1.2623322 0.16202073 70
0.21258256 1.2465518 0.010192205 99
0.20606887 1.2557514 0.03119223 94
0.19654557 1.2692016 0.053513627 100
0.21389949 1.2446917 0.071415432 64
0.21097854 1.2488172 0.092922069 100
0.21079004 1.2490834 0.11410378 34
0.22568485 1.2280467 0.12957181 24
0.20281976 1.2603402 0.16098544 72
0.20734909 1.257543 0.010401634 97
0.21810246 1.2422425 0.030250182 98
0.19829026 1.2704324 0.053513627 100
0.21327564 1.2491102 0.071902916 48
0.21265197 1.2499976 0.092922069 100
0.20230448 1.2647207 0.11753834 86
0.23400891 1.2196099 0.12687239 41
0.20231184 1.2647102 0.16202073 70
0.20218831 1.2685764 0.010611063 94
0.2186102 1.2450361 0.030354854 97
0.1931996 1.2814614 0.054559495 100
0.21949315 1.2437705 0.070927955 48
0.22224095 1.2398316 0.090731993 95
0.20178697 1.2691517 0.11830158 100
0.23000544 1.2287014 0.1291219 80
0.20404083 1.2659209 0.16202073 70
0.20848432 1.2632113 0.010471444 96
0.2225444 1.242906 0.030145511 98
0.2108663 1.2597712 0.052119136 100
0.21549857 1.2530813 0.072146654 63
0.22838116 1.2344766 0.089480512 100
0.21470785 1.2542233 0.1144854 87
0.22495231 1.2394285 0.13182132 94
0.20577401 1.2671255 0.16202073 70
0.21020803 1.2644004 0.010471444 96
0.21854085 1.2522761 0.03066887 96
0.20806396 1.26752 0.05281638 100
0.21381378 1.259154 0.072877869 47
0.22664782 1.2404803 0.090419121 100
0.22418416 1.244065 0.11181407 98
0.2265929 1.2405603 0.13182132 94
0.21845353 1.2524031 0.15684435 74
0.22433156 1.2474121 0.010087491 71
0.22247732 1.2501303 0.030459527 65
0.20980272 1.2687106 0.05281638 100
0.21776059 1.2570448 0.072390392 63
0.23385796 1.2334468 0.088854775 98
0.23137265 1.2370902 0.10990598 92
0.22713926 1.2432961 0.13227122 94
0.2103416 1.2679206 0.16150309 70
0.21927339 1.2584811 0.010296919 42
0.23647246 1.2330782 0.029308135 34
0.21154562 1.2698951 0.05281638 79
0.22614026 1.2483388 0.070927955 97
0.23437014 1.2361834 0.089167647 98
0.23300505 1.2381996 0.10990598 85
0.23316351 1.2379656 0.13047162 96
0.21316481 1.2675035 0.16098544 72
0.21205795 1.2729108 0.010576159 40
0.23140702 1.2441163 0.029936166 33
0.21551514 1.267766 0.052467756 53
0.22891912 1.2478187 0.070684217 81
0.23379585 1.2405615 0.089793384 100
0.23135632 1.2441919 0.11105084 91
0.23805964 1.2342162 0.1291219 96
0.21274853 1.2718831 0.16202073 70
0.21807995 1.2673169 0.010436539 27
0.23068058 1.2484374 0.030145511 32
0.21929264 1.2654999 0.052119136 54
0.22601384 1.2554296 0.071659178 80
0.24075872 1.2333373 0.088229038 98
0.22957799 1.2500894 0.11219569 84
0.23627409 1.2400566 0.13047162 100
0.21968907 1.2649059 0.15943253 81
0.22865224 1.2551355 0.0101573 42
0.2014702 1.2961719 0.033076324 29
0.22762579 1.256685 0.051073264 55
0.22990271 1.2532476 0.071171694 81
0.23801452 1.2410014 0.089480512 97
0.24101326 1.2364742 0.10876112 94
0.23576453 1.2443981 0.13137141 94
0.22675276 1.2580031 0.15684435 74
0.23254457 1.2529123 0.010087491 28
0.18794927 1.3207505 0.03454173 27
0.22604325 1.262802 0.051596198 54
0.23159152 1.2543621 0.071171694 81
0.23532009 1.2486901 0.090731993 100
0.24695721 1.2309878 0.10723466 88
0.23099956 1.2552625 0.13407083 93
0.22315219 1.2671999 0.15943253 73
0.22986168 1.2607167 0.01022711 28
0.23570818 1.251755 0.030145511 32
0.22558817 1.2672672 0.051944822 54
0.24413061 1.2388449 0.068734311 100
0.23267561 1.2564034 0.091983467 93
0.23998651 1.2451971 0.1102876 85
0.24866709 1.2318912 0.1273223 97
0.22594529 1.2667198 0.15891489 73
0.23383537 1.2585292 0.0101573 42
0.23096511 1.2629642 0.030773543 32
0.2198354 1.2801615 0.053165004 52
0.23506567 1.2566282 0.071171694 97
0.24733967 1.2376627 0.088229038 100
0.24386364 1.2430338 0.10952436 85
0.25247964 1.2297206 0.12642249 90
0.22566882 1.271148 0.15995017 72
0.23338136 1.262995 0.01022711 70
0.24348074 1.2472696 0.029726824 67
0.23669145 1.2578409 0.05072464 56
0.23354807 1.2627354 0.071902916 48
0.25004143 1.2370541 0.087916173 84
0.23915118 1.2540109 0.11181407 84
0.25092694 1.2356753 0.1277722 97
0.23368379 1.262524 0.15684435 82
0.23940307 1.2573518 0.010087491 71
0.24085492 1.2550738 0.030145511 98
0.23518384 1.263972 0.051247578 55
0.24167126 1.2537928 0.070440479 49
0.24742696 1.2447617 0.089167647 70
0.24822861 1.2435038 0.10914274 78
0.25150692 1.2383599 0.12822211 97
0.23644322 1.261996 0.1563267 74
0.24965683 1.2449124 0.0098082526 59
0.24468508 1.2527739 0.029936166 66
0.23584512 1.2667519 0.051421888 82
0.24548396 1.2515106 0.069953002 49
0.25330937 1.2391369 0.087916173 70
0.24463648 1.2528508 0.11105084 91
0.25314364 1.239399 0.12822211 89
0.23299965 1.2712512 0.15891489 65
0.24698046 1.2526802 0.0099478718 73
0.25159734 1.2453259 0.029412808 100
0.23537543 1.2711658 0.051770512 81
0.25447062 1.2407491 0.068246834 34
0.24856493 1.2501563 0.089793384 83
0.2535463 1.2422214 0.10837951 79
0.25884637 1.233779 0.12642249 99
0.23671791 1.2690274 0.15787962 65
0.24760985 1.2554324 0.0099827768 87
0.25537041 1.2429742 0.029203463 100
0.23291299 1.2790256 0.052467756 80
0.24771893 1.2552571 0.07019674 99
0.25650954 1.2411455 0.087916173 56
0.24689215 1.2565844 0.11143246 84
0.2676796 1.2232139 0.12327318 85
0.23641887 1.2733974 0.15891489 65
0.25044218 1.2548362 0.0099478718 73
0.25920552 1.2406526 0.028994121 100
0.24420592 1.2649295 0.050898954 83
0.24532589 1.2631168 0.071171694 65
0.26446813 1.2321351 0.086038955 72
0.24351799 1.2660429 0.11334054 82
0.26422113 1.2325349 0.12552269 99
0.24334314 1.266326 0.1563267 74
0.25213638 1.2558789 0.0099478718 87
0.25354314 1.2535841 0.029726824 100
0.24697673 1.2642953 0.05072464 84
0.25119907 1.2574079 0.07019674 33
0.26608303 1.2331289 0.086038955 72
0.25961661 1.243677 0.10799789 87
0.26991144 1.226884 0.12372308 75
0.24810654 1.2624524 0.15477379 75
0.25383422 1.2569157 0.0099478718 87
0.25730881 1.2512033 0.029517479 100
0.24766862 1.2670523 0.050898954 100
0.25599703 1.2533599 0.069465525 49
0.25948906 1.2476188 0.08854191 84
0.25821111 1.2497199 0.10914274 99
0.26340637 1.2411784 0.1273223 89
0.24781951 1.2668042 0.15580906 67
0.25656891 1.2562344 0.0099129668 87
0.25692639 1.2556419 0.029726824 100
0.2494055 1.2681046 0.050898954 83
0.25768605 1.2543832 0.069465525 49
0.26524058 1.2418649 0.087290429 57
0.26394492 1.2440119 0.10761628 79
0.27109414 1.2321651 0.12462288 83
0.2435666 1.2777801 0.15891489 65
0.26237687 1.2503929 0.0097733475 89
0.26990911 1.2378125 0.028575432 100
0.25319299 1.265732 0.05055033 100
0.25937864 1.2554007 0.069465525 49
0.27196312 1.2343819 0.08572609 58
0.25854173 1.2567984 0.1102876 92
0.27771434 1.224776 0.12237337 93
0.25129518 1.2689017 0.15580906 67
0.25588566 1.2651482 0.010052586 86
0.26644385 1.2473731 0.029098792 100
0.25390771 1.268478 0.05072464 84
0.26614365 1.2478786 0.068246834 51
0.27560341 1.2319529 0.085100345 58
0.26726112 1.2459973 0.10761628 65
0.27731305 1.2290746 0.12327318 85
0.25997058 1.2582711 -0.0099129668 87
0.25205192 1.2716024 0.1563267 74
0.26760089 1.2488451 0.0097035384 90
0.26997414 1.2448208 0.028889447 100
0.25952366 1.2625411 0.050027397 85
0.2615959 1.2590272 0.069709264 66
0.27805951 1.231111 0.084787481 59
0.26576596 1.2519565 0.10876112 79
0.27380693 1.2383219 0.12552269 82
0.26442418 1.2542316 0.15063268 70
0.27230352 1.2446499 0.0095988233 91
0.26961613 1.2492433 0.029098792 100
0.25420189 1.2755899 0.051247578 82
0.266312 1.2548908 0.068978049 50
0.2736856 1.2422876 0.086664692 71
0.27042425 1.247862 0.10761628 79
0.27445927 1.2409651 0.12597258 90
0.26026294 1.2652302 0.15373851 76
0.26911223 1.254362 0.0097733475 89
0.27747005 1.2399498 0.02847076 100
0.2541464 1.280169 0.051596198 100
0.27614269 1.2422386 0.067028143 51
0.27351913 1.2467628 0.087290429 71
0.2673367 1.2574236 0.10952436 92
0.28409055 1.2285334 0.12237337 85
0.25441352 1.2797084 0.15787962 65
0.26972255 1.2570239 0.0098082526 74
0.27703753 1.2443131 0.028680105 100
0.25385222 1.284601 0.051944822 81
0.27572989 1.2465852 0.067515619 51
0.28593993 1.2288438 0.083848871 59
0.27287161 1.251552 0.10799789 65
0.28561255 1.2294127 0.12237337 85
0.2677277 1.2604903 -0.0098780617 87
0.25995976 1.2739882 0.15580906 67
0.27530584 1.2510048 0.0096686333 75
0.28059283 1.2417469 0.02847076 100
0.27038112 1.2596282 0.049330149 87
0.26746747 1.2647302 0.069953002 49
0.28452414 1.234863 0.084787481 73
0.26765481 1.2644022 0.11066922 78
0.28423825 1.2353636 0.12372308 83
0.2683641 1.2631601 -0.0099129668 87
0.26929688 1.2615268 0.15166797 69
0.27690241 1.2519131 0.0096686333 75
0.28018928 1.2461131 0.028680105 100
0.27691787 1.2518858 0.048458595 88
0.28085417 1.2449397 0.067028143 51
0.28801498 1.2323036 0.084161744 59
0.27703941 1.2516713 0.10761628 79
0.28962609 1.2294606 0.12192347 85
0.27473825 1.2557319 0.14959741 70
0.27973405 1.2512146 0.0096337283 90
0.28397545 1.2436627 0.02847076 100
0.27291632 1.2633537 0.049504463 86
0.27879149 1.2528929 0.068003096 51
0.28689006 1.2384732 0.085100345 58
0.27985227 1.2510041 0.10723466 81
0.29139221 1.2304571 0.12192347 76
0.27190027 1.2651628 -0.0099129668 87
0.26714531 1.2736292 0.15477379 75
0.27938443 1.2556016 0.0097035384 90
0.28165862 1.2515209 0.028889447 100
0.27358398 1.2660103 0.049678773 86
0.28232697 1.2503215 0.067515619 51
0.28748342 1.2410686 0.085413218 58
0.28240454 1.2501824 0.10685304 81
0.29292056 1.231312 0.12192347 85
0.26881698 1.2745643 0.15477379 67
0.28406715 1.2513393 0.0095988233 76
0.29115209 1.2385156 0.028052073 100
0.27154982 1.2739958 0.05037602 84
0.28600916 1.2478243 0.067028143 51
0.29207754 1.2368405 0.084474608 59
0.28226748 1.2545967 0.10761628 79
0.29932502 1.2237226 0.11967396 78
0.27536389 1.2670922 -0.0099129668 87
0.27440506 1.2688277 0.15270324 68
0.27605259 1.2697538 0.0099478718 73
0.29078707 1.2428741 0.028261416 100
0.27322266 1.2749164 0.05037602 84
0.28377834 1.2556599 0.068003096 51
0.29742518 1.2307644 0.083223134 60
0.28293222 1.2572035 0.10799789 87
0.28470358 1.2539721 -0.0096337283 89
0.27884656 1.2646568 0.15115032 77
0.28543946 1.2566521 0.0096686333 75
0.29053146 1.2472855 0.02847076 100
0.28640607 1.254874 0.048284281 88
0.28168276 1.2635624 0.068978049 50
0.29620466 1.2368498 0.084161744 59
0.2855722 1.256408 0.10761628 79
0.29869616 1.2322667 0.12147357 77
0.27875382 1.2689501 -0.0099129668 87
0.28703371 1.2537194 0.14752686 79
0.29464883 1.2434465 0.0093893949 93
0.28168646 1.26748 0.029622151 100
0.29369017 1.2452239 0.047238413 91
0.28991726 1.2522193 0.067271881 34
0.29400334 1.2446433 0.085413218 58
0.29464233 1.2434585 0.10456333 75
0.2804099 1.2698469 -0.0099129668 87
0.2831369 1.2647908 0.15063268 70
0.29458359 1.2479508 0.009459204 93
0.29112941 1.2544146 0.028784776 100
0.28237003 1.2708056 0.049678773 86
0.2880283 1.2602174 0.068246834 68
0.29489666 1.247365 0.08572609 58
0.29368621 1.2496301 0.10570818 73
0.28139666 1.2726271 0.15270324 68
0.29242337 1.2558622 0.0095988233 76
0.29460821 1.2517411 0.028575432 100
0.28403226 1.2716904 0.049678773 86
0.29895338 1.2435448 0.065809444 52
0.29435855 1.2522119 0.1060898 73
0.28586689 1.2682297 -0.0098431576 97
0.2830649 1.273515 0.15270324 76
0.28490427 1.2745049 0.0099478718 73
0.29823363 1.2491379 0.028366089 100
0.28587282 1.2726617 0.049678773 86
0.29422712 1.2567626 0.067515619 51
0.29338804 1.2583594 0.10723466 73
0.29141539 1.2621136 -0.0097035384 89
0.28850657 1.2676494 0.15063268 70
0.29951873 1.2505555 0.009459204 93
0.29982391 1.2499701 0.028366089 100
0.28941995 1.2699304 0.069221787 33
0.29954612 1.2505031 0.10532656 75
0.29194412 1.2650876 0.14959741 70
0.29599902 1.2614863 0.028994121 100
0.29661831 1.260288 0.048284281 59
0.28742635 1.2780743 -0.0099827768 96
0.29633471 1.2608367 0.1480445 79
0.29279238 1.2717636 0.049330149 58
0.29355755 1.2702709 0.15063268 78
0.29111272 1.2798536 0.050027397 57
0.2919741 1.2781571 -0.0099478718 100
0.29548034 1.2712519 0.15063268 78
0.29366064 1.2790099 -0.0099478718 100
0.29975072 1.266917 0.14907977 78
0.29713699 1.2762792 -0.0098780617 100
0.29615456 1.2824907 -0.0099827768 100
