# .PCD v0.7 - Point Cloud Data file format
VERSION 0.7
FIELDS x y z intensity
SIZE 4 4 4 4
TYPE F F F F
COUNT 1 1 1 1
WIDTH 754
HEIGHT 1
VIEWPOINT 0 0 0 1 0 0 0
POINTS 754
DATA ascii
0.063472897 9.2744827e-05 0.047730394 38
0.055919886 0.0059760213 0.015881689 129
0.049499512 0.0019407272 0.04804441 43
0.053399026 0.013709605 0.047416378 27
0.04587245 0.0077683926 0.015951499 4
0.046486676 0.0086970925 0.047835063 100
0.038294375 0.0021492243 0.048358422 77
0.035750866 0.0038503408 0.048358422 51
0.048743904 0.02881217 0.046893016 31
0.037031233 0.017451763 0.047730394 19
0.026492715 0.007722199 0.048463095 8
0.019557118 0.0027992725 0.048881784 7
0.030581236 0.024321795 0.047625721 9
0.025556564 0.022961259 0.047835063 9
0.0091127753 0.0052287579 0.049091127 7
-0.98532993 0.65321046 0.026876707 17
-0.98371428 0.6584475 0.026841801 26
-0.98211795 0.66420734 0.026806897 22
-0.98645109 0.66902632 0.026876707 17
-0.98082322 0.67502987 0.026771991 27
-0.9911111 0.67952079 0.026946515 26
-1.0034125 0.68451053 0.027155945 28
-1.0176666 0.68893945 0.027400278 17
-1.0279269 0.69393069 0.027574802 11
-1.0321658 0.69898438 0.027644612 7
-1.0523953 0.7039603 0.02799366 7
-1.0725882 0.70851725 0.028342709 10
-1.0947864 0.71371245 0.028726662 11
-1.1129527 0.71861112 0.029040804 13
-1.1231167 0.72414231 0.029215328 15
-1.1432507 0.72920924 0.029564377 20
-1.1633816 0.73500729 0.029913425 13
-1.1874812 0.74027884 0.030332282 9
-1.0220451 1.1257174 0.084470235 3
-1.0551341 1.1332047 0.14398129 4
-1.0402493 1.1356766 0.028482327 7
-0.99354345 1.1249366 0.083004825 7
-1.030556 1.1334475 0.14188954 11
-1.0214379 1.137131 0.028168185 11
-1.0078542 1.1339574 0.083842203 50
-1.019577 1.1366961 0.14101799 48
-0.99485332 1.1366116 0.027714422 35
-0.99880105 1.1375484 0.083423518 100
-1.0085945 1.1398726 0.14014643 91
-0.97600371 1.1380516 0.027400278 42
-1.0013266 1.1441592 0.083632857 100
-1.0033548 1.1446483 0.13979781 86
-0.97865957 1.1440606 0.027470088 36
-0.97679716 1.1436049 0.082376793 100
-1.0021038 1.1497974 0.13979781 84
-0.98898882 1.1522868 0.027679516 22
-0.96773022 1.1470062 0.081958108 84
-1.0007687 1.1552129 0.13979781 84
-0.98383445 1.1564112 0.027609708 25
-0.98002893 1.1554525 0.082690813 39
-0.99561876 1.15938 0.13944919 78
-0.96497208 1.1575698 0.027295563 44
-0.9844107 1.1625427 0.083004825 35
-0.97873932 1.1610918 0.1380547 80
-0.95400029 1.1600814 0.027121039 63
-0.97923404 1.166626 0.082795486 73
-0.97936267 1.1666594 0.13822901 89
-0.96222943 1.1681368 0.027295563 71
-0.97004431 1.1701943 0.082376793 100
-0.9798252 1.1727693 0.13840333 92
-0.96090084 1.1731493 0.027295563 78
-0.96098989 1.1731731 0.081958108 92
-0.97463113 1.1768129 0.1380547 99
-0.95555276 1.1776391 0.027225753 92
-0.95179063 1.1766205 0.081539422 100
-0.96736044 1.1808362 0.13753176 100
-0.9503358 1.1815715 0.027155945 93
-0.9446556 1.1800133 0.081225403 100
-0.96214694 1.1848115 0.13718314 98
-0.93725818 1.1838512 0.026946515 93
-0.95083946 1.1876304 0.081644088 96
-0.9625358 1.1908851 0.13735744 92
-0.94357651 1.1909508 0.027086135 92
-0.93406731 1.1882707 0.080806717 86
-0.95346111 1.1937366 0.1366602 100
-0.94971448 1.1986202 0.027225753 61
-0.92868358 1.1926095 0.080597371 70
-0.94806653 1.1981492 0.13631158 100
-0.96365184 1.2080381 0.027504992 40
-0.93494815 1.1997316 0.081016064 30
-0.94855231 1.2036685 0.13648589 94
-0.93916267 1.2063081 0.027086135 56
-0.9296816 1.2035303 0.080806717 24
-0.94710606 1.2086354 0.13648589 85
-0.91853613 1.2055578 0.026737086 75
-0.92823583 1.2084347 0.080806717 26
-0.93800265 1.2113315 0.13578865 89
-0.92075998 1.2120887 0.026806897 78
-0.91896814 1.21155 0.080388032 40
-0.93637508 1.2167823 0.13578865 98
-0.91545957 1.2157995 0.026737086 88
-0.91176337 1.2146751 0.080074012 90
-0.93297917 1.2211291 0.13561434 100
-0.92145973 1.2235236 0.026876707 92
-0.90439779 1.2182648 0.07976 97
-0.9236998 1.2242141 0.1349171 91
-0.90085751 1.2224474 0.026527658 88
-0.91625017 1.2272476 0.080492698 82
-0.9126752 1.2261328 0.13404553 66
-0.89918953 1.227762 0.026527658 83
-0.91075546 1.2314154 0.080283359 66
-0.905294 1.2296903 0.1335226 48
-0.9014731 1.2337825 0.026597468 83
-0.9035098 1.2344332 0.079969339 76
-0.91135305 1.2369393 0.13421984 43
-0.89984542 1.2388463 0.026597468 89
-0.89617866 1.2376605 0.079655327 100
-0.91160995 1.2426506 0.13439415 49
-0.89448148 1.2424083 0.026527658 96
-0.90411144 1.2455578 0.080178685 100
-0.90814084 1.2468755 0.13421984 68
-0.88506395 1.2454357 0.026388038 100
-0.89469105 1.2486252 0.07976 100
-0.90440768 1.2518443 0.13404553 82
-0.87210256 1.2463809 0.02617861 96
-0.90067118 1.2559509 0.080178685 100
-0.89335579 1.2535003 0.13317397 88
-0.87421888 1.2526257 0.02624842 99
-0.88383335 1.2558837 0.079341307 100
-0.90109426 1.2617329 0.13404553 77
-0.88396126 1.2612343 0.026457848 96
-0.87843519 1.2593412 0.079131968 100
-0.90322536 1.2678336 0.13439415 91
-0.87837237 1.2651768 0.026388038 89
-0.86908382 1.2619567 0.078713275 100
-0.893861 1.2705462 0.13369691 85
-0.86917371 1.2672656 0.02624842 77
-0.87309927 1.2686411 0.079027295 78
-0.89031285 1.2746726 0.1335226 52
-0.86168724 1.2704593 0.026143705 75
-0.86184984 1.2705169 0.078503937 46
-0.88845354 1.2799482 0.1335226 39
-0.86001998 1.2751379 0.026143705 90
-0.85266131 1.2725017 0.078085244 14
-0.88863021 1.2853875 0.13369691 35
-0.86755925 1.283709 0.02631823 93
-0.85456568 1.2790003 0.07829459 57
-0.88298517 1.2892992 0.13334829 20
-0.86209244 1.2870319 0.02624842 99
-0.85662097 1.2850286 0.078503937 97
-0.8644169 1.287883 0.13177948 15
-0.83768493 1.2838709 0.025829561 100
-0.85659689 1.2908742 0.07860861 100
-0.85690409 1.290988 0.13125655 3
-0.83222729 1.2870686 0.025759751 100
-0.84363788 1.291337 0.077980578 65
-0.87196356 1.3019333 0.13282534 1
-0.83397228 1.2937877 0.025829561 96
-0.83415407 1.2938566 0.077561885 53
-0.85314006 1.3010421 0.13125655 3
-0.83783132 1.3005164 0.025934275 74
-0.8324092 1.2984438 0.077561885 55
-0.85323232 1.3064036 0.13143086 18
-0.84343249 1.3082397 0.026073895 72
-0.83800858 1.3061447 0.077980578 72
-0.84020001 1.3069911 0.130385 58
-0.83418804 1.3099507 0.025934275 83
-0.83064097 1.308567 0.077666558 61
-0.84583634 1.3144945 0.13108224 100
-0.80810934 1.3052473 0.025480513 96
-0.83618516 1.3163123 0.078085244 65
-0.83280545 1.3149803 0.13003637 99
-0.82119077 1.3156631 0.025759751 100
-0.83251029 1.3201675 0.077980578 91
-0.83469301 1.3210363 0.130385 99
-0.81547111 1.3191926 0.025689943 100
-0.81566054 1.3192689 0.0771432 95
-0.83451253 1.3268511 0.1305593 100
-0.82105356 1.3267272 0.025829561 100
-0.8175326 1.3252974 0.077352546 100
-0.83081239 1.3306897 0.130385 100
-0.78713101 1.3129525 0.17719802 13
-0.80790371 1.3271937 0.025620133 100
-0.80809706 1.3272731 0.076933853 100
-0.81215876 1.3289398 0.12881619 100
-0.79064149 1.3201106 0.17792924 16
-0.79496366 1.3271022 0.025410704 100
-0.80624169 1.3317738 0.076933853 100
-0.81582004 1.3357412 0.12933913 100
-0.78697592 1.3237935 0.1776855 20
-0.80398077 1.3366601 0.025620133 100
-0.79680389 1.3336565 0.076515168 100
-0.82292694 1.3445892 0.13021068 100
-0.76479405 1.3202599 0.17500438 20
-0.79841 1.3395907 0.025550323 100
-0.78940779 1.335788 0.076201156 96
-0.82284933 1.3499143 0.130385 100
-0.77576262 1.330024 0.17671055 22
-0.80734867 1.3492383 0.025759751 79
-0.79099911 1.3422612 0.076410495 51
-0.79872447 1.3455579 0.12829325 88
-0.77735263 1.3364377 0.17719802 15
-0.82011324 1.360064 0.026038991 55
-0.82027835 1.3601351 0.078189917 55
-0.79734546 1.3502586 0.18012288 5
-0.79970688 1.3568692 0.025689943 99
-0.81271523 1.3625255 0.077875905 100
-0.80939275 1.3610808 0.12968774 60
-0.78620952 1.3510004 0.17890419 17
-0.79042858 1.358128 0.025550323 100
-0.80708498 1.3654361 0.077666558 100
-0.81837207 1.3703885 0.13073361 100
-0.77518636 1.3514403 0.1776855 39
-0.79557687 1.3662776 0.025689943 100
-0.79758948 1.3671694 0.077247873 100
-0.82162708 1.3778214 0.13125655 100
-0.7567125 1.3490553 0.17549185 30
-0.80454534 1.3756337 0.025899371 100
-0.80654162 1.3765262 0.077875905 100
-0.80141526 1.3742342 0.12951343 100
-0.76747054 1.3590571 0.17719802 22
-0.79320377 1.3764797 0.025724847 100
-0.81159073 1.3847818 0.07829459 100
-0.80645508 1.382463 0.13021068 100
-0.77796715 1.3696002 0.17890419 17
-0.78936547 1.3801017 0.025689943 100
-0.81317967 1.3909495 0.078503937 100
-0.80079025 1.3853059 0.12986206 100
-0.78319758 1.3772922 0.17987914 17
-0.79075378 1.3866779 0.025759751 100
-0.80363649 1.3926032 0.078085244 100
-0.81662709 1.3985782 0.13160518 100
-0.75751764 1.3713908 0.17671055 13
-0.80139917 1.397012 0.026004085 100
-0.80156451 1.3970886 0.078085244 100
-0.81453508 1.4031067 0.13160518 100
-0.7771247 1.3857492 0.17963541 12
-0.8009029 1.4028091 0.026038991 100
-0.80830032 1.4062743 0.07860861 100
-0.80498844 1.4047229 0.13090792 100
-0.76766843 1.3872409 0.17866045 5
-0.79879695 1.4072855 0.026038991 100
-0.8079887 1.4116284 0.078713275 100
-0.79927331 1.4075105 0.1305593 100
-0.79612654 1.4060236 0.18280402 3
-0.78381783 1.4061985 0.025794657 100
-0.80562788 1.4166013 0.078713275 100
-0.8077175 1.417598 0.13160518 100
-0.7889089 1.4140856 0.025934275 100
-0.80347615 1.4210932 0.078713275 100
-0.80197161 1.4203694 0.13125655 100
-0.7991311 1.4251029 0.02617861 100
-0.79748744 1.4243047 0.078503937 100
-0.81750149 1.434023 0.13299966 100
-0.80054325 1.431332 0.02624842 100
-0.80427903 1.4331614 0.079027295 100
-0.80455583 1.4332969 0.13195379 100
-0.79834276 1.435807 0.02624842 100
-0.80386323 1.4385329 0.079131968 100
-0.79877585 1.4360209 0.13160518 100
-0.78896719 1.4367092 0.0261088 100
-0.8052147 1.4447994 0.079341307 100
-0.80547744 1.4449302 0.13247673 100
-0.78997058 1.4436419 0.02617861 100
-0.79904467 1.4482038 0.079131968 100
-0.80821615 1.4528146 0.13299966 100
-0.7984311 1.4535065 0.026388038 100
-0.79678828 1.4526737 0.079131968 100
-0.81127578 1.4600172 0.1335226 100
-0.80303818 1.4620867 0.026527658 100
-0.80138975 1.4612434 0.079550654 100
-0.80519003 1.4631873 0.13317397 100
-0.79007202 1.4610704 0.02631823 100
-0.80796558 1.4702981 0.080074012 100
-0.80996698 1.4713302 0.13387123 100
-0.78410345 1.4638984 0.02624842 100
-0.80196899 1.4731908 0.079864666 100
-0.80751067 1.4760731 0.13387123 100
-0.78887898 1.4720331 0.026388038 96
-0.79609209 1.4758153 0.079655327 100
-0.81221992 1.4842718 0.13456847 100
-0.79525906 1.4813764 0.026562562 71
-0.77066725 1.4683722 0.07829459 91
-0.80795699 1.4880911 0.13439415 98
-0.79828447 1.4893122 0.13369691 24
0.13014358 1.2914503 0.13013174 11
0.18702206 1.2208086 0.13362093 7
0.16166678 1.2557607 0.010855397 26
0.15340993 1.2660891 0.03328567 28
0.1518887 1.267992 0.055779677 24
0.16268897 1.254482 0.098240845 12
0.15403262 1.2653102 0.12326261 42
0.18738106 1.223595 0.13407083 15
0.16157252 1.2558786 0.16667947 7
0.15830585 1.2633101 0.010995016 100
0.16871876 1.2501957 0.032134276 90
0.14610872 1.2786715 0.056825545 71
0.15622869 1.2659261 0.077752642 28
0.1642977 1.2557638 0.098240845 24
0.16788545 1.2512453 0.11944643 100
0.190099 1.2232689 0.13362093 23
0.15117303 1.2722933 0.17185585 43
0.16498223 1.2583927 0.010855397 100
0.18523517 1.232702 0.030878214 95
0.15035373 1.2769489 0.056476921 100
0.16533595 1.257944 0.076290213 29
0.18067101 1.2384915 0.094486415 39
0.16227502 1.2618268 0.12173614 100
0.1892705 1.2275832 0.13452072 38
0.14694878 1.281268 0.17444403 42
0.16175935 1.2660325 0.010995016 100
0.17454243 1.2497003 0.031924933 100
0.15949377 1.2689271 0.055431053 100
0.17193559 1.2530309 0.075315252 30
0.18717867 1.2335558 0.093234941 26
0.160364 1.2678152 0.122881 100
0.19327217 1.2257705 0.13362093 31
0.1499266 1.2811506 0.1739264 35
0.17085522 1.2579107 0.010785587 100
0.1774447 1.2494309 0.03182026 61
0.16001523 1.2718604 0.055605363 98
0.17606008 1.2512127 0.074827775 30
0.17182982 1.2566565 0.097615108 37
0.1837877 1.2412683 0.11601187 92
0.18529937 1.2393229 0.13722014 30
0.14934254 1.2855947 0.17496167 35
0.1774466 1.2528981 0.010645968 66
0.16326052 1.2712859 0.033180997 57
0.16785452 1.2653313 0.054733805 50
0.17895466 1.2509434 0.074584037 30
0.17594415 1.2548456 0.096989371 25
0.18574947 1.2421361 0.13767004 15
0.1523248 1.2854607 0.17444403 42
0.17670259 1.2573707 0.010715778 66
0.18080083 1.2520201 0.03182026 30
0.15868229 1.2808976 0.056302611 48
0.18425694 1.2475078 0.073852822 46
0.19085166 1.2388979 0.093547814 52
0.18828046 1.2422547 0.11563025 13
0.19095466 1.2387635 0.13632034 30
0.15882531 1.2807109 0.17237349 57
0.17356449 1.2650378 0.010855397 52
0.17039633 1.2692041 0.032866981 29
0.16529197 1.2759168 0.055605363 49
0.18352285 1.2519419 0.074340299 46
0.19727334 1.2338591 0.092296332 53
0.18993115 1.2435145 0.11563025 13
0.20910698 1.2182971 0.13002171 48
0.17113444 1.2682335 0.16771474 67
0.18252382 1.256773 0.010645968 40
0.17695469 1.26415 0.032448292 29
0.17666379 1.2645354 0.054210871 51
0.18879551 1.2484653 0.073609084 62
0.19294372 1.2429703 0.093860678 52
0.19395199 1.2416347 0.11486702 13
0.20832562 1.222595 0.13092151 48
0.17869571 1.2618438 0.16512655 68
0.17942819 1.2644534 0.010785587 52
0.17149505 1.2750385 0.033076324 29
0.17600256 1.2690241 0.054559495 50
0.19046786 1.2497232 0.073609084 62
0.19696623 1.2410524 0.093234941 53
0.19206825 1.2475878 0.11601187 13
0.20990756 1.2237848 0.13092151 40
0.18620771 1.2554075 0.16253836 70
0.18473741 1.2609309 0.010680873 80
0.18756685 1.257128 0.03182026 30
0.17774677 1.2703266 0.054559495 50
0.19569945 1.2461973 0.072877869 63
0.19153774 1.2517909 0.095112152 51
0.19959709 1.2409587 0.11410378 13
0.20916712 1.2280961 0.13182132 31
0.18675116 1.2582242 0.163056 70
0.18882942 1.2589859 0.010611063 81
0.20825526 1.2326853 0.030145511 32
0.1806792 1.2700204 0.054385185 76
0.20561954 1.2362539 0.071171694 65
0.201437 1.2419167 0.092922069 79
0.20124319 1.2421789 0.11410378 13
0.21887276 1.2183105 0.128672 32
0.18271881 1.267259 0.16564418 68
0.18817362 1.263469 0.010680873 93
0.20632944 1.2387075 0.030459527 65
0.18713933 1.2648795 0.053687938 100
0.20490158 1.2406549 0.071659178 80
0.20542252 1.2399443 0.092296332 93
0.20753708 1.2370604 0.1125773 13
0.22504893 1.2131773 0.12687239 16
0.18331447 1.2700959 0.16616182 68
0.18519115 1.2711959 0.010820492 91
0.20914298 1.2382895 0.030354854 65
0.18769649 1.267754 0.053862248 100
0.19720089 1.2546962 0.073609084 62
0.20706505 1.2411443 0.092296332 100
0.20454809 1.2446022 0.11410378 13
0.23233196 1.2064312 0.12462288 8
0.18960989 1.2651253 0.16409127 77
0.19848466 1.256135 0.010471444 82
0.21295643 1.2361211 0.030145511 65
0.18926203 1.2688897 0.053862248 100
0.19058323 1.2670625 0.075315252 90
0.20854688 1.2422193 0.092296332 93
0.22214592 1.2234123 0.10876112 14
0.2337046 1.207427 0.12462288 8
0.19569501 1.2599931 0.16202073 70
0.20251584 1.2541101 0.010401634 83
0.22157335 1.2275594 0.029517479 100
0.19797644 1.2604343 0.05281638 100
0.20505342 1.2505748 0.072634131 78
0.20789355 1.2466179 0.092922069 100
0.21571699 1.2357185 0.11143246 14
0.24659684 1.192697 0.12012386 8
0.19740754 1.2612269 0.16202073 70
0.20420784 1.2553201 0.010401634 97
0.21621874 1.2384627 0.030145511 98
0.1927537 1.2713959 0.053862248 100
0.21364444 1.2420757 0.071171694 81
0.21414441 1.241374 0.091670595 81
0.20481315 1.2544705 0.11563025 20
0.23337367 1.2143857 0.12597258 16
0.20024541 1.2608813 0.16150309 70
0.20590401 1.2565241 0.010401634 97
0.21554947 1.2428863 0.030354854 65
0.19220513 1.2758932 0.054210871 100
0.21644059 1.2416263 0.070927955 48
0.2146512 1.2441564 0.091983467 100
0.20537272 1.2572753 0.11601187 39
0.23605207 1.2138972 0.12552269 24
0.19973001 1.2652537 0.16253836 70
0.20071054 1.2675422 0.010611063 94
0.22408766 1.2342429 0.029726824 100
0.2008419 1.2673551 0.053165004 100
0.2089642 1.2557853 0.072877869 47
0.2219834 1.2372403 0.090419121 100
0.19917944 1.2697232 0.1186832 91
0.22864586 1.2277499 0.1291219 48
0.20479092 1.26173 0.16098544 72
0.20930895 1.2589145 0.010401634 97
0.22000083 1.2435709 0.030250182 98
0.20485827 1.2653015 0.05281638 100
0.21179691 1.2553442 0.072634131 78
0.22587508 1.235141 0.089793384 100
0.21888474 1.2451726 0.1125773 96
0.22578916 1.2352643 0.13092151 80
0.20871842 1.259762 0.15995017 72
0.21320775 1.2567527 0.010331824 84
0.22043663 1.2463051 0.030354854 97
0.20650265 1.2664434 0.05281638 100
0.22018525 1.2466685 0.071171694 65
0.22517139 1.2394621 0.090419121 100
0.22604766 1.2381957 0.11066922 85
0.22289854 1.2427469 0.13272113 86
0.2103444 1.260891 0.15995017 72
0.2149089 1.2579254 0.010331824 84
0.22888538 1.2375742 0.029726824 100
0.20710972 1.2692817 0.05299069 100
0.21510834 1.2576349 0.072634131 94
0.22233889 1.2471066 0.091670595 100
0.22657251 1.240942 0.11105084 98
0.23006684 1.2358539 0.13047162 96
0.20549804 1.2716285 0.163056 70
0.21210888 1.2657014 0.010471444 82
0.23051947 1.2386923 0.029726824 67
0.20885465 1.2704756 0.05299069 79
0.22799334 1.2423983 0.07019674 82
0.23068193 1.238454 0.089793384 100
0.22490105 1.2469348 0.11219569 91
0.2327925 1.2353576 0.13002171 100
0.21160352 1.2664428 0.16098544 72
0.21047968 1.2718467 0.010576159 40
0.21984664 1.2580013 0.030878214 31
0.21172014 1.2700131 0.05281638 79
0.21518376 1.2648935 0.073365346 46
0.23010528 1.2428379 0.090419121 100
0.22876805 1.2448145 0.11143246 91
0.23441884 1.2364621 0.13002171 100
0.21550351 1.2644209 0.15995017 72
0.22338092 1.2564272 0.01022711 42
0.21932533 1.262467 0.031087559 31
0.22235292 1.2579582 0.051421888 55
0.22687271 1.2512269 0.071171694 81
0.23726368 1.2357519 0.088854775 100
0.23589957 1.2377834 0.10952436 92
0.23170367 1.2440323 0.13182132 100
0.21938527 1.2623779 0.15891489 73
0.22951663 1.2509081 0.010087491 43
0.21661603 1.2702664 0.031506244 31
0.21079955 1.2789944 0.053513627 52
0.23075616 1.2490481 0.070684217 81
0.23450956 1.2434158 0.090106249 100
0.23209068 1.2470455 0.11143246 100
0.23444098 1.2435188 0.13137141 94
0.22003466 1.2651365 0.15943253 73
0.22237226 1.2653672 0.010366729 27
0.21395719 1.2780905 0.031924933 30
0.21477652 1.2768517 0.053165004 52
0.23462042 1.2468481 0.07019674 66
0.2372537 1.2428666 0.089793384 100
0.23484084 1.2465148 0.11105084 91
0.23932084 1.2397412 0.13002171 96
0.22176504 1.2662852 0.15943253 73
0.22190884 1.2698512 0.010436539 27
0.23107621 1.2558845 0.030459527 32
0.22857395 1.2596968 0.051247578 55
0.2341083 1.2512652 0.070684217 81
0.24432597 1.2356985 0.088229038 98
0.23542881 1.2492533 0.11143246 84
0.2463091 1.2326771 0.1277722 89
0.22243932 1.269043 0.15995017 72
0.21710691 1.2810469 0.010645968 26
0.22841373 1.2636889 0.030878214 31
0.2291978 1.2624853 0.051421888 55
0.23145622 1.2590182 0.071659178 80
0.2470316 1.2351074 0.087916173 84
0.23174584 1.2585737 0.11334054 89
0.24898964 1.2321014 0.1273223 97
0.22945541 1.2620897 0.15736198 74
0.24060479 1.2486185 0.0099478718 43
0.22797042 1.2681631 0.031087559 31
0.2395719 1.2502162 0.050027397 57
0.23963118 1.2501246 0.07019674 82
0.25080177 1.2328442 0.087290429 99
0.24197972 1.2464914 0.1102876 85
0.24743071 1.238059 0.128672 97
0.23537016 1.2567161 0.15529142 75
0.2509152 1.2362304 0.0096686333 90
0.24804434 1.2407056 0.029308135 68
0.23156801 1.2663898 0.051596198 54
0.23594978 1.2595593 0.071415432 96
0.24601963 1.2438619 0.089167647 84
0.25000519 1.237649 0.10799789 87
0.24801415 1.2407527 0.1291219 96
0.22976935 1.2691936 0.15891489 65
0.24395368 1.2507668 0.0099478718 73
0.25076178 1.2400719 0.029203463 68
0.23972222 1.2574139 0.05055033 84
0.24725464 1.2455813 0.069221787 67
0.25191873 1.2382545 0.087916173 70
0.24004236 1.256911 0.11219569 98
0.2580311 1.2286526 0.12552269 90
0.22632673 1.2784568 0.16150309 70
0.23914015 1.2619216 0.0101573 85
0.25338918 1.2393732 0.029098792 100
0.22750378 1.2803358 0.05281638 79
0.25201473 1.2415483 0.068490572 50
0.25558367 1.2359006 0.087290429 71
0.25004894 1.2446591 0.10914274 71
0.25747159 1.232913 0.12642249 99
0.23111063 1.274628 0.15995017 64
0.24617088 1.2545329 0.0099827768 87
0.25290734 1.2437899 0.029308135 100
0.24198866 1.2612026 0.05072464 84
0.24944422 1.2493128 0.069465525 49
0.25721174 1.2369255 0.087290429 71
0.24023485 1.2639995 0.11334054 89
0.26115981 1.2306293 0.12552269 90
0.23903185 1.265918 0.15684435 66
0.24689269 1.2573414 0.010017681 72
0.25675553 1.2414837 0.029098792 100
0.25010464 1.2521771 0.049678773 86
0.2491062 1.2537825 0.069953002 49
0.25892508 1.2379954 0.087290429 57
0.26071134 1.2351235 0.10647142 88
0.25564554 1.2432684 0.128672 97
0.24289215 1.2637734 0.15580906 67
0.25069606 1.254993 0.0099478718 73
0.25106072 1.254402 0.029831495 100
0.24237242 1.2684807 0.051247578 82
0.25705186 1.244694 0.068490572 50
0.25848565 1.2423707 0.087916173 70
0.25305721 1.2511669 0.10990598 85
0.26548678 1.2310261 0.12507279 92
0.24461761 1.2648425 0.15580906 67
0.25335056 1.2542776 0.0099129668 87
0.25788504 1.246875 0.029308135 100
0.24506786 1.267799 0.051073264 83
0.25447997 1.2524339 0.069465525 49
0.25799 1.2467037 0.08854191 56
0.26285851 1.2387559 0.10685304 81
0.26803508 1.2303052 0.12462288 92
0.24222383 1.2724419 0.15787962 65
0.25711995 1.2518924 0.0098431576 88
0.26162606 1.2444783 0.029098792 100
0.24059862 1.279076 0.052119136 81
0.25616577 1.2534624 0.069465525 49
0.26786339 1.2342157 0.086038955 72
0.25531963 1.2548547 0.1102876 85
0.27369204 1.2246255 0.12282328 93
0.24197286 1.2768149 0.15891489 65
0.25673863 1.2563368 0.0099129668 87
0.26122135 1.2489028 0.029308135 100
0.25163707 1.2647971 0.05055033 84
0.25580502 1.2578851 0.069953002 49
0.27050558 1.2335061 0.08572609 58
0.25498629 1.2592429 0.11105084 84
0.27427438 1.2272561 0.12327318 93
0.24972934 1.2679609 0.15580906 67
0.26459783 1.2470613 0.0097035384 90
0.26494554 1.24648 0.029098792 100
0.25336605 1.2658355 0.05055033 100
0.26770115 1.2418739 0.067515619 51
0.27111107 1.2361741 0.086038955 72
0.26072752 1.2535306 0.10952436 78
0.26986936 1.2382497 0.12597258 82
0.25047755 1.2706637 0.1563267 66
0.26728544 1.2463349 0.0096686333 75
0.26457173 1.2509072 0.029308135 100
0.24899724 1.277148 0.051596198 82
0.26732367 1.2462705 0.068003096 51
0.26971537 1.2422409 0.086977564 57
0.26141509 1.2562257 0.10990598 85
0.27349481 1.235873 0.12507279 83
0.25321305 1.270045 0.15580906 67
0.25981829 1.2628274 0.0099827768 87
0.26422536 1.2553427 0.029517479 100
0.25380209 1.2730451 0.051073264 83
0.27100229 1.2438332 0.067515619 51
0.27036324 1.2449186 0.087290429 57
0.27207929 1.2420042 0.10647142 66
0.28204408 1.2250805 0.12192347 85
0.25496033 1.2710779 0.15580906 67
0.26759195 1.2534771 0.0097733475 89
0.27297288 1.2442651 0.028784776 100
0.26158935 1.2637535 0.050027397 85
0.26665059 1.2550888 0.068978049 50
0.27999339 1.2322462 0.084787481 73
0.26679704 1.254838 0.10914274 78
0.28068554 1.2310612 0.12327318 93
0.26154035 1.2638373 -0.0099827768 86
0.25671121 1.2721047 0.15580906 67
0.26326594 1.2648413 0.0099827768 87
0.2756314 1.2435011 0.028680105 100
0.26631132 1.2595856 0.049504463 86
0.26834556 1.2560749 0.068978049 50
0.27962783 1.2366042 0.085413218 58
0.26849115 1.2558236 0.10914274 78
0.28522763 1.2269402 0.12192347 85
0.26326594 1.2648413 -0.0099827768 86
0.26233989 1.2664394 0.15373851 68
0.2709741 1.2554369 0.0097733475 89
0.27529529 1.2479191 0.028889447 100
0.26802203 1.2605728 0.049504463 86
0.26410854 1.2673813 0.070440479 49
0.28716463 1.2272694 0.083536007 60
0.27214545 1.2533991 0.10837951 94
0.28391087 1.2329301 0.12327318 76
0.26499498 1.2658391 -0.0099827768 86
0.26792538 1.260741 0.15166797 69
0.27663216 1.2494593 0.0096337283 90
0.2730082 1.2558153 0.029308135 100
0.26973617 1.2615541 0.049504463 86
0.27469555 1.2528559 0.068246834 51
0.27702138 1.2487767 0.087290429 71
0.28453106 1.2356054 0.10418171 82
0.28070232 1.2423207 0.12552269 99
0.26772639 1.265079 0.15270324 68
0.27633867 1.2538918 0.0097035384 90
0.28158805 1.2446098 0.028575432 100
0.26556894 1.2729349 0.05055033 84
0.2754055 1.2555418 0.068490572 50
0.27674946 1.2531655 0.087916173 56
0.27745986 1.2519093 0.10761628 79
0.29194576 1.2262951 0.12102367 86
0.26755425 1.2694246 0.15373851 76
0.27509448 1.2600763 0.0098082526 74
0.28226927 1.2472857 0.028680105 100
0.27122518 1.2669741 0.049853086 85
0.27904436 1.2530348 0.068003096 51
0.28713539 1.2386109 0.085100345 58
0.27434129 1.2614191 0.10952436 85
0.29544684 1.223794 0.12012386 86
0.27020293 1.2687964 -0.0099827768 86
0.26740906 1.2737771 0.15477379 67
0.27203301 1.2698187 0.0099827768 87
0.28402039 1.2482638 0.028680105 100
0.28176382 1.2523215 0.048284281 88
0.28081658 1.2540246 0.068003096 51
0.29173499 1.234392 0.084161744 59
0.28186947 1.2521315 0.10723466 73
0.29332322 1.2315361 0.12192347 85
0.27980828 1.2558377 -0.0097035384 89
0.27489102 1.2646796 0.15166797 69
0.27764261 1.2637819 0.0098431576 88
0.28569147 1.2491894 0.028680105 100
0.27959996 1.2602332 0.048981529 87
0.28826031 1.2445321 0.066540658 52
0.29431164 1.233561 0.083848871 59
0.2873469 1.2461882 0.10570818 81
0.29775944 1.2273102 0.12057377 86
0.27764261 1.2637819 -0.0098431576 87
0.28035161 1.2588705 0.14959741 70
0.28408152 1.2559114 0.0096686333 90
0.27961138 1.2640796 0.029517479 100
0.28027064 1.262875 0.049155839 87
0.28792939 1.2488801 0.067028143 51
0.29205701 1.2413378 0.085100345 58
0.28798494 1.2487787 0.1060898 81
0.29927731 1.2281442 0.12057377 77
0.27544156 1.2716991 -0.0099827768 86
0.27640969 1.26993 0.15270324 68
0.289511 1.2497611 0.0095290141 92
0.2936404 1.2421557 0.028156744 100
0.27620244 1.2742724 0.050201707 85
0.29141328 1.2462575 0.066540658 52
0.2917363 1.2456626 0.08572609 58
0.28957406 1.249645 0.1060898 81
0.29986811 1.2306857 0.12102367 86
0.27622542 1.27423 0.15373851 68
0.29497939 1.2436247 0.0093893949 93
0.28392759 1.2641501 0.029412808 100
0.28079805 1.2699623 0.049678773 86
0.29401842 1.2454095 0.06629692 35
0.29620776 1.2413434 0.084787481 59
0.29031914 1.2522796 0.10647142 73
0.2854991 1.2612315 -0.0097384425 99
0.27798718 1.2751826 0.15373851 68
0.28524515 1.2656336 0.0098082526 89
0.29497811 1.247413 0.028366089 100
0.28996742 1.2567933 0.048284281 88
0.29466102 1.2480066 0.066540658 52
0.29099485 1.2548698 0.10685304 81
0.28241858 1.270925 -0.0099129668 87
0.28512526 1.2658579 0.15063268 70
0.29276264 1.256042 0.0095988233 91
0.29681313 1.2483888 0.028366089 100
0.2890425 1.2630711 0.048807215 88
0.28906968 1.2630197 0.068490572 50
0.29836872 1.2454494 0.10456333 75
0.28621477 1.2684139 -0.0098431576 87
0.29154953 1.258334 0.1480445 79
0.29530537 1.2551218 0.0095639192 91
0.2900452 1.2651409 0.029308135 68
0.29530975 1.2551134 0.047935657 89
0.29808807 1.2498215 0.066540658 52
0.29994676 1.2462813 0.10456333 75
0.28972811 1.2657449 -0.0097733475 88
0.28957832 1.2660302 0.15011504 78
0.29700032 1.2560079 0.0095639192 91
0.29424474 1.2613013 0.048458595 59
0.29426482 1.2612627 0.068003096 51
0.29979774 1.2506341 0.10532656 75
0.28869009 1.2719717 -0.0098780617 97
0.28595918 1.2772176 0.15322088 76
0.29861337 1.2568442 0.0095639192 91
0.28856242 1.2763093 0.049853086 57
0.2885212 1.276389 -0.0099478718 100
0.28764263 1.2780905 0.15322088 76
0.29857752 1.2613226 0.0096337283 90
0.29950929 1.2595018 0.067515619 51
0.2931118 1.2720035 -0.0098431576 100
0.29390687 1.2704499 0.15063268 70
0.29931733 1.2639089 0.048458595 59
0.29574329 1.2709506 0.068978049 100
0.29296786 1.2764189 -0.0099129668 100
0.29819083 1.2661283 0.14907977 78
0.29665321 1.2737241 0.049330149 58
0.2992143 1.2727785 0.049155839 58
0.299936 1.2713317 0.15011504 78
0.29835135 1.2791724 0.1521856 77
