# .PCD v0.7 - Point Cloud Data file format
VERSION 0.7
FIELDS x y z intensity
SIZE 4 4 4 4
TYPE F F F F
COUNT 1 1 1 1
WIDTH 728
HEIGHT 1
VIEWPOINT 0 0 0 1 0 0 0
POINTS 728
DATA ascii
0.063008338 0.0014384389 0.015881689 40
0.055012226 0.00075042248 0.047939736 58
0.051723003 0.0015466809 0.015986403 100
0.044171095 0.00170362 0.016056214 8
0.041141689 0.0026546717 0.048253752 100
0.04597044 0.016236126 0.047521047 78
0.039010823 0.011285365 0.047939736 36
0.030758202 0.0048102736 0.048463095 25
0.028223574 0.0065363646 0.048463095 17
0.028827786 0.013388336 0.048149079 8
0.02632165 0.015120745 0.048149079 8
-1.1791594 0.72532433 0.030192664 10
-1.1853025 0.7312265 0.030297378 9
-1.1794293 0.73739713 0.030192664 12
-1.1895299 0.74328065 0.030367186 19
-1.195611 0.7492817 0.030471902 56
-1.1896739 0.75542539 0.030367186 27
-1.0544686 1.1362936 0.028726662 2
-1.0252535 1.129624 0.084679574 5
-1.0369523 1.1322947 0.14241248 6
-1.0201283 1.1339362 0.028133279 10
-1.0007043 1.1294339 0.083423518 13
-1.0163326 1.1330564 0.14066938 21
-0.99159795 1.1329981 0.027644612 22
-0.99749607 1.1343869 0.083318844 82
-1.03251 1.1426316 0.14223817 71
-0.99032146 1.1383771 0.027644612 38
-0.99621469 1.1397865 0.083318844 100
-1.0292618 1.1476899 0.14206386 100
-0.99291259 1.1446954 0.027714422 43
-0.98132855 1.1418822 0.082586139 100
-0.99889213 1.1461475 0.13944919 92
-0.97994596 1.1472068 0.027504992 28
-0.98389953 1.1481814 0.082795486 99
-0.9937008 1.150598 0.13910057 91
-0.97086042 1.1506031 0.027365373 26
-0.99032003 1.155473 0.083214171 60
-0.99816126 1.1574352 0.13962349 79
-0.96758443 1.1554173 0.027330469 37
-0.97735029 1.1578976 0.082586139 36
-0.99679941 1.162837 0.13962349 71
-0.97010273 1.1617103 0.027400278 59
-0.98178917 1.1647217 0.082900152 46
-0.99155992 1.1672395 0.13927488 91
-0.97259551 1.1680256 0.027470088 61
-0.96880811 1.1670356 0.08227212 100
-0.98052591 1.1700987 0.13840333 91
-0.95959944 1.1702631 0.027260659 75
-0.96548241 1.1718228 0.082167454 94
-0.9752683 1.1744175 0.1380547 99
-0.94467527 1.1718954 0.027016325 81
-0.9640705 1.1771104 0.082167454 94
-0.96422702 1.1771525 0.13718314 100
-0.94326335 1.1771103 0.027016325 89
-0.94915169 1.1787157 0.081434749 100
-0.97048551 1.1845319 0.13788038 98
-0.95354265 1.1849917 0.027225753 93
-0.94015926 1.1812978 0.081016064 100
-0.96725518 1.1887765 0.13770607 92
-0.95978791 1.1923926 0.027365373 92
-0.936791 1.1859589 0.08091139 90
-0.95235306 1.1903126 0.13648589 98
-0.94283956 1.1935569 0.027086135 88
-0.94678503 1.1946763 0.081539422 78
-0.94696909 1.1947285 0.13613728 100
-0.95672673 1.2031856 0.027365373 55
-0.94145447 1.1987947 0.081330076 48
-0.94930702 1.2010523 0.13648589 100
-0.9418419 1.2042673 0.027121039 42
-0.91892999 1.1975977 0.080178685 22
-0.95360833 1.2076924 0.13700883 84
-0.93456286 1.2077754 0.027016325 66
-0.92317563 1.2044175 0.080492698 28
-0.95589334 1.2140654 0.13735744 84
-0.9234454 1.2100933 0.026841801 74
-0.91399533 1.2072707 0.080074012 28
-0.93333453 1.213047 0.13544002 94
-0.92006379 1.2143984 0.026806897 78
-0.92209631 1.2150128 0.080597371 70
-0.92613572 1.216234 0.1349171 100
-0.90703088 1.2160152 0.026597468 89
-0.92053396 1.2201487 0.080597371 100
-0.92837936 1.2225503 0.13526571 99
-0.90554386 1.2208445 0.026597468 88
-0.91140181 1.2226589 0.080178685 90
-0.93067688 1.2286292 0.13561434 82
-0.90753788 1.2278824 0.026667276 81
-0.90576202 1.2273245 0.079969339 72
-0.92882389 1.2345693 0.13561434 52
-0.909823 1.2339245 0.026737086 85
-0.90423745 1.2321495 0.079969339 68
-0.90828711 1.2334363 0.13387123 43
-0.89288443 1.2343709 0.026457848 81
-0.9044351 1.2380884 0.080074012 84
-0.89709574 1.2357262 0.13299966 48
-0.88753361 1.2379153 0.026388038 93
-0.90667325 1.2441452 0.080283359 100
-0.90880519 1.2448392 0.13421984 57
-0.8858915 1.2429304 0.026388038 100
-0.89173013 1.2448534 0.079550654 100
-0.90903121 1.2505517 0.13439415 77
-0.88810986 1.2489531 0.026457848 100
-0.88825268 1.2490007 0.07944598 100
-0.91499096 1.2579056 0.13509139 82
-0.88642925 1.2539701 0.026457848 96
-0.88089377 1.252105 0.079131968 100
-0.89439791 1.256655 0.13334829 84
-0.87345904 1.2548622 0.02624842 96
-0.87928718 1.2568474 0.079131968 100
-0.89089018 1.2607996 0.13317397 95
-0.86402518 1.2577162 0.0261088 93
-0.8830716 1.2642856 0.07944598 100
-0.8908785 1.2669783 0.13334829 100
-0.86617655 1.2637192 0.02617861 81
-0.86445111 1.2631177 0.078503937 99
-0.90239185 1.2763449 0.13456847 64
-0.86812907 1.2702368 0.02624842 77
-0.84756619 1.2629833 0.077666558 65
-0.91367871 1.2863042 0.13578865 36
-0.87588042 1.2782941 0.026422944 88
-0.84780496 1.2682858 0.077771232 23
-0.89131469 1.2837961 0.13387123 36
-0.85707778 1.2774115 0.0261088 93
-0.85724229 1.2774708 0.078399263 34
-0.8800506 1.2856958 0.13299966 31
-0.84787196 1.2793365 0.025969181 99
-0.86118144 1.2841859 0.078713275 82
-0.87646061 1.2897532 0.13282534 16
-0.84617525 1.2839692 0.025969181 100
-0.85197133 1.2861028 0.07829459 100
-0.88033837 1.2965455 0.13334829 13
-0.84821171 1.2899902 0.026038991 100
-0.8315323 1.2837873 0.077247873 99
-0.91033083 1.3130921 0.13631158 1
-0.84246165 1.2939467 0.025969181 100
-0.83702654 1.2919016 0.077666558 44
-0.87093967 1.3046622 0.13282534 1
-0.84071654 1.2985613 0.025969181 93
-0.8390221 1.2979174 0.077875905 53
-0.83191067 1.2952147 0.12933913 7
-0.82206219 1.2969601 0.025655037 72
-0.84276432 1.304911 0.078189917 57
-0.85982782 1.3114645 0.1321281 45
-0.82776469 1.3043997 0.025794657 74
-0.83539659 1.3073599 0.077875905 72
-0.84687918 1.3118137 0.13108224 90
-0.83696693 1.3138256 0.026004085 88
-0.81296402 1.3044142 0.076724514 65
-0.85601324 1.3212936 0.1321281 100
-0.82948273 1.3164544 0.025899371 100
-0.81666082 1.3113753 0.077038527 81
-0.83185214 1.3173929 0.13003637 99
-0.82014066 1.3182945 0.025759751 100
-0.82959718 1.3220788 0.077875905 91
-0.82253391 1.3192523 0.12933913 99
-0.80709463 1.3185773 0.025550323 100
-0.82951337 1.3276396 0.077980578 97
-0.83353859 1.3292668 0.1305593 100
-0.80897099 1.3245858 0.025620133 100
-0.80731529 1.3239101 0.07682918 100
-0.83905512 1.3368628 0.13125655 100
-0.79720896 1.3197858 0.17866045 21
-0.81072444 1.3308501 0.025689943 100
-0.80168039 1.3271224 0.076619841 100
-0.82233149 1.3356342 0.12986206 100
-0.7769286 1.3169205 0.17622307 15
-0.80865973 1.3358337 0.025689943 100
-0.79225439 1.3290014 0.076201156 100
-0.8073743 1.3352983 0.12864187 100
-0.80240291 1.3332279 0.17987914 26
-0.79930311 1.337472 0.025550323 100
-0.7976591 1.3367805 0.076619841 100
-0.8053928 1.3400331 0.12864187 100
-0.79310924 1.334867 0.17890419 21
-0.7863695 1.3372552 0.025340894 99
-0.79393369 1.340466 0.076515168 78
-0.81083101 1.3476385 0.12933913 100
-0.77112859 1.3307858 0.17622307 20
-0.81011313 1.3529452 0.025829561 57
-0.8066203 1.3514482 0.077352546 40
-0.80514389 1.3508154 0.1289905 45
-0.75639099 1.3299198 0.1745169 11
-0.82458705 1.3648369 0.026143705 83
-0.80274934 1.355387 0.077247873 78
-0.82870752 1.3666201 0.13143086 43
-0.77629048 1.3439372 0.17744176 9
-0.80601031 1.3624263 0.025829561 100
-0.80801862 1.3633037 0.077666558 100
-0.82296509 1.3698337 0.13108224 100
-0.77973622 1.3509474 0.17817298 21
-0.79661554 1.3639282 0.025689943 100
-0.81142157 1.3704584 0.077980578 100
-0.80627924 1.3681904 0.12968774 100
-0.79041415 1.3611931 0.17987914 31
-0.78722686 1.3653717 0.025550323 100
-0.82026476 1.3800812 0.07860861 100
-0.80236274 1.3721106 0.12951343 100
-0.75932676 1.3529499 0.17597933 28
-0.79426032 1.3741345 0.025724847 100
-0.80355293 1.3783108 0.077771232 100
-0.80752188 1.3800945 0.13021068 100
-0.74642009 1.3526343 0.1745169 20
-0.79942757 1.3821275 0.025864467 100
-0.80505902 1.3846819 0.077980578 100
-0.80719846 1.3856525 0.130385 100
-0.77872652 1.3727371 0.17914793 19
-0.79910082 1.3876666 0.025899371 100
-0.80653709 1.3910711 0.078189917 100
-0.80322963 1.3895569 0.13021068 100
-0.78022426 1.3790243 0.17963541 14
-0.79875189 1.3932109 0.025934275 100
-0.81161314 1.3991536 0.07860861 100
-0.79744142 1.3926053 0.12986206 100
-0.78169435 1.3853291 0.18012288 12
-0.79294354 1.3962249 0.025864467 100
-0.8112188 1.4047468 0.078713275 100
-0.79887134 1.398989 0.13021068 100
-0.76514548 1.3832624 0.17817298 10
-0.79436821 1.4026117 0.025934275 100
-0.80718774 1.408644 0.07860861 100
-0.80748421 1.4087836 0.13125655 100
-0.75940448 1.3861589 0.1776855 5
-0.80502099 1.4128318 0.02617861 100
-0.80156571 1.4111924 0.078399263 100
-0.81447119 1.417315 0.1321281 100
-0.77360374 1.3979272 0.17987914 3
-0.79375046 1.4132407 0.026004085 100
-0.8011207 1.4167688 0.078503937 100
-0.80321771 1.4177725 0.13125655 100
-0.79329759 1.418797 0.026038991 100
-0.8042503 1.424087 0.078817949 100
-0.80094832 1.4224923 0.13125655 100
-0.78742939 1.42173 0.025969181 100
-0.8091405 1.4323099 0.079236634 100
-0.8022446 1.4289496 0.13160518 100
-0.78873545 1.4281591 0.026038991 100
-0.79965097 1.4335256 0.078817949 100
-0.80351216 1.4354239 0.13195379 100
-0.80076152 1.4399362 0.02631823 100
-0.79732651 1.4382327 0.078817949 100
-0.81189066 1.445456 0.13299966 100
-0.80187339 1.4466727 0.026388038 100
-0.7984404 1.4449543 0.079027295 100
-0.80940586 1.450443 0.13299966 100
-0.79236287 1.4477823 0.02624842 100
-0.80320758 1.4532579 0.07944598 100
-0.79990822 1.451592 0.13230242 100
-0.78286129 1.4488337 0.0261088 100
-0.80793327 1.461603 0.079864666 100
-0.80817324 1.4617252 0.13334829 100
-0.79115587 1.4589646 0.02631823 100
-0.79485148 1.4608631 0.079236634 100
-0.81992811 1.4737451 0.13474278 100
-0.79963988 1.4686905 0.026527658 99
-0.79622191 1.4669211 0.07944598 100
-0.81594115 1.4771295 0.13456847 100
-0.79719275 1.4733975 0.026527658 100
-0.79732186 1.4734648 0.079655327 100
-0.80993217 1.4800489 0.13421984 100
-0.78411299 1.4725055 0.02631823 96
-0.80015975 1.4809554 0.079969339 100
-0.80391949 1.4829351 0.13387123 100
-0.77635425 1.4743445 0.026213514 35
-0.79766983 1.4856639 0.079969339 34
-0.79262429 1.4829845 0.13299966 75
0.11812887 1.3044598 0.13356629 5
0.15831679 1.2582017 0.010925206 13
0.13879624 1.2825325 0.03443706 27
0.098654032 1.3325665 0.063100755 19
0.16184399 1.2538054 0.098240845 12
0.14088297 1.2799315 0.12707879 17
0.2000044 1.2062414 0.1291219 8
0.12808403 1.2958844 0.18065569 6
0.14996824 1.272009 0.011204445 37
0.15916842 1.2604635 0.032866981 58
0.14894649 1.2732912 0.056302611 48
0.14670402 1.2761054 0.07945881 14
0.16345045 1.2550899 0.098240845 12
0.1450232 1.2782147 0.12631555 64
0.18809399 1.2241641 0.13407083 15
0.15390873 1.267064 0.17030293 14
0.15925369 1.2640611 0.010995016 100
0.17088032 1.2493603 0.032029606 91
0.15697348 1.2669442 0.055431053 99
0.16087577 1.2620101 0.077021427 29
0.17503405 1.2441084 0.095737889 25
0.16272077 1.2596773 0.12135452 100
0.18492562 1.2316015 0.13587044 45
0.1509397 1.2745733 0.17237349 42
0.17324674 1.2496287 0.010645968 100
0.17493951 1.2474737 0.03182026 100
0.15616208 1.2713784 0.055779677 100
0.16005698 1.26642 0.077508904 29
0.17660829 1.2453492 0.095737889 25
0.17041048 1.2532394 0.11944643 100
0.18284699 1.237407 0.13722014 30
0.15142179 1.2774131 0.17289113 42
0.15893638 1.27144 0.011099731 100
0.17415199 1.2519298 0.032029606 91
0.15423882 1.2774634 0.056302611 96
0.17522076 1.2505593 0.074827775 30
0.17341062 1.2528803 0.096989371 25
0.18296576 1.2406284 0.11601187 100
0.18448079 1.2386857 0.13722014 30
0.15319541 1.2788012 0.17289113 42
0.16794851 1.2632484 0.010890301 78
0.1806443 1.2468575 0.031610917 61
0.15836391 1.2756226 0.055953987 73
0.17803201 1.2502302 0.074584037 30
0.17501399 1.2541265 0.096989371 25
0.18332621 1.2433951 0.11639348 39
0.19319695 1.2306514 0.13452072 31
0.145421 1.2923326 0.17703223 34
0.16854021 1.2662308 0.010925206 78
0.1738739 1.2592924 0.032343622 30
0.16386256 1.2723159 0.055431053 49
0.17858481 1.2531641 0.074827775 45
0.19605333 1.2304398 0.091983467 40
0.1790812 1.2525184 0.11830158 13
0.19488773 1.231956 0.13452072 31
0.15322503 1.2861539 0.17444403 56
0.1774686 1.2579565 0.010715778 53
0.16095477 1.2795869 0.033599682 28
0.17399359 1.2625082 0.054210871 51
0.18741664 1.2449261 0.073365346 46
0.19278735 1.2378914 0.093234941 53
0.20331886 1.2240968 0.11105084 21
0.19642156 1.2331312 0.13452072 31
0.1713509 1.2659698 0.16719711 60
0.18409005 1.252943 0.010576159 40
0.1580005 1.2873771 0.034018371 27
0.17098838 1.2702353 0.054908119 50
0.18436456 1.2525808 0.074340299 46
0.19450465 1.2391975 0.093234941 53
0.20024309 1.2316236 0.1125773 13
0.19223714 1.2421902 0.13677025 45
0.17900452 1.2596552 0.16460891 69
0.17847958 1.263741 0.010785587 39
0.15491489 1.2950579 0.03443706 27
0.17744106 1.2651212 0.054210871 51
0.18357977 1.256963 0.074827775 100
0.19368711 1.2435306 0.093860678 52
0.19941497 1.2359185 0.11334054 13
0.21372375 1.2169025 0.1291219 32
0.17598414 1.2670574 0.16667947 67
0.17541835 1.2714431 0.010925206 52
0.19021818 1.2516309 0.031506244 31
0.1767869 1.2696111 0.054559495 50
0.19597387 1.2439259 0.072634131 63
0.19652441 1.243189 0.093547814 52
0.19399384 1.2465765 0.11563025 13
0.21528578 1.2180736 0.1291219 32
0.17772147 1.2683599 0.16667947 67
0.18304038 1.2646525 0.010750682 79
0.18467742 1.2624457 0.032134276 30
0.17963278 1.2692457 0.054385185 51
0.19518197 1.2482859 0.073121607 62
0.21221876 1.2253207 0.089793384 69
0.19674587 1.2461778 0.11524864 13
0.21909562 1.2160509 0.12822211 32
0.18167815 1.2664887 0.16564418 68
0.18959796 1.2595526 0.010611063 94
0.19240522 1.2557393 0.031610917 61
0.18855232 1.260973 0.053339314 78
0.19340673 1.2543789 0.073852822 62
0.20100757 1.2440543 0.093234941 92
0.20896888 1.2332401 0.11181407 14
0.21149012 1.2298154 0.13182132 23
0.19151753 1.2569451 0.16202073 70
0.19830447 1.2510593 0.010401634 97
0.20698419 1.2391869 0.030459527 65
0.18665481 1.266994 0.053862248 100
0.20204437 1.2459438 0.072390392 95
0.20141569 1.2468038 0.093547814 100
0.2116656 1.2327836 0.11143246 14
0.22336781 1.216777 0.1277722 16
0.19085398 1.2612503 0.163056 70
0.19763675 1.2555208 0.010471444 82
0.2039316 1.2468472 0.030878214 95
0.17902982 1.2811593 0.055256739 99
0.21070364 1.2375159 0.070927955 97
0.2054027 1.2448201 0.092922069 100
0.20636424 1.2434952 0.11372216 13
0.22721857 1.2147601 0.12687239 16
0.18689749 1.2703185 0.16564418 68
0.19457203 1.2631757 0.010611063 81
0.21485677 1.2350296 0.03004084 66
0.18305671 1.2791538 0.054908119 100
0.20877394 1.2434698 0.071659178 64
0.21737373 1.2315372 0.090106249 96
0.20449269 1.2494103 0.11486702 13
0.24692526 1.1905328 0.11967396 17
0.18742907 1.273087 0.16616182 76
0.1894027 1.2742345 0.010820492 91
0.20726904 1.2492515 0.030878214 63
0.19651499 1.2642891 0.053165004 100
0.20473796 1.2527908 0.072877869 94
0.21217313 1.242394 0.091983467 93
0.20054206 1.2586581 0.1167751 19
0.22806427 1.2201729 0.1277722 16
0.2016367 1.2571274 0.1604678 88
0.20033932 1.2623843 0.010541254 81
0.21001658 1.248757 0.030773543 96
0.19584888 1.2687076 0.053513627 100
0.19484726 1.2701181 0.075315252 100
0.21488526 1.241901 0.091670595 100
0.20898473 1.25021 0.1144854 27
0.22843054 1.2228268 0.12822211 16
0.19542426 1.2693056 0.16409127 77
0.21358138 1.2472574 0.010192205 100
0.21284056 1.2483084 0.03066887 64
0.19988769 1.2666838 0.053165004 100
0.20803219 1.2551297 0.072877869 94
0.21653453 1.243068 0.091670595 100
0.20161405 1.2642348 0.11753834 66
0.23001316 1.2239466 0.12822211 32
0.20162144 1.2642243 0.16202073 70
0.20837092 1.2582595 0.010401634 83
0.22023726 1.2413001 0.030145511 98
0.19705471 1.2744328 0.053862248 100
0.22338411 1.2368026 0.069953002 49
0.21592295 1.2474661 0.092296332 100
0.20784345 1.2590134 0.11601187 100
0.22936529 1.2282542 0.1291219 64
0.19559613 1.2765174 0.16564418 68
0.21244359 1.2562231 0.010331824 84
0.22082788 1.2441462 0.030250182 98
0.194361 1.2822696 0.054559495 100
0.2160407 1.2510417 0.071902916 48
0.22105476 1.2438194 0.09135773 94
0.22307342 1.2409117 0.11143246 84
0.23660371 1.2214223 0.12687239 82
0.2018618 1.2714653 0.16357364 69
0.20733497 1.2672781 0.010541254 95
0.22135168 1.2469369 0.030354854 97
0.20519537 1.2703831 0.053165004 100
0.21884826 1.2505699 0.071659178 64
0.228315 1.2368317 0.089793384 100
0.21580738 1.2549828 0.1144854 87
0.22712398 1.2385602 0.13137141 94
0.21128747 1.2615422 0.15995017 72
0.20681506 1.2717724 0.010611063 94
0.21850842 1.2546754 0.030773543 96
0.21594232 1.2584274 0.051770512 100
0.22052777 1.2517229 0.071659178 64
0.22883132 1.2395823 0.090106249 96
0.22636893 1.2431825 0.11143246 100
0.2276614 1.2412928 0.13182132 94
0.21736771 1.2563432 0.15787962 81
0.2209231 1.2547678 0.01022711 70
0.22805458 1.2442622 0.03004084 66
0.21429223 1.2645358 0.052293446 80
0.22890088 1.2430155 0.07019674 99
0.227144 1.2456037 0.091044858 100
0.23022795 1.2410606 0.11066922 85
0.2314975 1.2391905 0.13092151 96
0.21581233 1.2622964 0.15943253 73
0.21806189 1.2624892 0.010366729 41
0.21511748 1.2668577 0.031401575 31
0.20591202 1.2805157 0.053862248 51
0.23269016 1.2407856 0.069709264 83
0.23203507 1.2417575 0.090106249 100
0.23288906 1.2404904 0.1102876 85
0.23632261 1.2353961 0.12957181 96
0.21636695 1.2650039 0.15995017 72
0.22200671 1.2603207 0.010296919 42
0.22351682 1.2580632 0.030773543 32
0.20548061 1.2850258 0.054210871 51
0.22440195 1.2567401 0.071902916 96
0.23368376 1.2428646 0.090106249 96
0.23344174 1.2432263 0.11066922 85
0.23794904 1.2364883 0.12957181 100
0.21487451 1.2709827 0.16150309 70
0.22159454 1.2648518 0.010366729 27
0.20763752 1.2858827 0.032448292 29
0.22499782 1.2597237 0.051421888 55
0.22179747 1.2645462 0.072877869 94
0.2397882 1.2374371 0.088854775 98
0.23300713 1.247655 0.11143246 84
0.23535067 1.2441237 0.13137141 94
0.22205409 1.2641594 0.15891489 73
0.2277236 1.2593151 0.01022711 28
0.2138347 1.2804028 0.032029606 30
0.23109284 1.2541995 0.05072464 56
0.23116896 1.254084 0.071171694 81
0.24250829 1.2368674 0.08854191 84
0.24007577 1.2405607 0.10952436 92
0.24022326 1.2403368 0.13002171 96
0.23121926 1.2540076 0.15529142 75
0.23380992 1.2537417 0.010087491 28
0.21124738 1.2882602 0.032448292 29
0.23169488 1.2569776 0.050898954 55
0.2415494 1.241901 0.069221787 83
0.23981673 1.2445519 0.089793384 100
0.23849779 1.2465696 0.11066922 100
0.24613175 1.2348905 0.12822211 89
0.22339803 1.269671 0.15995017 72
0.23985335 1.2481319 0.0099478718 43
0.23044905 1.2626299 0.030773543 32
0.22580686 1.2697864 0.052119136 54
0.24751967 1.2363132 0.068246834 85
0.2457751 1.2390027 0.08854191 98
0.24230003 1.24436 0.10990598 92
0.24563536 1.2392181 0.1291219 96
0.22829813 1.2659458 0.15839726 73
0.23702514 1.2558281 0.010087491 43
0.25146776 1.2334089 0.028889447 34
0.22629958 1.2724773 0.052293446 53
0.25006118 1.2355924 0.068003096 68
0.24938959 1.2366349 0.087916173 84
0.24379179 1.2453243 0.10990598 85
0.25238776 1.2319808 0.12687239 90
0.22881156 1.2685781 0.15891489 73
0.23441458 1.263657 0.01022711 56
0.24232945 1.251276 0.029936166 66
0.22912869 1.2719254 0.052119136 81
0.24099606 1.2533618 0.070440479 49
0.25102028 1.2376814 0.087916173 70
0.24016556 1.254661 0.11181407 84
0.25610146 1.2297331 0.12597258 82
0.23159441 1.2680684 0.15839726 73
0.24907684 1.2445451 0.0098082526 59
0.2440955 1.2524005 0.029936166 66
0.24164039 1.2562721 0.05037602 84
0.24064359 1.257844 0.070927955 48
0.25696793 1.2321011 0.086664692 86
0.25245789 1.2392132 0.10799789 72
0.2546576 1.2357445 0.1273223 81
0.23445663 1.2676007 0.15787962 65
0.24754015 1.2506701 0.0099129668 87
0.24684495 1.2517749 0.029831495 99
0.23591191 1.2691498 0.051596198 82
0.24657723 1.2522004 0.069953002 49
0.25016639 1.2464964 0.089167647 70
0.24573281 1.2535423 0.11105084 98
0.25628516 1.2367725 0.1273223 97
0.2361955 1.268699 0.15787962 65
0.24807641 1.2533665 0.0099478718 73
0.25690895 1.2392259 0.028994121 100
0.23440233 1.2752581 0.052119136 81
0.24397138 1.2599385 0.070927955 97
0.25802714 1.2374358 0.087290429 71
0.25773874 1.2378975 0.10723466 81
0.26196417 1.2311327 0.12552269 99
0.23580411 1.2730138 0.15891489 65
0.25081894 1.2527177 0.0099129668 87
0.25223562 1.250432 0.029622151 100
0.23931676 1.2712761 0.051596198 82
0.24986649 1.2542545 0.069953002 49
0.26278251 1.233415 0.086351827 58
0.24592844 1.2606084 0.11219569 91
0.26460221 1.230479 0.12507279 83
0.23756185 1.2741076 0.15891489 65
0.25363743 1.2521075 0.0098780617 88
0.25713632 1.2464156 0.029308135 100
0.25054663 1.2571354 0.050027397 85
0.25372252 1.2519691 0.069465525 49
0.26758638 1.229416 0.085413218 58
0.25492558 1.2500119 0.10952436 78
0.26833293 1.2282016 0.12417299 92
0.24750513 1.2620832 0.15477379 67
0.25428084 1.2548462 0.0099129668 87
0.25568113 1.2525504 0.029622151 100
0.24809903 1.2649816 0.05072464 84
0.2585077 1.2479161 0.068734311 50
0.26302016 1.2405177 0.087290429 57
0.25353608 1.2560673 0.11066922 92
0.26993406 1.229182 0.12417299 92
0.2452009 1.2697332 0.15684435 66
0.26218686 1.2456106 0.0097035384 90
0.25736734 1.2535748 0.029622151 100
0.25601777 1.255805 0.049678773 86
0.2622332 1.2455341 0.068246834 34
0.26875514 1.2347565 0.086038955 72
0.2684482 1.2352637 0.10570818 81
0.26447618 1.2418275 0.1273223 89
0.24694714 1.2707942 0.15684435 66
0.26384881 1.2466123 0.0097035384 90
0.2652255 1.2443193 0.028994121 100
0.24643418 1.2756181 0.051596198 82
0.25878584 1.2550452 0.069465525 49
0.27037916 1.2357354 0.086038955 58
0.26502118 1.2446597 0.10761628 87
0.27314657 1.2311261 0.12417299 83
0.2506859 1.2685364 0.15580906 67
0.26039758 1.2561984 0.0098780617 73
0.27301541 1.2350149 0.028366089 100
0.24922058 1.2749629 0.051421888 82
0.26657587 1.245826 0.068003096 51
0.26998481 1.2401029 0.086664692 57
0.25663295 1.2625186 0.11143246 77
0.2787469 1.2253927 0.12237337 76
0.24748486 1.2778769 0.15839726 73
0.25294057 1.2727005 0.010192205 85
0.26244727 1.2566128 0.029622151 100
0.26010755 1.2605722 0.049853086 85
0.26621875 1.2502303 0.068490572 50
0.27363738 1.2376761 0.086038955 72
0.26334789 1.2550886 0.10952436 78
0.28033817 1.2263367 0.12237337 93
0.26209649 1.2572063 -0.0098780617 87
0.26007047 1.2606349 0.15270324 68
0.26877177 1.2495337 0.0097035384 90
0.26810405 1.2506722 0.029203463 100
0.26375178 1.2580935 0.049504463 86
0.26279169 1.2597306 0.069709264 33
0.27718839 1.235182 0.085413218 73
0.26793763 1.2509561 0.10837951 87
0.27889541 1.2322714 0.12372308 83
0.2616905 1.2616082 -0.0099478718 86
0.26267636 1.2599272 0.1521856 77
0.27036351 1.2504636 0.0097035384 100
0.26668558 1.256783 0.029517479 100
0.26537192 1.25904 0.049504463 100
0.26841146 1.2538176 0.068734311 33
0.27773884 1.2377915 0.08572609 58
0.27052164 1.2501919 0.10799789 87
0.27944958 1.2348521 0.12417299 83
0.26138732 1.2658863 0.15373851 68
0.27204236 1.2514367 0.0097035384 90
0.27337962 1.2491205 0.028994121 100
0.26010737 1.2721088 0.05072464 84
0.27307963 1.2496401 0.068003096 51
0.27542266 1.2455819 0.086977564 57
0.27907091 1.2392629 0.10532656 67
0.28497136 1.229043 0.12237337 76
0.25925633 1.2735828 0.15580906 67
0.26866987 1.2610314 0.0098780617 73
0.27894151 1.2431033 0.028575432 100
0.26276448 1.2713386 0.05055033 84
0.27269801 1.2540007 0.068490572 50
0.28191131 1.2379198 0.085413218 58
0.27184469 1.2554901 0.10876112 87
0.29037014 1.223156 0.12057377 86
0.26188824 1.2728679 0.15529142 75
0.26858252 1.2655857 0.0099478718 73
0.27681521 1.2510877 0.028994121 100
0.2656754 1.2707052 0.05037602 84
0.27259806 1.2585143 0.068978049 50
0.28761163 1.2320747 0.084161744 59
0.26886371 1.2650906 0.11066922 92
0.28922522 1.2292333 0.12192347 76
0.26858252 1.2655857 -0.0099478718 86
0.2685909 1.265571 0.15270324 68
0.27317247 1.2612897 0.0098431576 88
0.28625575 1.2380707 0.028156744 100
0.28103036 1.2473443 0.047935657 89
0.28006649 1.2490548 0.067515619 51
0.29108483 1.2295004 0.083536007 60
0.28110847 1.2472056 0.10647142 73
0.28787959 1.2351887 0.12327318 76
0.27023581 1.2665014 0.15270324 68
0.27985132 1.2535723 0.0096686333 75
0.27823231 1.2564704 0.029203463 100
0.26723447 1.2761567 0.05072464 84
0.28182411 1.250041 0.067515619 51
0.28988048 1.2356199 0.084474608 59
0.28573182 1.243046 0.10532656 82
0.29053676 1.2344451 0.12282328 76
0.27394181 1.2641505 0.15166797 77
0.28242585 1.2527165 0.0096337283 90
0.28372014 1.2503816 0.028784776 100
0.27471009 1.2666361 0.049678773 86
0.28726703 1.2439828 0.066540658 52
0.28663757 1.2451184 0.086038955 72
0.28444654 1.2490711 0.10647142 81
0.29302314 1.2335986 0.12237337 76
0.27370882 1.2684424 0.15270324 68
0.28218576 1.2571523 0.0097035384 90
0.29117173 1.2408068 0.028156744 100
0.27644536 1.2675941 0.049678773 86
0.28318518 1.2553344 0.068003096 51
0.29305586 1.2373797 0.084474608 59
0.283283 1.2551564 0.10761628 79
0.27545041 1.2694039 0.15270324 68
0.28093007 1.2633042 0.0098082526 89
0.28986529 1.2469227 0.02847076 100
0.28382123 1.2580037 0.048632905 88
0.28479609 1.2562165 0.068003096 51
0.29555306 1.236495 0.084161744 59
0.28583339 1.2543147 0.10723466 81
0.29711783 1.2336261 0.12192347 76
0.28173327 1.2618318 0.15011504 78
0.29043257 1.2502602 0.0095290141 76
0.28979915 1.2514322 0.028680105 100
0.28569698 1.2590222 0.048632905 88
0.28666496 1.2572312 0.068003096 51
0.29236233 1.2466898 0.10532656 82
0.29889986 1.2345937 0.12192347 76
0.28821644 1.2543606 0.14752686 71
0.29580641 1.244069 0.0093893949 77
0.28950948 1.2558128 0.028889447 100
0.27696353 1.2792108 0.05055033 84
0.29391047 1.247605 0.066540658 52
0.29858318 1.2388904 0.10341848 76
0.2843467 1.2654413 0.15063268 70
0.29285321 1.2538265 0.0095639192 91
0.29005247 1.2590961 0.048458595 59
0.29379943 1.2520461 0.067028143 51
0.2978346 1.2444539 0.085100345 58
0.29108956 1.2571448 0.10723466 81
0.2825298 1.2732501 -0.0099478718 86
0.28797767 1.2629999 0.14959741 70
0.29166117 1.2599832 0.0096686333 75
0.28517124 1.2722924 0.049678773 86
0.287067 1.2686968 0.069221787 33
0.29940933 1.2452875 0.085100345 58
0.29453766 1.2545274 0.10647142 81
0.28793064 1.2670587 -0.0098082526 99
0.28601 1.2707016 0.15166797 77
0.29068035 1.2662437 0.0097733475 89
0.29932141 1.2497078 0.028366089 100
0.28978229 1.2679622 0.049155839 58
0.29073533 1.2661386 0.068734311 33
0.29631528 1.2554605 0.10647142 73
0.28975421 1.268016 -0.0098082526 88
0.29142582 1.2648171 0.14959741 78
0.29694968 1.2581835 0.067515619 51
0.28680584 1.2777531 -0.0099827768 100
0.29306811 1.2656718 0.14959741 70
0.29985362 1.2567322 0.028680105 100
0.29499924 1.2661779 0.048807215 58
0.29139626 1.2731885 0.069465525 66
0.29479989 1.2665657 0.14959741 70
0.29381594 1.2725726 0.15115032 77
0.29394057 1.2769115 -0.0099129668 100
0.29740173 1.2700596 0.15011504 78
0.29741436 1.2741821 -0.0098431576 100
