# .PCD v0.7 - Point Cloud Data file format
VERSION 0.7
FIELDS x y z intensity
SIZE 4 4 4 4
TYPE F F F F
COUNT 1 1 1 1
WIDTH 725
HEIGHT 1
VIEWPOINT 0 0 0 1 0 0 0
POINTS 725
DATA ascii
0.056074768 0.0082581043 0.015846785 100
0.049653947 0.0042247772 0.047939736 35
0.048082232 0.0076441765 0.047835063 100
0.03441447 0.0047490001 0.048358422 34
0.039729953 0.018031716 0.047625721 28
0.034853756 0.016519964 0.047835063 18
0.026561856 0.010098696 0.048358422 8
0.023689806 0.016953349 0.048149079 8
-1.0624592 1.1372297 0.02886628 3
-1.0332313 1.1305732 0.085098267 5
-1.0410268 1.1323485 0.14276111 6
-1.0474656 1.1399789 0.028621947 8
-0.9988212 1.1287127 0.083318844 13
-1.018337 1.1332326 0.14084367 19
-0.99756438 1.1338329 0.027749326 20
-1.0112329 1.1370463 0.084051549 78
-1.0171239 1.1384313 0.14084367 68
-0.98066097 1.1357844 0.027470088 37
-1.0098772 1.1427661 0.084051549 100
-1.0177009 1.1446358 0.14101799 100
-0.98138303 1.1413294 0.027504992 43
-0.97951728 1.140877 0.082481466 100
-1.0087047 1.1479543 0.14032075 87
-0.983895 1.1478964 0.027574802 28
-0.97620839 1.1460027 0.082376793 100
-1.0015054 1.152235 0.13979781 84
-0.98263341 1.1529809 0.027574802 25
-0.97882849 1.1520301 0.082586139 66
-0.99443048 1.1559289 0.13927488 84
-0.97152811 1.1561363 0.027400278 34
-0.97935385 1.1581223 0.082690813 35
-0.98528093 1.1596265 0.13857763 77
-0.96055633 1.1586881 0.027225753 53
-0.98579544 1.1651825 0.083109498 45
-0.98398036 1.1647155 0.13857763 91
-0.95718676 1.1637166 0.027190849 64
-0.96114773 1.1647513 0.081853434 94
-0.98252338 1.1703352 0.13857763 89
-0.96360523 1.1707597 0.027330469 74
-0.95983034 1.1697602 0.081853434 100
-0.9811874 1.1754149 0.13857763 94
-0.9564032 1.174485 0.027225753 81
-0.94878107 1.1724384 0.081330076 96
-0.96244484 1.1761073 0.13700883 100
-0.95119447 1.1784283 0.027155945 93
-0.95707434 1.180028 0.081853434 100
-0.96108979 1.1811204 0.13700883 100
-0.93819338 1.1804757 0.026946515 93
-0.94985777 1.1836929 0.081539422 100
-0.96348685 1.1874522 0.13735744 91
-0.94067591 1.1864846 0.027016325 92
-0.93885976 1.1859772 0.081016064 92
-0.95633751 1.1908604 0.13683452 98
-0.94668704 1.1946485 0.027155945 85
-0.93333501 1.1908603 0.080806717 84
-0.95655268 1.1974477 0.13700883 100
-0.97602171 1.2084445 0.027714422 47
-0.93769008 1.1974313 0.081120729 50
-0.94363743 1.1991401 0.13596296 100
-0.94176608 1.2045276 0.027121039 41
-0.92077297 1.1984127 0.080283359 22
-0.94779319 1.2062833 0.13648589 89
-0.92305464 1.2043817 0.026806897 66
-0.93083841 1.2066771 0.08091139 24
-0.94633824 1.2112477 0.13648589 84
-0.9196133 1.2089487 0.026771991 75
-0.9235639 1.2101288 0.080597371 30
-0.94669789 1.2170384 0.1366602 91
-0.92389208 1.2155557 0.026876707 78
-0.91253728 1.2121232 0.080074012 64
-0.93376428 1.2185401 0.13561434 99
-0.91842502 1.2197834 0.026806897 78
-0.9128167 1.2180655 0.080178685 100
-0.92258519 1.2210577 0.13474278 100
-0.90928525 1.2222824 0.026667276 89
-0.91323048 1.2235053 0.080283359 88
-0.91537207 1.224169 0.13421984 84
-0.89998621 1.225232 0.026527658 89
-0.90774745 1.2276688 0.080074012 70
-0.92130131 1.2319241 0.1349171 56
-0.90228039 1.2312485 0.026597468 79
-0.89860743 1.2300819 0.079655327 74
-0.91026682 1.233785 0.13404553 45
-0.90074283 1.2360618 0.026597468 81
-0.89136916 1.2330506 0.079341307 85
-0.91820532 1.2416718 0.1349171 43
-0.89918941 1.2408701 0.026597468 93
-0.89362472 1.2390621 0.079550654 100
-0.91094857 1.2446909 0.13439415 54
-0.88217515 1.2414293 0.02631823 100
-0.89560729 1.2458507 0.07976 100
-0.90911514 1.2502971 0.13439415 78
-0.8768093 1.2449129 0.02624842 99
-0.89402133 1.2506418 0.07976 100
-0.90373355 1.2538745 0.13404553 82
-0.87884909 1.2514162 0.02631823 93
-0.88657182 1.2540182 0.07944598 100
-0.90572649 1.2604718 0.13439415 75
-0.87724477 1.2561517 0.02631823 93
-0.87739652 1.2562034 0.079027295 100
-0.90786391 1.2665813 0.13474278 87
-0.87553912 1.2611308 0.02631823 96
-0.87002569 1.2592313 0.078713275 100
-0.89481932 1.2677733 0.13369691 100
-0.87390262 1.2658553 0.02631823 83
-0.87594014 1.2665648 0.079131968 99
-0.89692384 1.2738721 0.13404553 68
-0.85501486 1.2653352 0.026004085 75
-0.87402302 1.2720364 0.079131968 70
-0.89873654 1.2807491 0.13439415 35
-0.86457878 1.2742653 0.026213514 88
-0.85533017 1.2709684 0.078189917 27
-0.89131469 1.2837961 0.13387123 36
-0.85716635 1.2771659 0.0261088 96
-0.85357291 1.2758708 0.078189917 27
-0.8801406 1.2854463 0.13299966 31
-0.86666054 1.2861824 0.02631823 93
-0.85179859 1.2807672 0.078189917 72
-0.87646061 1.2897532 0.13282534 16
-0.84617525 1.2839692 0.025969181 100
-0.85384566 1.2867928 0.078399263 100
-0.85790175 1.288286 0.13125655 13
-0.83687598 1.2860501 0.025829561 100
-0.84641761 1.2896005 0.078085244 100
-0.91023594 1.313347 0.13631158 1
-0.83506626 1.2908881 0.025829561 100
-0.83150929 1.2895503 0.077352546 46
-0.87103301 1.3044143 0.13282534 1
-0.84071654 1.2985613 0.025969181 93
-0.8296873 1.2943696 0.077352546 53
-0.8412227 1.2987537 0.13021068 7
-0.84446329 1.3055636 0.026073895 75
-0.8371709 1.3027627 0.077875905 57
-0.85982782 1.3114645 0.1321281 41
-0.83512837 1.307534 0.025934275 74
-0.84275061 1.310492 0.07829459 68
-0.83935481 1.3091742 0.130385 93
-0.82579678 1.3094459 0.025794657 88
-0.82969886 1.3109758 0.077666558 63
-0.85230345 1.319839 0.13177948 100
-0.81832796 1.3120356 0.025689943 100
-0.82780212 1.3157886 0.077666558 80
-0.8374092 1.3195943 0.1305593 100
-0.82023638 1.3180554 0.025759751 100
-0.8204214 1.3181294 0.077352546 95
-0.8355791 1.324192 0.1305593 95
-0.82202309 1.3243333 0.025829561 100
-0.82590693 1.3259025 0.077771232 95
-0.83178884 1.3282789 0.130385 100
-0.81267387 1.3260969 0.025689943 100
-0.82210892 1.3299472 0.077666558 97
-0.8206082 1.3293347 0.12951343 100
-0.80088478 1.321286 0.17914793 22
-0.80332929 1.3278021 0.025550323 100
-0.81091315 1.3309278 0.0771432 99
-0.8168053 1.3333565 0.12933913 100
-0.76958734 1.3138946 0.17524812 15
-0.7977795 1.3307505 0.025480513 100
-0.80166954 1.3323689 0.076724514 100
-0.8186087 1.3394165 0.12968774 100
-0.75677973 1.3136923 0.17378569 16
-0.80318826 1.3385501 0.025620133 100
-0.78865021 1.3324418 0.076096483 100
-0.80926532 1.3411033 0.1289905 100
-0.77866536 1.3282466 0.17695428 18
-0.80497736 1.3445957 0.025689943 100
-0.79597157 1.3407767 0.076619841 81
-0.8036955 1.3440521 0.12864187 100
-0.76766914 1.3287746 0.17573559 16
-0.80663997 1.3508961 0.025759751 60
-0.80682319 1.3509746 0.077352546 40
-0.79985183 1.3479896 0.12846756 46
-0.76571065 1.3333707 0.17573559 11
-0.80643946 1.3564217 0.025794657 83
-0.81578654 1.3604627 0.077980578 72
-0.8216005 1.3629762 0.13073361 39
-0.78742343 1.3482006 0.17890419 7
-0.79522067 1.3571533 0.025620133 100
-0.80090362 1.3596338 0.077247873 100
-0.81221813 1.3645723 0.13003637 93
-0.77811962 1.3496892 0.17792924 28
-0.80048257 1.3650708 0.025759751 100
-0.80614799 1.3675671 0.077666558 100
-0.82836682 1.3773575 0.13177948 100
-0.78153771 1.356723 0.17866045 33
-0.80387849 1.3722193 0.025864467 100
-0.81317812 1.3763559 0.078189917 100
-0.79893202 1.3700191 0.12916481 100
-0.7667852 1.3557198 0.17695428 28
-0.79447109 1.3736652 0.025724847 100
-0.81105334 1.3811107 0.078189917 100
-0.80409962 1.3779885 0.12986206 100
-0.76835448 1.361939 0.17744176 22
-0.78699726 1.3756449 0.025620133 100
-0.81629652 1.3889172 0.07860861 100
-0.80389088 1.3832976 0.13003637 100
-0.77000076 1.3679457 0.17792924 18
-0.7957868 1.3852972 0.025829561 100
-0.81049496 1.3920217 0.078399263 100
-0.8108018 1.3921621 0.13090792 100
-0.76068407 1.3692482 0.17695428 16
-0.79555494 1.390594 0.025864467 100
-0.80117017 1.3931839 0.077980578 100
-0.81234962 1.3983401 0.13125655 100
-0.77311057 1.3802423 0.17890419 10
-0.79508406 1.3963658 0.025899371 100
-0.79706639 1.3972889 0.077875905 100
-0.81003743 1.4033291 0.13125655 100
-0.77806324 1.3884397 0.17987914 8
-0.78937966 1.3991225 0.025829561 100
-0.80763322 1.4076964 0.07860861 100
-0.80071634 1.4044474 0.1305593 100
-0.77420837 1.3919964 0.17963541 5
-0.7924853 1.4065976 0.025934275 100
-0.80889612 1.4143796 0.078817949 100
-0.80738312 1.4136622 0.13143086 100
-0.76295143 1.3925929 0.17841671 1
-0.79036683 1.411046 0.025934275 100
-0.79954463 1.4154353 0.078399263 100
-0.8124308 1.4215984 0.1321281 100
-0.79341084 1.4185625 0.026038991 100
-0.80436438 1.4238507 0.078817949 100
-0.81541616 1.4291861 0.13265105 100
-0.79844433 1.4265153 0.02617861 100
-0.80398446 1.4292126 0.078922622 100
-0.80963999 1.4319661 0.13230242 100
-0.78885025 1.4279255 0.026038991 100
-0.8069368 1.4368134 0.079236634 100
-0.80005199 1.4334302 0.13160518 100
-0.78666109 1.4323616 0.026038991 100
-0.81366605 1.4457436 0.07976 100
-0.80141503 1.4396727 0.13195379 100
-0.79483813 1.4428577 0.02624842 100
-0.80213052 1.4465063 0.079236634 100
-0.81130642 1.4510972 0.13317397 100
-0.79617018 1.449115 0.02631823 100
-0.79631323 1.4491872 0.079027295 100
-0.81437689 1.4582999 0.13369691 100
-0.80080026 1.4576733 0.026457848 100
-0.80093437 1.4577415 0.07944598 100
-0.80296725 1.4587765 0.13282534 100
-0.79139632 1.4584963 0.02631823 100
-0.80930763 1.4676898 0.080074012 100
-0.80244833 1.464169 0.13299966 100
-0.78555375 1.4611028 0.02624842 99
-0.80698651 1.4721935 0.080074012 100
-0.8054474 1.4713972 0.1335226 100
-0.78680056 1.4673777 0.02631823 100
-0.79756731 1.4729944 0.079655327 100
-0.81017989 1.4795742 0.13421984 100
-0.79131371 1.4759982 0.026457848 99
-0.79144686 1.4760683 0.07944598 100
-0.81109625 1.4864106 0.13456847 100
-0.79249805 1.4823167 0.026527658 42
-0.78556949 1.4786406 0.079236634 40
-0.7963931 1.4843835 0.13334829 76
0.16807884 1.2455238 0.010645968 13
0.13727728 1.2838743 0.03454173 27
0.1307978 1.2919418 0.05856866 22
0.14553353 1.2735946 0.12555231 18
0.19245428 1.2151743 0.13182132 7
0.12176016 1.3031944 0.18324389 6
0.15727353 1.2624886 0.010995016 38
0.16895911 1.2478346 0.032029606 60
0.14877081 1.2731512 0.056302611 48
0.14652738 1.2759645 0.07945881 14
0.14603892 1.276577 0.10262101 11
0.14974195 1.2719333 0.12478908 66
0.19765535 1.2118489 0.13047162 16
0.14771301 1.2744777 0.17289113 14
0.15651247 1.2669921 0.011064826 100
0.17186916 1.2475959 0.031924933 91
0.14929286 1.2761108 0.056476921 96
0.16308263 1.2586937 0.076533951 29
0.1674287 1.2532043 0.097615108 37
0.16002712 1.262553 0.12211776 100
0.18710327 1.2283545 0.13497064 45
0.1410822 1.2864811 0.1765146 41
0.15454227 1.2730789 0.01116954 100
0.17106998 1.2520533 0.032134276 100
0.14613679 1.283772 0.057174169 100
0.1672444 1.25692 0.076046467 29
0.18376705 1.2359009 0.093860678 39
0.16417539 1.2608242 0.12135452 100
0.18750113 1.2311505 0.13542053 38
0.15363243 1.2742364 0.17185585 43
0.16728798 1.2602017 0.010855397 100
0.17758694 1.2470101 0.031715591 100
0.16010362 1.2694038 0.055431053 100
0.16641802 1.2613159 0.076533951 29
0.18288282 1.2402267 0.094486415 26
0.17063779 1.255911 0.11982805 100
0.17943853 1.2446384 0.13901976 36
0.15530673 1.275548 0.17185585 43
0.17757696 1.2504711 0.010611063 94
0.17313638 1.2562 0.032238949 60
0.17039344 1.2597387 0.054210871 76
0.17543215 1.2532382 0.075071514 30
0.17000431 1.2602408 0.098240845 36
0.19158024 1.2324052 0.11372216 48
0.17632213 1.25209 0.14081936 29
0.14642221 1.2906644 0.1765146 34
0.18047595 1.2501833 0.010576159 67
0.17483583 1.2575126 0.032238949 30
0.17453545 1.2579029 0.053862248 51
0.16985735 1.2639818 0.076533951 88
0.18135566 1.2490402 0.095737889 38
0.17523661 1.2569917 0.11944643 12
0.19702283 1.2286813 0.13362093 23
0.14706397 1.293601 0.17703223 55
0.17244226 1.2641824 0.010855397 65
0.16926464 1.2683415 0.032866981 29
0.16414508 1.2750425 0.055605363 49
0.18363544 1.2495317 0.07409656 61
0.1962218 1.2330576 0.092296332 53
0.18766582 1.2442565 0.11601187 19
0.20335838 1.2237165 0.13182132 31
0.16414085 1.275048 0.17030293 65
0.17667243 1.2623761 0.010785587 52
0.17592055 1.2633677 0.032448292 29
0.1708138 1.2701029 0.054908119 50
0.17939872 1.2587804 0.075315252 45
0.19911483 1.2327771 0.091983467 53
0.18822032 1.2471457 0.11639348 13
0.20737845 1.2218783 0.13092151 32
0.17533204 1.2641438 0.16616182 68
0.18079862 1.2604809 0.010715778 53
0.16803584 1.2774361 0.03328567 28
0.17495823 1.2682397 0.054559495 50
0.18827009 1.250555 0.073852822 62
0.19835639 1.2371556 0.092609204 53
0.19697225 1.2389944 0.11410378 13
0.20427004 1.2292993 0.13272113 39
0.18403006 1.2561879 0.163056 70
0.18977928 1.2522185 0.010506349 40
0.18424171 1.2596314 0.032029606 30
0.17797926 1.2680149 0.054385185 51
0.18884584 1.253468 0.07409656 61
0.19416001 1.2463541 0.094173551 52
0.19751865 1.241858 0.1144854 13
0.20362327 1.2336859 0.13362093 38
0.18234605 1.2621691 0.16460891 69
0.18312672 1.2647165 0.010750682 92
0.19547066 1.2480711 0.03119223 63
0.18090671 1.2677101 0.054210871 51
0.20472503 1.2355919 0.071171694 65
0.19347164 1.2507666 0.094799288 64
0.20384565 1.2367777 0.11295892 13
0.21220872 1.2255003 0.13092151 32
0.18291554 1.2650012 0.16512655 68
0.18476927 1.2659304 0.010750682 79
0.20534852 1.2379867 0.030459527 65
0.17901477 1.2737441 0.054733805 75
0.20273945 1.2415295 0.071902916 64
0.20443901 1.2392217 0.092296332 80
0.20190281 1.2426655 0.11410378 13
0.21834347 1.2203414 0.1291219 24
0.18226787 1.2693269 0.16616182 68
0.18886298 1.2639736 0.010680873 80
0.21995044 1.2214513 0.029308135 68
0.17842367 1.2782528 0.055082429 75
0.19384339 1.2571614 0.07409656 61
0.2154057 1.2276678 0.089793384 97
0.20934823 1.2359533 0.11219569 14
0.22681814 1.2120575 0.12642249 16
0.19541457 1.2550122 0.16098544 72
0.19285271 1.2619321 0.010611063 94
0.20971537 1.2387056 0.030354854 65
0.18596381 1.2714207 0.054210871 100
0.19779333 1.255127 0.073609084 77
0.20648035 1.2431614 0.092609204 100
0.2062816 1.2434353 0.11372216 13
0.23744497 1.200511 0.12282328 8
0.19135004 1.2640018 0.16357364 69
0.20158708 1.253442 0.010401634 83
0.20434704 1.2496125 0.030982886 63
0.19237593 1.266223 0.053513627 100
0.20413139 1.2499117 0.072634131 100
0.20697916 1.2459602 0.092922069 100
0.21023202 1.2414467 0.11295892 13
0.23439211 1.2079233 0.12462288 8
0.19533563 1.2621163 0.16253836 70
0.19620943 1.2643517 0.010611063 94
0.21407598 1.2393868 0.030250182 98
0.19402343 1.2674062 0.053513627 100
0.20803532 1.2478274 0.072146654 63
0.20970899 1.2454888 0.092609204 93
0.20379922 1.2537465 0.11563025 13
0.2494556 1.1899508 0.11922406 17
0.19584519 1.2648606 0.163056 70
0.2025696 1.2590628 0.010471444 82
0.21687317 1.2389283 0.030145511 65
0.19114637 1.2751428 0.054210871 100
0.21200463 1.2457815 0.071659178 80
0.22166699 1.2321802 0.089793384 100
0.20207894 1.2597535 0.1167751 26
0.23399448 1.2148273 0.12597258 16
0.19645593 1.2676687 0.16357364 69
0.19736445 1.2700781 0.010680873 80
0.20815307 1.2547785 0.031087559 94
0.19291183 1.2763923 0.054210871 100
0.20909151 1.2534477 0.072634131 63
0.22328231 1.2333236 0.089793384 100
0.199265 1.2673829 0.11830158 52
0.22656482 1.2286685 0.12957181 32
0.20598841 1.2578483 0.15995017 72
0.20828572 1.2581999 0.010401634 83
0.21786442 1.2445151 0.030354854 97
0.20153669 1.2678421 0.053165004 100
0.20964283 1.256261 0.072877869 63
0.21697238 1.2457895 0.091983467 100
0.20438072 1.2637789 0.11715672 99
0.22928533 1.2281982 0.1291219 64
0.20990899 1.2558808 0.15891489 73
0.2145558 1.2528207 0.010262015 98
0.21610406 1.2505922 0.03066887 96
0.20100299 1.2723279 0.053513627 100
0.21927071 1.2460344 0.071171694 81
0.22088939 1.2437046 0.09135773 100
0.21954852 1.2456344 0.1125773 96
0.22310343 1.2405177 0.13227122 94
0.20499355 1.2665842 0.16202073 70
0.21170229 1.2605736 0.010401634 97
0.22231907 1.245178 0.030250182 98
0.19597208 1.2833843 0.054559495 100
0.22318828 1.2439175 0.070684217 32
0.22254494 1.2448504 0.09135773 100
0.21229449 1.2597148 0.11563025 94
0.23359823 1.2288218 0.128672 97
0.20672905 1.2677854 0.16202073 70
0.21567574 1.2584511 0.010331824 84
0.23187643 1.2347817 0.029517479 67
0.20676908 1.2714639 0.053165004 100
0.22708699 1.2417792 0.07019674 82
0.2275517 1.2411003 0.090419121 100
0.22509488 1.2446897 0.11181407 98
0.23300037 1.2331396 0.12957181 96
0.20628643 1.272169 0.163056 70
0.21176425 1.2678857 0.010506349 81
0.23013374 1.2408457 0.029831495 66
0.21188042 1.2677147 0.05264207 79
0.21981177 1.2560396 0.072146654 63
0.22808805 1.2438569 0.090731993 100
0.22123769 1.2539407 0.11372216 100
0.23242882 1.2374673 0.13047162 96
0.21564052 1.2621799 0.15943253 73
0.2112684 1.2723794 0.010576159 40
0.22173017 1.2568634 0.030773543 32
0.21696135 1.263936 0.052119136 54
0.22151038 1.2571893 0.072146654 79
0.23747441 1.2335128 0.08854191 98
0.22622162 1.2502019 0.1125773 100
0.23515195 1.2369572 0.13002171 96
0.21844056 1.2617421 0.15891489 73
0.21302411 1.2735586 0.010576159 40
0.20565921 1.2845644 0.032448292 29
0.22090366 1.2617838 0.051770512 54
0.22873303 1.2500842 0.070927955 97
0.23360124 1.2428093 0.090106249 100
0.23335916 1.2431711 0.11066922 100
0.23570007 1.2396729 0.13047162 96
0.2158615 1.2693186 0.16098544 72
0.22142184 1.2647371 0.010366729 41
0.21629727 1.2724532 0.031610917 30
0.22041777 1.2662491 0.052119136 54
0.23150906 1.2495489 0.070684217 65
0.2276035 1.2554295 0.092296332 100
0.23609892 1.2426381 0.1102876 85
0.23841956 1.2391438 0.13002171 96
0.21974406 1.2672634 0.15995017 72
0.22535181 1.2625419 0.010296919 28
0.22464818 1.2636094 0.030982886 31
0.21886256 1.272387 0.05264207 53
0.23755479 1.2440281 0.069709264 99
0.24560669 1.231812 0.087603301 99
0.2388311 1.2420917 0.10990598 85
0.24756631 1.228839 0.12687239 90
0.21935549 1.2716391 0.16098544 72
0.2226944 1.270366 0.010436539 41
0.23293316 1.2547135 0.030354854 32
0.2184369 1.2768745 0.05299069 52
0.23703802 1.2484382 0.07019674 82
0.24505788 1.2361779 0.088229038 98
0.22973371 1.2596047 0.11372216 89
0.2449027 1.2364151 0.128672 97
0.22956881 1.2598568 0.15684435 74
0.23097593 1.2614417 0.01022711 42
0.22375214 1.2725697 0.031401575 31
0.2299718 1.2629886 0.051421888 55
0.23222476 1.2595179 0.071659178 64
0.246687 1.2372396 0.088229038 98
0.24427241 1.2409592 0.10914274 85
0.24122727 1.2456501 0.13092151 96
0.23233256 1.259352 0.1563267 74
0.23260733 1.2624969 0.01022711 56
0.24273142 1.2467875 0.029726824 33
0.2272912 1.270746 0.052119136 54
0.24460322 1.243883 0.069221787 67
0.2514483 1.2332616 0.087290429 85
0.24902639 1.2370197 0.10799789 87
0.2449176 1.2433952 0.13002171 96
0.22977105 1.266898 0.15839726 73
0.24079269 1.253494 0.010017681 72
0.24332154 1.2495397 0.029831495 66
0.22796765 1.2735479 0.052293446 53
0.24946779 1.2399292 0.068490572 50
0.24668157 1.2442858 0.089167647 84
0.23902324 1.2562608 0.11219569 91
0.25287145 1.234607 0.1273223 97
0.23358914 1.2647579 0.15736198 74
0.24891123 1.2444401 0.0098082526 59
0.2589097 1.2286849 0.02847076 100
0.22225431 1.2864447 0.053513627 78
0.24472797 1.2510318 0.069953002 49
0.25045589 1.2420059 0.08854191 70
0.24598232 1.2490551 0.1102876 78
0.26284853 1.2224783 0.12372308 75
0.23014241 1.2740149 0.15995017 64
0.2356509 1.2691779 0.010296919 70
0.24880537 1.2482889 0.029622151 100
0.234676 1.270726 0.051770512 81
0.25064018 1.2453754 0.068978049 50
0.26052639 1.2296762 0.086038955 58
0.24137938 1.2600813 0.1125773 100
0.25716066 1.235021 0.12687239 99
0.23396257 1.2718589 0.15891489 65
0.24693236 1.2550097 0.0099827768 87
0.24624321 1.2561125 0.03004084 99
0.23642576 1.2718236 0.051770512 81
0.24704167 1.2548347 0.07019674 33
0.25794557 1.2373848 0.087290429 71
0.25245523 1.2461711 0.10914274 85
0.25878569 1.2360404 0.12687239 99
0.23981121 1.2664058 0.15684435 66
0.25494972 1.2458674 0.0097733475 89
0.24794191 1.2571698 0.03004084 100
0.24867839 1.255982 0.050027397 85
0.25396618 1.2474537 0.068978049 50
0.25957882 1.2384014 0.087290429 57
0.2520501 1.250544 0.10990598 85
0.26041424 1.237054 0.12687239 90
0.24968988 1.2543507 0.15270324 68
0.24927792 1.2588167 0.010017681 72
0.25801659 1.2446122 0.029203463 100
0.24098074 1.2723036 0.051596198 82
0.25563464 1.2484841 0.068978049 50
0.25604028 1.2478247 0.088854775 56
0.25578678 1.2482368 0.10914274 85
0.26510966 1.2330827 0.12552269 90
0.23923525 1.2751409 0.15891489 65
0.24786046 1.264984 0.010122396 99
0.26071566 1.2439239 0.029098792 100
0.24065989 1.2767804 0.051944822 81
0.25420389 1.2545918 0.069709264 49
0.25976837 1.2454758 0.088229038 56
0.25336644 1.2559638 0.11066922 92
0.27078912 1.2274208 0.12372308 83
0.23898739 1.2795205 0.15995017 64
0.2485542 1.2677462 0.0101573 85
0.25823319 1.2517643 0.029517479 100
0.25688034 1.253998 0.049504463 86
0.25898221 1.2505275 0.068978049 50
0.26449972 1.2414169 0.087290429 71
0.2621837 1.2452412 0.10799789 72
0.27137801 1.2300596 0.12417299 92
0.24877387 1.2673835 0.15580906 67
0.25338325 1.2636532 0.010052586 86
0.26094529 1.2510679 0.029412808 100
0.25549313 1.2601417 0.050027397 85
0.25861654 1.2549435 0.069465525 49
0.26818183 1.2390242 0.086664692 57
0.26081091 1.2512915 0.10914274 78
0.26997459 1.2360406 0.12552269 90
0.25648174 1.2584964 0.15270324 68
0.26321575 1.2508942 0.0097733475 89
0.26254216 1.2520237 0.029412808 100
0.26018158 1.255982 0.049504463 86
0.26022628 1.2559071 0.069465525 49
0.26771516 1.2433493 0.087290429 57
0.26441965 1.2488755 0.10837951 79
0.26852718 1.2419877 0.12687239 90
0.25612432 1.2627854 0.15373851 68
0.2638779 1.2536134 0.0098082526 74
0.26626047 1.2495863 0.029203463 100
0.24869114 1.2792826 0.051770512 81
0.27001053 1.2432479 0.067515619 51
0.26936918 1.2443318 0.087290429 57
0.26309395 1.2549385 0.10952436 85
0.28009927 1.2261955 0.12237337 76
0.25391153 1.2704589 0.15580906 67
0.26143312 1.2614572 0.0099478718 73
0.2678524 1.2505245 0.029203463 100
0.25441688 1.2734065 0.051073264 83
0.26354045 1.2578683 0.069465525 49
0.27694488 1.2350392 0.085413218 87
0.26768583 1.2508082 0.10837951 94
0.27964011 1.230449 0.12327318 93
0.25166008 1.2781017 0.15787962 65
0.25409198 1.278013 0.010262015 84
0.26953146 1.2515066 0.029203463 100
0.26921248 1.2520542 0.048807215 88
0.26724344 1.2554345 0.068978049 50
0.28552958 1.224041 0.083223134 60
0.27430663 1.2433085 0.10647142 73
0.28026819 1.2330737 0.12372308 92
0.26315039 1.2624614 -0.0099478718 86
0.25926957 1.269124 0.15477379 67
0.27287477 1.2496083 0.0096686333 90
0.27121395 1.2524827 0.029203463 100
0.26890329 1.2564815 0.049155839 87
0.26893964 1.2564186 0.068978049 50
0.2801981 1.2369342 0.085413218 58
0.2730138 1.2493677 0.10761628 94
0.2809113 1.2356998 0.12417299 83
0.26487964 1.2634451 0.15270324 68
0.27455062 1.2505727 0.0096686333 75
0.27091342 1.2569184 0.029412808 100
0.26465851 1.2678313 0.050201707 85
0.27656212 1.2470633 0.067515619 51
0.27593577 1.2481561 0.087290429 57
0.27761763 1.2452217 0.10647142 81
0.28253853 1.2366363 0.12417299 83
0.26083982 1.2744937 0.15580906 67
0.2712881 1.2602232 0.0098431576 88
0.28347328 1.2387908 0.028261416 100
0.26442856 1.2722883 0.05055033 100
0.27822903 1.2480148 0.067515619 51
0.28444079 1.237089 0.085100345 58
0.2783078 1.2478763 0.10685304 81
0.28609535 1.2341789 0.12327318 93
0.26833144 1.2654235 0.15270324 68
0.27103645 1.2646767 0.0099129668 87
0.28413025 1.2414579 0.028366089 100
0.27107698 1.2646048 0.049678773 86
0.27697399 1.2541479 0.068246834 51
0.28801349 1.2345719 0.084474608 59
0.27515572 1.2573721 0.10876112 87
0.29154617 1.2283075 0.12147357 86
0.27006251 1.2664038 0.15270324 68
0.2689479 1.2726774 0.010052586 86
0.28196126 1.2494024 0.028784776 100
0.27872553 1.2551897 0.048632905 88
0.27971908 1.2534126 0.068003096 51
0.28971797 1.2355291 0.084474608 59
0.27502769 1.2618034 0.10952436 85
0.29512972 1.2258499 0.12057377 77
0.27773079 1.2569687 -0.0097384425 99
0.27659765 1.2589955 0.15011504 78
0.28137183 1.2544186 0.0096686333 75
0.2884793 1.2416017 0.028261416 100
0.28138706 1.2543912 0.048458595 88
0.27755737 1.2612972 0.068978049 50
0.28942859 1.2398899 0.085100345 58
0.28245872 1.2524587 0.10723466 81
0.29577741 1.228441 0.12102367 86
0.2745834 1.2666602 -0.0099129668 87
0.27736935 1.2616364 0.15063268 70
0.28105175 1.2588108 0.0097384425 90
0.28234223 1.2564654 0.029098792 100
0.28683662 1.2482969 0.047761347 60
0.28492966 1.2517627 0.067515619 51
0.28813151 1.2459434 0.086038955 58
0.2887921 1.2447429 0.10532656 82
0.29542023 1.2326962 0.12192347 85
0.27713862 1.2659228 0.15166797 69
0.27988613 1.2650127 0.0098431576 88
0.29360878 1.2398645 0.028052073 100
0.27323818 1.2771957 0.05055033 56
0.28661296 1.2526851 0.067515619 51
0.29641786 1.2347165 0.083848871 59
0.29139125 1.2439283 0.10494494 75
0.29983723 1.2284502 0.12057377 77
0.27979675 1.2651765 0.15115032 77
0.2864593 1.257205 0.0096686333 75
0.29153162 1.2478279 0.02847076 100
0.27983868 1.2694446 0.049678773 86
0.29027277 1.2501552 0.067028143 51
0.29718298 1.2373803 0.084161744 59
0.2865915 1.2569606 0.10761628 79
0.28360507 1.2624817 -0.0097733475 88
0.27885607 1.2712611 0.15270324 68
0.28532577 1.2634085 0.0097733475 89
0.29886582 1.238167 0.027842728 100
0.2891182 1.2563386 0.048284281 88
0.28819695 1.258056 0.068003096 51
0.28736487 1.2596072 0.10799789 79
0.28532577 1.2634085 -0.0097733475 99
0.28608662 1.2619902 0.14959741 78
0.29831898 1.2431439 0.0093544899 93
0.28924599 1.2602005 0.029098792 100
0.28988177 1.2590053 0.048458595 88
0.28244418 1.2729875 0.069953002 99
0.29952437 1.2408779 0.084474608 59
0.2927635 1.2535878 0.10647142 81
0.28329328 1.2713913 -0.0099129668 87
0.2896201 1.2594973 0.14856213 71
0.29903919 1.2457883 0.0093893949 77
0.2909587 1.2611078 0.029098792 100
0.29437888 1.2546235 0.047935657 89
0.29716733 1.249337 0.066540658 52
0.2965616 1.2504854 0.086038955 58
0.29903281 1.2458003 0.10456333 75
0.28317919 1.2758567 -0.0099827768 96
0.28772518 1.267238 0.15063268 70
0.29328743 1.2608372 0.0096686333 75
0.2923786 1.2625749 0.048632905 88
0.29516211 1.2572528 0.067515619 51
0.29796559 1.2518926 0.10570818 73
0.28588119 1.2749979 0.15270324 68
0.29500234 1.2617303 0.0096686333 90
0.28859633 1.2740834 0.049678773 86
0.29686448 1.2581394 0.067515619 51
0.29422647 1.2632265 0.10799789 72
0.29039949 1.2706063 -0.0098431576 100
0.28764558 1.2759168 0.15270324 68
0.29763472 1.260839 0.0096337283 90
0.29855675 1.2590457 0.048109971 59
0.29675457 1.2625508 0.068003096 68
0.29864281 1.2588782 0.10685304 73
0.2921485 1.2715094 -0.0098431576 100
0.29559657 1.2648031 0.14907977 78
0.29937696 1.2616632 0.067759357 68
0.29726881 1.2740332 0.049330149 58
0.29888657 1.2708068 0.15011504 78
0.29547697 1.2820599 0.15322088 76
