# .PCD v0.7 - Point Cloud Data file format
VERSION 0.7
FIELDS x y z intensity
SIZE 4 4 4 4
TYPE F F F F
COUNT 1 1 1 1
WIDTH 727
HEIGHT 1
VIEWPOINT 0 0 0 1 0 0 0
POINTS 727
DATA ascii
0.055423349 0.002861321 0.047835063 66
0.050572395 0.0012426972 0.04804441 45
0.043788075 0.0080897212 0.047939736 100
0.043353677 0.013180792 0.047730394 76
0.037364423 0.0099865198 0.04804441 27
0.035837233 0.013432443 0.047939736 18
0.025300741 0.003696084 0.048672438 16
0.030699432 0.016949713 0.047939736 9
0.025926471 0.015395045 0.048149079 8
0.030295312 0.026957035 0.047521047 9
0.01810652 0.01599288 0.048358422 8
-1.050442 1.1359622 0.028656852 3
-1.029022 1.1310642 0.08488892 5
-1.0290565 1.1310722 0.14171524 6
-1.0179896 1.1343057 0.028098375 10
-0.99857038 1.1297939 0.083318844 16
-1.0258458 1.136131 0.14154093 34
-0.98757845 1.1326182 0.027574802 23
-0.98959309 1.1330934 0.082900152 82
-1.0246232 1.1413547 0.14154093 81
-0.99408215 1.1398463 0.027714422 38
-0.99608546 1.1403263 0.083318844 100
-1.0252547 1.147313 0.14171524 95
-0.98896092 1.1440202 0.027644612 40
-0.98902673 1.1440362 0.083004825 100
-1.0026987 1.1473589 0.13979781 84
-0.97793859 1.1469947 0.027470088 23
-0.98383349 1.1484492 0.082795486 100
-0.9936344 1.1508675 0.13910057 91
-0.97266716 1.1516201 0.027400278 27
-0.9940601 1.1569817 0.083423518 61
-0.99416059 1.157007 0.13927488 85
-0.96551186 1.1554542 0.027295563 39
-0.98108608 1.1594152 0.082795486 33
-0.99473125 1.1628858 0.13944919 78
-0.96609336 1.1612415 0.027330469 59
-0.97971743 1.1647574 0.082795486 52
-0.99142116 1.1677777 0.13927488 91
-0.9647184 1.1665313 0.027330469 67
-0.97833019 1.1700947 0.082795486 100
-0.98038608 1.170633 0.13840333 91
-0.95745701 1.1705399 0.027225753 78
-0.96527177 1.1726162 0.082167454 92
-0.96927959 1.1736813 0.13753176 98
-0.95025712 1.1742387 0.027121039 83
-0.9561432 1.1758246 0.081748761 100
-0.96401364 1.1779454 0.13718314 100
-0.94697934 1.1786848 0.027086135 93
-0.949009 1.1792389 0.081434749 100
-0.96841866 1.1845379 0.13770607 100
-0.9493981 1.1849746 0.027155945 93
-0.93602186 1.1812725 0.080806717 100
-0.97080284 1.1908985 0.1380547 91
-0.95179123 1.1912861 0.027225753 93
-0.94226938 1.1886151 0.081225403 86
-0.95205933 1.1913613 0.13648589 94
-0.94069403 1.1937916 0.027051231 75
-0.93695682 1.1927291 0.081016064 78
-0.94099706 1.1938778 0.13561434 100
-0.95273215 1.202605 0.027295563 57
-0.93938535 1.1987628 0.081225403 48
-0.94915646 1.2015756 0.13648589 100
-0.94161433 1.2050483 0.027121039 42
-0.93021017 1.2017221 0.080806717 22
-0.95529157 1.2090375 0.13718314 85
-0.9362511 1.2091192 0.027051231 71
-0.91528636 1.2029251 0.080074012 28
-0.94801766 1.2125957 0.1366602 82
-0.92704624 1.2120113 0.026911611 74
-0.91950649 1.2097551 0.080388032 32
-0.93310231 1.2138237 0.13544002 98
-0.92174464 1.2157477 0.026841801 75
-0.92186314 1.2157836 0.080597371 74
-0.92018133 1.2152742 0.13439415 100
-0.91253251 1.2185371 0.026702182 83
-0.91838855 1.220333 0.080492698 100
-0.92433256 1.2221559 0.1349171 100
-0.9089691 1.2233012 0.026667276 85
-0.91100627 1.2239341 0.080178685 86
-0.9264707 1.2287389 0.13526571 80
-0.91119307 1.2295911 0.026737086 85
-0.89988655 1.2260349 0.079655327 76
-0.92866164 1.2350855 0.13561434 56
-0.90957981 1.2346888 0.026737086 81
-0.90399534 1.2329109 0.079969339 70
-0.91184121 1.2354088 0.13421984 43
-0.89272231 1.2348745 0.026457848 81
-0.90617257 1.2392085 0.080178685 84
-0.90831131 1.2398977 0.13404553 45
-0.88356763 1.2371778 0.02631823 96
-0.90270966 1.243416 0.080074012 100
-0.91621679 1.2478178 0.1349171 59
-0.88572639 1.2434316 0.026388038 100
-0.89346117 1.2459821 0.079655327 100
-0.91264778 1.2523088 0.13474278 78
-0.88406509 1.2484403 0.026388038 100
-0.88231784 1.2478573 0.079131968 100
-0.91473526 1.2586726 0.13509139 82
-0.88617557 1.2547221 0.026457848 99
-0.88821059 1.255409 0.079550654 100
-0.89036733 1.2561369 0.13299966 80
-0.87690502 1.257148 0.02631823 93
-0.88839763 1.2610716 0.079655327 100
-0.8905471 1.2618054 0.13317397 95
-0.86763519 1.2595152 0.02617861 99
-0.88478678 1.2654376 0.079550654 100
-0.8925882 1.2681315 0.1335226 100
-0.86969358 1.2657793 0.02624842 81
-0.86607832 1.2645167 0.07860861 99
-0.9058885 1.278419 0.1349171 59
-0.86795443 1.2707318 0.02624842 79
-0.84739405 1.2634712 0.077666558 57
-0.90034753 1.282171 0.13456847 40
-0.87561411 1.2790406 0.026422944 88
-0.85318679 1.2710326 0.078085244 25
-0.87978727 1.2805307 0.13282534 39
-0.85690051 1.2779026 0.0261088 93
-0.86082226 1.2793185 0.07860861 42
-0.8705005 1.2828124 0.1321281 30
-0.8476941 1.2798243 0.025969181 93
-0.86663085 1.2867317 0.079027295 82
-0.87627918 1.290251 0.13282534 16
-0.84215349 1.2833165 0.025899371 100
-0.85357493 1.2875278 0.078399263 100
-0.87071568 1.293848 0.13247673 11
-0.84410077 1.2895696 0.025969181 100
-0.83117324 1.2847517 0.077247873 93
-0.89501578 1.3085451 0.1349171 1
-0.84602135 1.2958425 0.026038991 100
-0.83123702 1.2902737 0.077352546 44
-0.88194007 1.3093721 0.13387123 1
-0.83670181 1.2978667 0.025899371 85
-0.84061211 1.2993553 0.077980578 51
-0.84280771 1.3001909 0.130385 9
-0.83298439 1.301986 0.025864467 75
-0.84434813 1.3063573 0.07829459 57
-0.85582489 1.3107719 0.13177948 48
-0.831119 1.3068104 0.025864467 74
-0.83688265 1.3090506 0.077980578 72
-0.85578579 1.3163977 0.13195379 99
-0.82923681 1.3116281 0.025864467 90
-0.82383829 1.3095081 0.077352546 59
-0.8445974 1.3176601 0.13108224 99
-0.82547897 1.3157017 0.025829561 96
-0.82937258 1.3172464 0.077771232 80
-0.83156532 1.3181164 0.13003637 99
-0.81614107 1.3175241 0.025689943 100
-0.82745403 1.3220581 0.077771232 91
-0.82224613 1.3199708 0.12933913 99
-0.81061047 1.3205512 0.025620133 100
-0.82931858 1.3281212 0.077980578 95
-0.82964939 1.3282549 0.13021068 100
-0.80868047 1.3252972 0.025620133 100
-0.8162691 1.3283987 0.077352546 100
-0.8313809 1.3345749 0.1305593 100
-0.79324585 1.318989 0.17817298 21
-0.80673379 1.3300366 0.025620133 100
-0.79954237 1.3270681 0.076515168 100
-0.82940179 1.3393935 0.1305593 100
-0.78581661 1.3214023 0.17744176 16
-0.80846208 1.3363079 0.025689943 100
-0.8068071 1.335618 0.077038527 100
-0.8182109 1.3403718 0.12968774 100
-0.76739341 1.3191874 0.17524812 16
-0.79910487 1.3379428 0.025550323 100
-0.79930204 1.3380258 0.076724514 100
-0.80519372 1.3405061 0.12864187 100
-0.78742331 1.3330252 0.17817298 19
-0.78239161 1.3363903 0.025271084 96
-0.79547292 1.3419509 0.076619841 74
-0.80136043 1.3444537 0.12846756 100
-0.76170033 1.3275945 0.17500438 18
-0.81001133 1.3531826 0.025829561 57
-0.81019002 1.3532592 0.077561885 40
-0.80870479 1.3526223 0.12933913 35
-0.7781865 1.3395358 0.17744176 9
-0.81163758 1.3595154 0.025899371 86
-0.80448002 1.3564165 0.077352546 82
-0.83043176 1.3676522 0.13160518 43
-0.77254695 1.3425913 0.17695428 7
-0.80763561 1.3637009 0.025864467 100
-0.80781144 1.3637778 0.077666558 100
-0.81910461 1.3687162 0.13073361 100
-0.78317088 1.3530023 0.17866045 24
-0.79457873 1.3635906 0.025655037 100
-0.80938476 1.370127 0.077875905 100
-0.80424768 1.3678591 0.12951343 100
-0.78657573 1.3600576 0.17939167 33
-0.78529626 1.3647914 0.025515418 100
-0.81103605 1.3762569 0.078085244 100
-0.79861766 1.3707253 0.12916481 100
-0.76466507 1.3556015 0.17671055 31
-0.79050714 1.3727291 0.025655037 100
-0.80344671 1.378547 0.077771232 100
-0.80741543 1.3803315 0.13021068 100
-0.75356036 1.3561168 0.17549185 18
-0.79557222 1.3809451 0.025794657 100
-0.79938859 1.3826778 0.077666558 100
-0.80879766 1.38695 0.1305593 100
-0.76405591 1.3666353 0.17719802 16
-0.79888517 1.3881375 0.025899371 100
-0.8026889 1.3898805 0.077980578 100
-0.80301327 1.3900292 0.13021068 100
-0.77279311 1.3761805 0.17866045 14
-0.79127425 1.390324 0.025794657 100
-0.81139344 1.3996289 0.07860861 100
-0.79722399 1.3930757 0.12986206 100
-0.77066904 1.3807943 0.17866045 10
-0.78910083 1.3950021 0.025794657 100
-0.81099719 1.4052219 0.078713275 100
-0.8022626 1.4011452 0.1305593 100
-0.77392536 1.3879192 0.17939167 7
-0.79233819 1.4022288 0.025899371 100
-0.80335087 1.4074156 0.078399263 100
-0.80726105 1.4092574 0.13125655 100
-0.76996452 1.391691 0.17914793 5
-0.80276579 1.4129192 0.026143705 100
-0.80472547 1.4138505 0.07860861 100
-0.81221944 1.417412 0.13195379 100
-0.78392249 1.4039637 0.18134159 1
-0.8042329 1.4191303 0.026213514 100
-0.79898089 1.4166129 0.078399263 100
-0.80287844 1.4184811 0.13125655 100
-0.79295772 1.4195004 0.026038991 100
-0.80750364 1.4265351 0.079027295 100
-0.80060655 1.4231995 0.13125655 100
-0.78708798 1.4224303 0.025969181 100
-0.8087936 1.4330215 0.079236634 100
-0.80548066 1.4314049 0.13195379 100
-0.78839058 1.4288599 0.026038991 100
-0.7975114 1.43335 0.078713275 100
-0.81031376 1.4396522 0.13265105 100
-0.79682857 1.4388645 0.02624842 100
-0.8005541 1.4407147 0.079027295 100
-0.81510574 1.4479413 0.13334829 100
-0.79806131 1.4453532 0.02631823 100
-0.8053475 1.4490033 0.07944598 100
-0.8020429 1.4473479 0.13230242 100
-0.79581445 1.4498198 0.02631823 100
-0.81021923 1.4570961 0.079864666 100
-0.79978925 1.4518276 0.13230242 100
-0.78986973 1.4526978 0.02624842 100
-0.80781251 1.46184 0.079864666 100
-0.80272669 1.4592487 0.13282534 100
-0.79103559 1.4591987 0.02631823 100
-0.80183655 1.4647496 0.079655327 100
-0.81626111 1.4721628 0.13439415 100
-0.79927379 1.4693971 0.026527658 100
-0.79585677 1.4676259 0.07944598 100
-0.8173396 1.4787614 0.13474278 100
-0.79682428 1.4741027 0.026527658 100
-0.79341334 1.4723196 0.07944598 100
-0.80779451 1.4798379 0.13404553 100
-0.79435831 1.4787997 0.026527658 93
-0.80155402 1.4825935 0.080074012 100
-0.80002123 1.4817854 0.1335226 100
-0.78304774 1.4787941 0.026353134 28
-0.80611235 1.4910576 0.080492698 26
-0.80456501 1.4902351 0.13421984 61
0.1280002 1.2922436 0.13051336 5
0.16323823 1.2518952 0.010785587 13
0.13745669 1.2840183 0.03454173 27
0.1185092 1.3076265 0.060311776 21
0.082627714 1.3523338 0.11826446 8
0.13833627 1.2829224 0.12784202 17
0.20602706 1.1985813 0.12687239 8
0.12073711 1.3048505 0.18376152 6
0.16002333 1.2595659 0.010925206 52
0.16547611 1.2527206 0.032343622 60
0.15151709 1.2702444 0.055953987 48
0.1591607 1.2606488 0.077021427 14
0.1659967 1.2520671 0.097615108 12
0.14755836 1.2752142 0.12555231 72
0.18938747 1.222703 0.13362093 15
0.14677355 1.2761993 0.17340876 21
0.15916744 1.2639929 0.010995016 100
0.16707897 1.2539932 0.032343622 100
0.15194196 1.2731256 0.056128297 97
0.15216815 1.2728397 0.078727596 28
0.16759738 1.2533379 0.097615108 37
0.16263533 1.2596097 0.12135452 100
0.18726328 1.2284812 0.13497064 38
0.15444759 1.2699586 0.17082056 43
0.1708605 1.2528399 0.010715778 100
0.17502287 1.247539 0.03182026 100
0.15132773 1.2777152 0.056476921 100
0.1650475 1.2602429 0.076533951 29
0.1718114 1.2516289 0.096989371 25
0.1717073 1.2517616 0.11906482 100
0.18894616 1.2298076 0.13497064 38
0.15031728 1.2790021 0.17340876 49
0.16631496 1.2619789 0.010890301 100
0.17538023 1.2503549 0.031924933 91
0.14933777 1.2837477 0.056999855 94
0.17399999 1.2521247 0.075071514 30
0.18312907 1.2404189 0.094486415 26
0.17572165 1.249917 0.11830158 100
0.1904729 1.2310023 0.13497064 30
0.14844325 1.2848947 0.17496167 35
0.17546454 1.2538936 0.010680873 80
0.17714334 1.2517247 0.031924933 61
0.15975994 1.2741838 0.055779677 73
0.16847938 1.2629184 0.076533951 29
0.18122843 1.2464468 0.095425025 25
0.19190314 1.2326553 0.11372216 34
0.19216499 1.232317 0.13497064 22
0.14560336 1.2924738 0.17703223 34
0.17341509 1.2598892 0.010785587 52
0.17509115 1.2577089 0.032238949 30
0.17357671 1.259679 0.054036561 51
0.18100446 1.2500165 0.074340299 46
0.19123772 1.2367042 0.093234941 39
0.17070562 1.2634139 0.1209729 12
0.19370005 1.2335011 0.13497064 22
0.15557978 1.2830907 0.17340876 57
0.17278737 1.2644459 0.010855397 78
0.15507555 1.2876623 0.034123044 27
0.17899939 1.2563032 0.053513627 52
0.18758246 1.2450527 0.073365346 62
0.19414884 1.2364455 0.092922069 53
0.19156939 1.2398267 0.11486702 20
0.20012924 1.2286065 0.13317102 38
0.17386755 1.2630301 0.16616182 61
0.17442906 1.2656941 0.010855397 65
0.15196976 1.2953367 0.03454173 27
0.17098838 1.2702353 0.054908119 50
0.18436456 1.2525808 0.074340299 61
0.18734702 1.2486444 0.095112152 51
0.20142868 1.2300589 0.11219569 14
0.20165196 1.2297642 0.13317102 38
0.17200461 1.268894 0.16771474 67
0.18096986 1.2606097 0.010715778 39
0.18262005 1.2584159 0.032029606 30
0.16794622 1.2779241 0.055605363 49
0.19917732 1.2364037 0.071659178 64
0.18427029 1.256222 0.096363634 50
0.20067641 1.2344108 0.11295892 13
0.20794466 1.2247479 0.13137141 39
0.17839345 1.264035 0.16564418 68
0.18977928 1.2522185 0.010506349 54
0.16272652 1.2884333 0.033913698 27
0.16963264 1.2791883 0.055605363 49
0.18290579 1.2614198 0.075315252 100
0.20007098 1.2384412 0.092609204 53
0.19634369 1.2434309 0.11486702 13
0.21878454 1.2133899 0.1277722 32
0.17656535 1.2699077 0.16719711 75
0.18321306 1.2647805 0.010750682 79
0.2026906 1.2385061 0.030564198 64
0.18692619 1.2597717 0.053339314 52
0.19416678 1.2500044 0.073365346 46
0.2053194 1.23496 0.091670595 67
0.2004196 1.2415695 0.11410378 13
0.21344873 1.2239938 0.13047162 32
0.18300197 1.2650653 0.16512655 68
0.19196904 1.2563319 0.010541254 81
0.20543021 1.2380469 0.030459527 65
0.1802839 1.2722044 0.054559495 76
0.19458359 1.2527803 0.073609084 77
0.20569205 1.2376912 0.091983467 93
0.21246067 1.228497 0.11066922 14
0.21264544 1.228246 0.13137141 23
0.19037223 1.2585008 0.16253836 70
0.19139469 1.2608702 0.010611063 94
0.2000789 1.248983 0.031087559 63
0.18800363 1.265512 0.053687938 78
0.20103949 1.2476681 0.072634131 78
0.20507798 1.2421402 0.092609204 93
0.20835277 1.2376574 0.1125773 13
0.23157072 1.205876 0.12462288 16
0.18874627 1.2644955 0.16409127 69
0.19772148 1.2555823 0.010471444 96
0.21457031 1.2323577 0.029936166 66
0.18613887 1.2715478 0.054210871 100
0.2049568 1.245609 0.072146654 63
0.20432559 1.2464792 0.093234941 92
0.20990548 1.2387879 0.1125773 13
0.24102828 1.195888 0.12147357 17
0.18925366 1.2672544 0.16460891 69
0.19483033 1.2633618 0.010611063 94
0.2092658 1.2433096 0.030564198 97
0.18099526 1.2825799 0.055256739 99
0.20206314 1.2533147 0.073121607 78
0.21069074 1.2413303 0.091983467 93
0.2058908 1.2479978 0.1144854 13
0.18994993 1.2701411 0.16512655 68
0.19655463 1.2645986 0.010611063 81
0.20859757 1.2477461 0.030773543 64
0.19205397 1.2708967 0.053862248 100
0.20606068 1.2512962 0.072634131 94
0.22152615 1.2296543 0.089480512 97
0.21555164 1.2380148 0.11181407 21
0.22482234 1.2250417 0.1291219 16
0.19843715 1.2619643 0.16202073 70
0.2005972 1.2625673 0.010541254 95
0.21257842 1.2456769 0.030564198 97
0.19841555 1.2656429 0.053165004 100
0.20774281 1.2524939 0.072634131 78
0.21970394 1.2356317 0.090419121 96
0.21150798 1.2471859 0.11372216 27
0.22641271 1.2261741 0.1291219 16
0.20239198 1.2600371 0.16098544 72
0.20922628 1.2539737 0.010331824 98
0.20734173 1.2566501 0.03119223 63
0.19785368 1.2701252 0.053513627 100
0.21514338 1.2455701 0.071415432 64
0.21564502 1.2448575 0.091983467 100
0.20413345 1.2612066 0.1167751 66
0.23249474 1.2209272 0.1273223 32
0.20632908 1.2580884 0.15995017 72
0.20387167 1.2648737 0.010541254 95
0.2191748 1.2429943 0.030250182 98
0.19942662 1.271229 0.053513627 100
0.22005233 1.2417396 0.070684217 81
0.21374193 1.2507619 0.092922069 100
0.20792881 1.2590731 0.11601187 100
0.22832838 1.229907 0.12957181 64
0.20232797 1.2670809 0.16253836 70
0.20560122 1.2660789 0.010541254 95
0.22310588 1.2408649 0.03004084 99
0.20117837 1.2724497 0.053513627 100
0.21264452 1.2559336 0.072634131 78
0.22443435 1.2389513 0.090419121 100
0.21075767 1.2586515 0.11563025 100
0.22993571 1.2310271 0.12957181 88
0.19965839 1.2746391 0.16460891 69
0.20733497 1.2672781 0.010541254 95
0.22361821 1.2436477 0.030145511 98
0.20519537 1.2703831 0.053165004 100
0.21884826 1.2505699 0.071659178 64
0.2305567 1.2335786 0.089167647 100
0.20912352 1.2646825 0.1167751 100
0.23044118 1.2337462 0.13002171 88
0.20909515 1.2647237 0.16098544 72
0.21810403 1.2552667 0.010262015 98
0.22189099 1.2497298 0.030459527 97
0.22269097 1.2485601 0.05072464 100
0.2250104 1.2451689 0.070684217 65
0.23106167 1.2363213 0.089480512 97
0.22526062 1.2448031 0.11181407 98
0.2276614 1.2412928 0.13182132 94
0.21736771 1.2563432 0.15787962 73
0.2209231 1.2547678 0.01022711 70
0.21347171 1.2657444 0.031401575 62
0.21317318 1.2661842 0.052467756 80
0.22109637 1.2545125 0.071902916 48
0.22270614 1.2521411 0.092296332 100
0.23353595 1.2361876 0.10952436 85
0.22602496 1.2472521 0.13317102 93
0.21689734 1.2606981 0.15891489 73
0.22261727 1.2559135 0.01022711 42
0.21520421 1.2669162 0.031401575 31
0.2104542 1.2739663 0.053165004 52
0.2194621 1.2605965 0.072634131 94
0.2299099 1.2450895 0.090731993 100
0.22968024 1.2454304 0.11143246 91
0.23422608 1.2386832 0.13047162 96
0.21429449 1.2682664 0.16098544 72
0.21995538 1.2637601 0.010366729 41
0.21924758 1.264819 0.03119223 31
0.2156252 1.2702382 0.05264207 53
0.22015929 1.263455 0.072877869 100
0.23933756 1.2347636 0.08854191 100
0.23142493 1.2466012 0.11143246 91
0.2402778 1.233357 0.128672 97
0.21827009 1.2662814 0.15995017 72
0.21283731 1.2782401 0.010645968 40
0.22318503 1.2626419 0.030982886 31
0.22398189 1.2614408 0.051596198 54
0.22956541 1.2530241 0.071171694 97
0.24423781 1.2309068 0.087603301 99
0.23200521 1.2493463 0.11181407 98
0.23651069 1.2425548 0.13092151 96
0.2189365 1.2690461 0.1604678 72
0.22780898 1.2593714 0.01022711 28
0.20294091 1.2971432 0.033076324 29
0.22350809 1.2659039 0.051944822 54
0.22579545 1.2624297 0.072390392 100
0.24150354 1.2385709 0.088854775 100
0.2401579 1.2406148 0.10952436 92
0.24244857 1.2371355 0.1291219 88
0.23024142 1.2556767 0.15580906 75
0.22951919 1.260493 0.01022711 28
0.21133783 1.2883193 0.032448292 29
0.21979213 1.2753801 0.05281638 53
0.23946017 1.2452785 0.069709264 83
0.24314103 1.239645 0.088854775 98
0.24931955 1.2301887 0.10685304 88
0.23661959 1.2496259 0.13227122 100
0.2255986 1.2664934 0.15891489 73
0.23558503 1.2548974 0.010087491 43
0.22618857 1.2693888 0.03119223 31
0.22481015 1.2715147 0.052293446 53
0.2432811 1.2430284 0.069221787 83
0.24585697 1.2390558 0.08854191 98
0.24131471 1.246061 0.1102876 85
0.24995813 1.2327309 0.1273223 89
0.22943571 1.2643809 0.15787962 73
0.24160787 1.2492654 0.0099478718 58
0.25387195 1.230206 0.028680105 69
0.22979712 1.2676202 0.051770512 54
0.24385995 1.2457654 0.069465525 49
0.25390965 1.2301475 0.086664692 86
0.24510309 1.2438335 0.10952436 85
0.25157517 1.2337754 0.1273223 97
0.22175509 1.2801182 0.16253836 70
0.2291168 1.2721372 0.010401634 83
0.24779084 1.2429149 0.029412808 67
0.23887199 1.2568717 0.05055033 56
0.25283861 1.2350159 0.067759357 68
0.25110191 1.2377336 0.087916173 70
0.2487075 1.2414805 0.10876112 79
0.25303364 1.2347107 0.1273223 89
0.22960085 1.2713797 0.15943253 73
0.23836783 1.2614328 0.0101573 71
0.24088672 1.2574606 0.030250182 98
0.23417145 1.2680503 0.051596198 82
0.24489591 1.2511382 0.069953002 66
0.25485218 1.2354376 0.087290429 71
0.25035512 1.2425293 0.10876112 87
0.24839592 1.2456188 0.13002171 96
0.24480233 1.2512858 0.15270324 68
0.24868876 1.2490302 0.0098780617 73
0.24480224 1.2552091 0.03004084 99
0.23069495 1.277637 0.052467756 80
0.24349064 1.2572943 0.070684217 65
0.25656009 1.2365162 0.087290429 57
0.25627023 1.236977 0.10723466 81
0.25117874 1.2450715 0.12957181 96
0.23731112 1.2671186 0.15736198 74
0.23659846 1.2721322 0.010331824 84
0.25072777 1.2494942 0.029622151 100
0.23246887 1.2787485 0.052467756 80
0.24624452 1.2566773 0.070440479 49
0.25609851 1.2408892 0.087916173 56
0.24750713 1.2546543 0.11105084 98
0.2559343 1.2411523 0.12822211 89
0.24007118 1.2665682 0.15684435 66
0.24458426 1.2629693 0.010122396 85
0.26073447 1.2369013 0.028784776 100
0.24045357 1.2696366 0.051421888 82
0.2562238 1.244182 0.068490572 50
0.25974235 1.2385027 0.087290429 57
0.2573877 1.2423034 0.10799789 72
0.26673523 1.2272156 0.12417299 92
0.23561499 1.2774465 0.15995017 64
0.24107081 1.2725502 0.010296919 70
0.25818226 1.2447141 0.029203463 100
0.2536768 1.2520435 0.049504463 86
0.2474851 1.2621157 0.070927955 48
0.27172431 1.2226846 0.084161744 74
0.24978492 1.2583746 0.11143246 91
0.26629186 1.2315218 0.12507279 92
0.24345836 1.2686663 0.15684435 66
0.25011578 1.2616751 0.010052586 86
0.25776112 1.2491401 0.029412808 100
0.24913651 1.2632806 0.05055033 84
0.25540671 1.2530003 0.069465525 49
0.26507735 1.2371448 0.086664692 71
0.26887041 1.2309259 0.10494494 75
0.26486039 1.2375005 0.12642249 90
0.25740463 1.2497246 -0.0098082526 88
0.24922466 1.2631361 0.15477379 67
0.26011628 1.2490323 0.0097733475 89
0.26253751 1.2450311 0.029098792 100
0.25086021 1.2643279 0.05055033 84
0.26326093 1.2438357 0.068003096 51
0.2626189 1.2448967 0.087916173 56
0.26031673 1.248701 0.10876112 87
0.26548511 1.2401602 0.12687239 90
0.25094783 1.264183 0.15477379 67
0.25767288 1.2568989 0.0099129668 87
0.2652255 1.2443193 0.028994121 100
0.24233195 1.2824507 0.052293446 100
0.26082945 1.2516414 0.068978049 67
0.26631194 1.2425097 0.087290429 57
0.26097891 1.2513924 0.10914274 78
0.27414966 1.2294552 0.12372308 83
0.2506859 1.2685364 0.15580906 67
0.26039758 1.2561984 0.0098780617 88
0.26688293 1.2453104 0.028994121 100
0.24922058 1.2749629 0.051421888 100
0.26048073 1.2560587 0.069465525 49
0.26998481 1.2401029 0.086664692 71
0.25663295 1.2625186 0.11143246 84
0.27475786 1.2320896 0.12417299 92
0.24649626 1.2795365 0.15891489 65
0.25506234 1.2693088 0.010122396 85
0.26862693 1.2463449 0.028994121 100
0.25512663 1.2692001 0.05072464 84
0.26832178 1.2468616 0.068003096 51
0.27874231 1.2292203 0.084474608 59
0.26243407 1.256829 0.10990598 78
0.27645338 1.2330953 0.12417299 83
0.26421559 1.253813 -0.0098082526 88
0.25622603 1.2673388 0.15477379 67
0.2689392 1.2496318 0.0097035384 90
0.2743305 1.2404314 0.028575432 100
0.2609002 1.2633504 0.050027397 85
0.26798078 1.2512673 0.068490572 50
0.28234437 1.2267557 0.083848871 59
0.26413518 1.2578299 0.10990598 78
0.27511579 1.2390914 0.12552269 90
0.26382411 1.2583606 0.15166797 69
0.26852068 1.2540184 0.0097733475 89
0.26384333 1.2620614 0.029831495 99
0.26153621 1.2660286 0.050201707 85
0.26957828 1.2521999 0.068490572 50
0.27293688 1.2464246 0.087290429 57
0.27266321 1.2468952 0.10723466 81
0.27373385 1.2450541 0.12687239 90
0.26641631 1.257637 0.15115032 77
0.27021194 1.254998 0.0097733475 89
0.27953506 1.2388369 0.028366089 100
0.26127824 1.2704842 0.05055033 84
0.27523097 1.2462978 0.067515619 51
0.27657577 1.2439667 0.086664692 57
0.27432957 1.2478603 0.10723466 81
0.28221026 1.2341995 0.12372308 75
0.26522419 1.263644 0.15270324 68
0.26793385 1.2629142 0.0099129668 87
0.28514117 1.2328441 0.0279474 100
0.26302701 1.2714889 0.05055033 84
0.2788671 1.2438082 0.067028143 51
0.28215635 1.2380602 0.085413218 58
0.27502421 1.2505237 0.10761628 79
0.28963956 1.2249832 0.12102367 86
0.26694065 1.2646497 -0.0099478718 86
0.25927311 1.278049 0.15684435 66
0.26669475 1.2691129 0.010017681 87
0.27887103 1.2476615 0.028784776 100
0.2716639 1.2603586 0.049330149 87
0.27562308 1.2533835 0.068246834 34
0.29256791 1.223531 0.082597397 60
0.27282667 1.2583101 0.10914274 78
0.28930539 1.2292788 0.12192347 85
0.27064326 1.2621567 -0.0098780617 87
0.26867738 1.2656201 0.15270324 76
0.27726817 1.2544163 0.0097035384 90
0.2766206 1.2555665 0.029203463 100
0.27239981 1.2630633 0.049504463 86
0.27244264 1.2629873 0.069465525 49
0.28736874 1.2364761 0.084787481 59
0.27645922 1.2558532 0.10837951 87
0.28899804 1.2335821 0.12282328 85
0.27230468 1.2632324 0.15166797 69
0.28091067 1.2518735 0.0096337283 90
0.28026477 1.2530303 0.028994121 100
0.27412263 1.2640293 0.049504463 86
0.27997223 1.2535541 0.068003096 68
0.28899866 1.2373899 0.084787481 59
0.28772876 1.2396641 0.10456333 75
0.2887176 1.2378932 0.12372308 83
0.27026054 1.2709453 0.15373851 68
0.28550097 1.2475619 0.0095290141 92
0.2819525 1.2539688 0.028994121 100
0.2768141 1.2632463 0.049330149 87
0.28358537 1.2510207 0.067515619 51
0.29063174 1.2382982 0.084787481 59
0.28366256 1.2508812 0.10685304 81
0.29318497 1.2336882 0.12237337 76
0.27201086 1.2719188 0.15373851 68
0.27946758 1.2625039 0.0098082526 74
0.28941295 1.2443982 0.028366089 100
0.27278215 1.2746747 0.05037602 84
0.29100037 1.2415084 0.066053182 52
0.2951211 1.2340065 0.083848871 59
0.27967155 1.2621324 0.10914274 78
0.27190441 1.2762725 0.15477379 75
0.28014535 1.2651541 0.0098431576 88
0.29098755 1.2452598 0.028366089 100
0.28780532 1.2510989 0.047935657 89
0.27831623 1.2685103 0.069709264 33
0.2976065 1.2331147 0.083536007 60
0.2822445 1.2613024 0.10876112 79
0.29914477 1.2302922 0.12102367 86
0.28301615 1.2598865 -0.0097384425 88
0.28098053 1.2636216 0.15063268 78
0.28948176 1.2520194 0.0095639192 91
0.2907488 1.2496752 0.028575432 100
0.28569698 1.2590222 0.048632905 88
0.28477728 1.2607238 0.068490572 50
0.2935892 1.2444197 0.085413218 58
0.2932958 1.2449626 0.10494494 75
0.29982644 1.2328794 0.12147357 77
0.28454229 1.2611586 0.14959741 70
0.29588917 1.2441134 0.0093893949 77
0.28865078 1.2576187 0.028994121 100
0.28740558 1.2599418 0.048632905 88
0.29586935 1.2441504 0.066053182 52
0.2977376 1.2406646 0.1038001 76
0.29960257 1.237185 0.12237337 76
0.28443319 1.2654877 0.15063268 78
0.29097623 1.2573581 0.0096337283 90
0.29972795 1.2408915 0.0279474 100
0.28537714 1.2678928 0.049330149 87
0.2956627 1.2485404 0.066540658 52
0.29968876 1.2409652 0.084474608 59
0.29293233 1.2536776 0.10647142 73
0.28797767 1.2629999 0.14959741 70
0.29183221 1.2600734 0.0096686333 75
0.28348938 1.2759104 0.050027397 85
0.29186711 1.2600071 0.068003096 51
0.29562184 1.2528796 0.1060898 73
0.28624013 1.2706887 -0.0098780617 87
0.28078243 1.2810489 0.15477379 67
0.29076695 1.2662889 0.0097733475 89
0.2954039 1.2574117 0.048109971 59
0.29541728 1.2573862 0.067515619 51
0.29549104 1.2572449 0.10685304 73
0.28891531 1.2698338 -0.0098431576 97
0.29330102 1.2614377 0.14856213 71
0.29793385 1.2564927 0.0095639192 91
0.29518843 1.2617915 0.048458595 59
0.29794812 1.2564652 0.067271881 51
0.29241416 1.2671459 -0.0097733475 99
0.29582083 1.2605709 0.1480445 79
0.29902595 1.2585524 0.028784776 100
0.29841754 1.2597368 0.14752686 79
0.29862797 1.2635584 0.048458595 59
0.29486814 1.2709405 0.15063268 70
0.29676029 1.2715468 0.049155839 58
0.29312775 1.2787412 -0.0099478718 100
0.29748902 1.2701037 0.15011504 78
0.29750234 1.2742262 0.0098431576 100
0.29660696 1.2760142 -0.0098780617 100
0.29659656 1.280478 -0.0099478718 100
