# .PCD v0.7 - Point Cloud Data file format
VERSION 0.7
FIELDS x y z intensity
SIZE 4 4 4 4
TYPE F F F F
COUNT 1 1 1 1
WIDTH 724
HEIGHT 1
VIEWPOINT 0 0 0 1 0 0 0
POINTS 724
DATA ascii
0.057005763 0.0076552033 0.015846785 128
0.050110281 0.0087010264 0.047730394 26
0.046486676 0.0086970925 0.047835063 100
0.039535701 0.0037221313 0.048253752 78
0.0347718 0.002102077 0.048463095 59
0.038542092 0.014011502 0.047835063 28
0.033788681 0.012410641 0.04804441 18
0.032277703 0.015863776 0.047939736 18
0.025236368 0.011013448 0.048358422 8
0.014879167 0.013381958 0.048567768 8
-1.0180252 1.1253833 0.084260888 3
-1.0394623 1.1302419 0.1425868 4
-1.0440831 1.1368511 0.028552137 7
-1.001267 1.1269977 0.083423518 5
-1.0304925 1.1337234 0.14188954 9
-1.021374 1.1374052 0.028168185 11
-1.003901 1.1333199 0.083632857 48
-1.0253332 1.1383309 0.14154093 50
-0.98895258 1.1354951 0.027609708 33
-0.99679369 1.1373572 0.083318844 100
-1.0143454 1.1415257 0.14066938 95
-0.97211581 1.1371139 0.027330469 42
-1.0071514 1.1455641 0.083946876 100
-1.0072286 1.1455827 0.14014643 84
-0.9824788 1.1452787 0.027539898 37
-0.98449165 1.1457715 0.082795486 99
-1.005908 1.1510161 0.14014643 86
-0.97727829 1.1496609 0.027470088 22
-0.96766442 1.147271 0.081958108 86
-1.0007014 1.1554836 0.13979781 86
-0.97988898 1.1557012 0.027539898 25
-0.97996169 1.1557195 0.082690813 39
-0.9974826 1.1601367 0.13962349 71
-0.96109754 1.1565785 0.027225753 48
-0.98247582 1.1620477 0.082900152 33
-0.97680908 1.160598 0.13788038 82
-0.95973891 1.1618509 0.027225753 61
-0.98689753 1.1689 0.083214171 75
-0.98122185 1.1674268 0.13840333 92
-0.95836192 1.1671185 0.027225753 70
-0.96424991 1.1686687 0.082062781 98
-0.9798252 1.1727693 0.13840333 92
-0.95696646 1.1723813 0.027225753 78
-0.94934148 1.1703453 0.081330076 94
-0.97841007 1.178107 0.13840333 100
-0.95555276 1.1776391 0.027225753 89
-0.95179063 1.1766205 0.081539422 100
-0.96736044 1.1808362 0.13753176 100
-0.95026392 1.1818333 0.027155945 89
-0.9561401 1.1834464 0.081853434 100
-0.96399575 1.1856028 0.13735744 99
-0.93725818 1.1838512 0.026946515 96
-0.94506699 1.1860242 0.081330076 94
-0.9625358 1.1908851 0.13735744 92
-0.93965381 1.1901258 0.027016325 93
-0.94168335 1.1906981 0.081225403 88
-0.95338708 1.1939991 0.1366602 99
-0.95740527 1.2008183 0.027365373 66
-0.93444473 1.1942561 0.08091139 74
-0.95956069 1.2014343 0.13735744 100
-0.97125858 1.2105272 0.027644612 37
-0.92528099 1.1972129 0.080492698 28
-0.94464916 1.2028216 0.13613728 98
-0.93517262 1.2057021 0.027016325 53
-0.92378074 1.20236 0.080492698 24
-0.94695288 1.2091581 0.13648589 84
-0.91830784 1.2063267 0.026737086 75
-0.92609161 1.2086397 0.080702044 28
-0.93777138 1.2121105 0.13578865 89
-0.91486102 1.2108731 0.026702182 75
-0.92072636 1.2126384 0.080492698 40
-0.93431121 1.216727 0.13561434 99
-0.91538185 1.2160553 0.026737086 81
-0.9040429 1.2126038 0.079655327 99
-0.94052464 1.2237086 0.13631158 99
-0.91763777 1.2223456 0.026806897 88
-0.91012377 1.2200297 0.080074012 90
-0.92750782 1.2253877 0.13526571 92
-0.90459639 1.223892 0.026597468 88
-0.91045052 1.2257187 0.080178685 78
-0.90688974 1.2246076 0.1335226 69
-0.89918953 1.227762 0.026527658 79
-0.91075546 1.2314154 0.080283359 68
-0.91669315 1.233291 0.13456847 47
-0.89758271 1.2328179 0.026527658 83
-0.90342873 1.2346869 0.079969339 78
-0.91127151 1.2371944 0.13421984 43
-0.89976352 1.2390993 0.026597468 88
-0.89229649 1.2366831 0.07944598 100
-0.91531867 1.2441324 0.13474278 49
-0.90191811 1.2454016 0.026667276 99
-0.89255673 1.2423364 0.079550654 100
-0.91176122 1.2486244 0.13456847 70
-0.88506395 1.2454357 0.026388038 100
-0.89469105 1.2486252 0.07976 100
-0.90251642 1.2512177 0.13387123 80
-0.86822742 1.2453581 0.0261088 99
-0.89679891 1.2549347 0.079969339 100
-0.89327139 1.2537522 0.13317397 88
-0.87034708 1.25159 0.02617861 96
-0.88374847 1.2561339 0.079341307 100
-0.90478212 1.2632657 0.13439415 78
-0.8762235 1.2591399 0.02631823 93
-0.87448591 1.258544 0.078922622 100
-0.90493613 1.2689872 0.13456847 94
-0.87828594 1.265426 0.026388038 89
-0.87465876 1.2641679 0.079027295 100
-0.89753836 1.272104 0.13404553 87
-0.86522609 1.2664372 0.02617861 85
-0.86915582 1.2678156 0.078817949 76
-0.89013666 1.2751753 0.1335226 52
-0.85971528 1.2700372 0.0261088 81
-0.86552709 1.2720988 0.078713275 42
-0.88836449 1.2801993 0.1335226 39
-0.85428447 1.2733598 0.026038991 92
-0.86009413 1.2754421 0.078503937 17
-0.89229125 1.2869831 0.13404553 35
-0.86379915 1.2823464 0.02624842 100
-0.85456568 1.2790003 0.07829459 57
-0.88298517 1.2892992 0.13334829 20
-0.85824686 1.2859026 0.02617861 100
-0.85653108 1.285274 0.078503937 97
-0.86993891 1.2901859 0.13230242 15
-0.84518594 1.2866486 0.025969181 100
-0.85472387 1.2901807 0.078503937 100
-0.85877246 1.2916799 0.13143086 3
-0.83195645 1.2877922 0.025759751 100
-0.8489756 1.2941689 0.07829459 61
-0.87168485 1.3026778 0.13282534 1
-0.83388084 1.2940294 0.025829561 100
-0.83406252 1.2940981 0.077561885 53
-0.84932071 1.299876 0.13090792 3
-0.83783132 1.3005164 0.025934275 75
-0.84173721 1.3020095 0.078085244 55
-0.85509342 1.3071151 0.13160518 20
-0.83970171 1.3067987 0.026004085 72
-0.83614546 1.3054249 0.077875905 68
-0.84020001 1.3069911 0.130385 58
-0.82850522 1.3080111 0.025829561 78
-0.8268258 1.3073556 0.077457212 63
-0.8475973 1.3154626 0.13125655 100
-0.81173652 1.3069514 0.025550323 93
-0.83794791 1.317287 0.078189917 68
-0.83271033 1.3152217 0.13003637 99
-0.82481128 1.3173819 0.025829561 100
-0.82499188 1.3174536 0.077561885 91
-0.83459681 1.3212779 0.130385 99
-0.81547111 1.3191926 0.025689943 100
-0.82307249 1.32225 0.077561885 95
-0.83451253 1.3268511 0.1305593 100
-0.82085913 1.3272057 0.025829561 100
-0.81918889 1.3265268 0.077457212 97
-0.82877082 1.3304214 0.13021068 100
-0.78694135 1.3134193 0.17719802 16
-0.80410677 1.3259119 0.025550323 100
-0.81169504 1.3290272 0.0771432 97
-0.80653185 1.3269075 0.12829325 100
-0.79605454 1.3226061 0.17866045 15
-0.79856116 1.3288682 0.025480513 100
-0.8079887 1.332775 0.077038527 99
-0.80835885 1.3329284 0.12864187 100
-0.79421467 1.3270668 0.17866045 22
-0.79660207 1.333572 0.025480513 100
-0.79496151 1.3328854 0.076410495 99
-0.8100614 1.339205 0.1289905 100
-0.77944356 1.326391 0.17695428 18
-0.79831058 1.339826 0.025550323 100
-0.80218703 1.3414643 0.076933853 100
-0.81540722 1.3470514 0.12968774 100
-0.77932185 1.3318009 0.17719802 22
-0.81470555 1.3523778 0.025899371 81
-0.79834706 1.3453969 0.07682918 51
-0.80238956 1.347122 0.12864187 90
-0.77552682 1.3356586 0.17695428 16
-0.80899137 1.3555553 0.025829561 60
-0.82567805 1.3627453 0.078503937 55
-0.8045364 1.3536358 0.18109785 5
-0.795937 1.3555094 0.025620133 99
-0.81078035 1.3619666 0.077771232 100
-0.81111652 1.3621128 0.12986206 61
-0.77882677 1.3480661 0.17792924 16
-0.79388493 1.360204 0.025620133 100
-0.81053442 1.367516 0.077875905 100
-0.81998664 1.3716674 0.13090792 100
-0.78043598 1.3542975 0.17841671 35
-0.80095702 1.3689439 0.025794657 100
-0.80113691 1.3690236 0.077457212 100
-0.81787819 1.3764458 0.13090792 100
-0.76205558 1.351697 0.17622307 37
-0.8044396 1.3758701 0.025899371 100
-0.80825895 1.3775785 0.077980578 100
-0.80676597 1.3769107 0.13003637 100
-0.77280384 1.3617188 0.17792924 24
-0.79502636 1.3773026 0.025759751 100
-0.80612975 1.3823161 0.077980578 100
-0.80282325 1.3808231 0.12986206 100
-0.78882247 1.3745015 0.18036664 17
-0.79107863 1.3811648 0.025724847 100
-0.81852359 1.3936721 0.078817949 100
-0.80430883 1.3871942 0.13021068 100
-0.76683432 1.370116 0.1776855 15
-0.79802078 1.3900203 0.025899371 100
-0.80908006 1.395107 0.078399263 100
-0.8057664 1.3935828 0.1305593 100
-0.75030369 1.3680729 0.17573559 13
-0.79403454 1.39388 0.025864467 100
-0.80326658 1.3981655 0.078189917 100
-0.81442457 1.4033449 0.13160518 100
-0.77161545 1.3834734 0.17890419 10
-0.8009029 1.4028091 0.026038991 100
-0.80287427 1.4037325 0.07829459 100
-0.80859703 1.4064133 0.13125655 100
-0.76587075 1.3863989 0.17841671 8
-0.79326206 1.4049571 0.025934275 100
-0.80968231 1.4127189 0.078817949 100
-0.79555947 1.4060431 0.13021068 100
-0.79601544 1.4062586 0.18280402 3
-0.78381783 1.4061985 0.025794657 100
-0.81283861 1.4200406 0.079131968 100
-0.80052429 1.414167 0.13090792 100
-0.78124434 1.4049709 0.18109785 3
-0.79059833 1.4151864 0.025969181 100
-0.80156285 1.4204633 0.07860861 100
-0.81262988 1.4257895 0.13230242 100
-0.79733235 1.4242294 0.026143705 100
-0.79928404 1.4251771 0.07860861 100
-0.81391698 1.4322824 0.13265105 100
-0.7968362 1.4298081 0.02617861 100
-0.80416328 1.4333978 0.079027295 100
-0.80443996 1.4335333 0.13195379 100
-0.79093939 1.4327335 0.0261088 100
-0.80362982 1.4390055 0.079131968 100
-0.80211562 1.4382572 0.13195379 100
-0.78861791 1.4374102 0.0261088 100
-0.81558567 1.4508559 0.079969339 100
-0.79799169 1.4420838 0.13177948 100
-0.78985292 1.4438758 0.02617861 100
-0.79714209 1.4475418 0.079027295 100
-0.81165689 1.4548421 0.13334829 100
-0.7984311 1.4535065 0.026388038 100
-0.80569559 1.4571887 0.079655327 100
-0.81127578 1.4600172 0.1335226 100
-0.79959804 1.4600298 0.026457848 100
-0.79973203 1.4600983 0.07944598 100
-0.80531102 1.4629507 0.13317397 100
-0.78995138 1.4613043 0.02631823 100
-0.80429345 1.4687036 0.079864666 100
-0.79567951 1.4642596 0.13247673 100
-0.78398222 1.4641314 0.02624842 100
-0.80184633 1.4734268 0.079864666 100
-0.80738741 1.47631 0.13387123 100
-0.78863388 1.4725006 0.026388038 99
-0.79230851 1.4744289 0.07944598 100
-0.81020623 1.4838214 0.13439415 100
-0.78440613 1.4762335 0.026353134 70
-0.78278035 1.475373 0.079027295 89
-0.80946726 1.4894971 0.13456847 92
-0.80004233 1.49025 0.13387123 22
0.13146558 1.289994 0.12975012 11
0.15533179 1.2603422 0.14531837 7
0.16799352 1.2480177 0.010680873 26
0.15723714 1.2614775 0.032971654 29
0.15446326 1.2649486 0.055431053 24
0.14599776 1.2755418 0.07945881 14
0.14057583 1.2823265 0.10387249 11
0.15657037 1.2623119 0.12249938 50
0.14959699 1.2710378 0.17185585 7
0.16096395 1.2603137 0.010925206 100
0.16516215 1.2550225 0.032448292 89
0.15867016 1.2632047 0.055082429 75
0.16380495 1.2567332 0.076290213 29
0.1669229 1.2528034 0.097615108 24
0.16927373 1.2498406 0.11906482 100
0.18662348 1.2279742 0.13497064 30
0.15134838 1.2724326 0.17185585 29
0.16020292 1.2648103 0.010995016 100
0.17798105 1.2422428 0.031506244 100
0.15299657 1.2739582 0.056128297 100
0.17533362 1.2456034 0.074340299 30
0.17350015 1.2479308 0.096363634 37
0.1551573 1.2712153 0.12402584 100
0.19425392 1.2215859 0.13272113 39
0.14832276 1.2798911 0.1739264 35
0.1643104 1.2629504 0.010925206 100
0.17462617 1.2497659 0.031924933 100
0.15958086 1.2689953 0.055431053 100
0.1585643 1.2702945 0.077996381 28
0.18725958 1.233619 0.093234941 26
0.17133892 1.2539673 0.11944643 100
0.18854839 1.2319719 0.13542053 38
0.15120625 1.2796988 0.17340876 42
0.17094037 1.2579769 0.010785587 100
0.16650125 1.2636915 0.032762308 58
0.1674363 1.2624879 0.054559495 100
0.17005521 1.2591164 0.076046467 29
0.17918563 1.2473625 0.095737889 25
0.17664373 1.2506348 0.11830158 100
0.1841858 1.2409256 0.13767004 30
0.15061763 1.2841392 0.17444403 42
0.17020363 1.262464 0.010855397 78
0.17066634 1.2618641 0.032552965 59
0.16429073 1.270131 0.055256739 49
0.18025091 1.2494363 0.074340299 46
0.17120332 1.2611678 0.098240845 24
0.18345168 1.245286 0.13856985 22
0.15241477 1.2855301 0.17444403 42
0.17192495 1.2637868 0.010855397 65
0.18695593 1.2441555 0.031296901 31
0.16603887 1.2714744 0.055256739 49
0.19037428 1.239691 0.072634131 63
0.18252727 1.2499396 0.095737889 38
0.18478233 1.2469944 0.1167751 19
0.19814464 1.2295425 0.13362093 31
0.15891445 1.2807792 0.17237349 57
0.17123064 1.2682874 0.010925206 52
0.19103053 1.2422398 0.031087559 31
0.16658598 1.2743977 0.055431053 49
0.18120441 1.2551665 0.074827775 45
0.20213595 1.2276301 0.091044858 68
0.1900138 1.2435774 0.11563025 13
0.20564735 1.2230108 0.13137141 47
0.17005232 1.2698376 0.16823238 67
0.17538142 1.2664142 0.010855397 52
0.17824402 1.2626209 0.032343622 30
0.17194948 1.270962 0.054908119 50
0.19127056 1.2453592 0.073121607 93
0.20492539 1.2272649 0.090731993 54
0.19994736 1.2338614 0.11295892 13
0.21075237 1.2195435 0.13002171 40
0.17761788 1.2634506 0.16564418 68
0.17942819 1.2644534 0.010785587 39
0.16790166 1.2798332 0.033390339 28
0.1855616 1.2562696 0.053165004 52
0.18808687 1.2529001 0.07409656 76
0.19933558 1.237891 0.092609204 53
0.20148751 1.2350197 0.11295892 13
0.21458235 1.2175472 0.1291219 32
0.18157342 1.261591 0.16460891 69
0.19070575 1.2529092 0.010506349 81
0.19352794 1.2491159 0.031296901 31
0.18012539 1.2671297 0.054210871 51
0.19806936 1.2430121 0.072390392 47
0.1927169 1.250206 0.094799288 51
0.20545667 1.2330831 0.11219569 14
0.21149364 1.2249691 0.13092151 32
0.18444481 1.2613242 0.16409127 69
0.18882942 1.2589859 0.010611063 81
0.2094419 1.2310789 0.03004084 66
0.18304667 1.2668152 0.054036561 77
0.19854325 1.2458345 0.072634131 78
0.18970084 1.2578061 0.096050762 76
0.21524012 1.2232287 0.10952436 14
0.22118834 1.2151754 0.1277722 32
0.18271881 1.267259 0.16564418 68
0.1905385 1.2602437 0.010611063 81
0.19806245 1.2499822 0.03119223 63
0.18124875 1.2729132 0.054559495 100
0.20255396 1.2438567 0.072146654 79
0.20308641 1.2431304 0.092922069 79
0.20289353 1.2433934 0.11410378 13
0.22965816 1.2068912 0.12507279 16
0.18559912 1.2669801 0.16512655 76
0.18754476 1.2679625 0.010750682 79
0.20561689 1.2431339 0.03066887 64
0.18066147 1.2774191 0.054908119 100
0.18435058 1.2723508 0.076290213 100
0.21520248 1.2299646 0.090106249 96
0.20685881 1.2414277 0.11334054 13
0.25068101 1.1812221 0.11742445 17
0.18847302 1.2666872 0.16460891 77
0.19396979 1.2627412 0.010611063 94
0.21428889 1.2346199 0.03004084 66
0.19176993 1.2657857 0.053513627 100
0.20122015 1.2527068 0.073121607 93
0.20871171 1.2423385 0.092296332 100
0.21310574 1.2362573 0.11181407 14
0.23385733 1.2075373 0.12462288 16
0.1924718 1.2648144 0.16357364 77
0.20268485 1.2542313 0.010401634 97
0.21125647 1.2422807 0.030459527 65
0.19814765 1.2605572 0.05281638 100
0.20753515 1.2474689 0.072146654 63
0.21151388 1.2419218 0.091983467 93
0.21587956 1.2358351 0.11143246 14
0.2285718 1.2181394 0.1273223 8
0.19757906 1.2613499 0.16202073 70
0.19741842 1.2652147 0.010611063 94
0.21985748 1.2336981 0.029831495 66
0.19292873 1.2715206 0.053862248 100
0.20114452 1.2599812 0.073852822 100
0.20858043 1.2495372 0.093234941 100
0.20270494 1.2577896 0.11639348 19
0.23126832 1.2176712 0.12687239 16
0.1948145 1.268872 0.16409127 69
0.20128527 1.2630546 0.010541254 95
0.22592896 1.2282104 0.029412808 67
0.19450608 1.27264 0.053862248 100
0.2141481 1.2448677 0.071415432 48
0.21921378 1.2377052 0.090731993 95
0.20764002 1.2540696 0.11524864 47
0.23380154 1.2170793 0.12642249 24
0.19749901 1.2684082 0.16357364 69
0.19841257 1.2708155 0.010680873 93
0.21720219 1.2440507 0.030354854 97
0.2008419 1.2673551 0.053165004 100
0.21010479 1.2541606 0.072634131 63
0.22538841 1.23239 0.089480512 97
0.19805142 1.2713299 0.11906482 97
0.23872319 1.2133955 0.12507279 50
0.20590091 1.2601488 0.1604678 72
0.213882 1.2523519 0.010262015 84
0.21771708 1.2468482 0.030459527 97
0.21169278 1.2554936 0.051770512 100
0.21633655 1.2488295 0.071659178 64
0.22926316 1.230279 0.088854775 98
0.21663988 1.2483941 0.11334054 96
0.2235609 1.238462 0.13182132 94
0.21313629 1.253422 0.15787962 73
0.22239292 1.2436545 0.010052586 100
0.21938363 1.2480053 0.030459527 97
0.20205584 1.2730577 0.053513627 100
0.21913922 1.2483586 0.071415432 96
0.22750071 1.2362696 0.089793384 100
0.2272462 1.2366376 0.1102876 85
0.22963229 1.2331877 0.13002171 80
0.21043009 1.2609503 0.15995017 72
0.2127305 1.261281 0.010401634 83
0.22557577 1.24257 0.03004084 66
0.20381394 1.2742693 0.053513627 100
0.2286756 1.2380548 0.069709264 83
0.22801223 1.2390211 0.090106249 100
0.22443241 1.2442355 0.11181407 98
0.23235402 1.2326965 0.12957181 96
0.20995912 1.2653179 0.16098544 72
0.21219543 1.2657604 0.010471444 82
0.22835198 1.2420491 0.029936166 66
0.2055763 1.2754745 0.053513627 100
0.23254696 1.2358925 0.069221787 67
0.23521298 1.2319798 0.08854191 100
0.22830078 1.2421242 0.11105084 84
0.23836035 1.2273608 0.1277722 97
0.20625111 1.2744842 0.16357364 69
0.2128948 1.2686518 0.010506349 40
0.24238876 1.2250239 0.028784776 34
0.20743126 1.2767336 0.053513627 78
0.22647426 1.2485648 0.070927955 48
0.23801467 1.2314941 0.088229038 100
0.22673473 1.2481796 0.11219569 91
0.23458168 1.2365723 0.13002171 96
0.21784005 1.2613368 0.15891489 73
0.21240914 1.2731466 0.010576159 40
0.20836923 1.2791677 0.032134276 30
0.22030309 1.2613814 0.051770512 54
0.22482866 1.2546365 0.071659178 80
0.23522505 1.2391417 0.089480512 97
0.2251243 1.2541959 0.11334054 100
0.23186916 1.2441432 0.13182132 94
0.21955714 1.2624931 0.15891489 73
0.22294867 1.2609495 0.010296919 42
0.21891794 1.2670002 0.031296901 31
0.21972519 1.2657883 0.052119136 54
0.23083979 1.2491038 0.070684217 65
0.23897284 1.236895 0.088854775 98
0.23870462 1.2372975 0.10914274 92
0.23560402 1.2419519 0.13092151 96
0.22333419 1.2603707 0.15787962 73
0.22245872 1.2654243 0.010366729 41
0.23056823 1.2531582 0.030354854 32
0.22585303 1.2602903 0.051421888 55
0.23470366 1.2469032 0.07019674 82
0.23406798 1.2478647 0.090731993 95
0.2403377 1.2383814 0.10914274 85
0.24477649 1.2316675 0.1277722 97
0.22185165 1.2663425 0.15943253 73
0.22081155 1.271523 0.010471444 27
0.18833387 1.3210032 0.03454173 27
0.22092095 1.2713562 0.052467756 53
0.2341083 1.2512652 0.070684217 65
0.24215809 1.2390013 0.088854775 98
0.23435152 1.2508945 0.11181407 84
0.24523976 1.2343062 0.12822211 97
0.22455946 1.265813 0.15891489 81
0.22147274 1.2743446 0.010506349 40
0.22732359 1.2653625 0.030982886 31
0.22811034 1.2641547 0.051596198 54
0.23795712 1.2490382 0.07019674 82
0.24595344 1.2367625 0.088229038 98
0.23710364 1.2503484 0.11143246 91
0.2426078 1.2418987 0.13002171 88
0.22840101 1.2637085 0.15787962 73
0.22974882 1.2654121 0.010296919 42
0.23989746 1.2497127 0.029936166 33
0.23632702 1.2552359 0.05055033 56
0.23747584 1.2534587 0.070684217 65
0.24865699 1.2361621 0.087916173 84
0.23984811 1.249789 0.11105084 84
0.24848863 1.2364225 0.12822211 89
0.23432139 1.2583386 0.15580906 75
0.24011791 1.2530618 0.010017681 43
0.23833862 1.2558354 0.030250182 65
0.24017429 1.2529739 0.050201707 56
0.24881193 1.2395091 0.068490572 50
0.25028601 1.2372111 0.087916173 84
0.25212529 1.234344 0.10723466 88
0.24906638 1.2391124 0.128672 97
0.23707104 1.2578114 0.15529142 75
0.24395368 1.2507668 0.0099478718 58
0.25183433 1.2383871 0.029098792 68
0.23330268 1.2674984 0.051596198 54
0.25045264 1.2405576 0.068490572 50
0.25191873 1.2382545 0.087916173 70
0.25374797 1.2353809 0.10723466 81
0.25279868 1.2368722 0.1277722 89
0.22840157 1.2751975 0.1604678 72
0.23709011 1.2653573 0.01022711 70
0.25453776 1.2377365 0.028994121 100
0.23078501 1.2753386 0.052293446 80
0.25209704 1.2416003 0.068490572 50
0.25355506 1.2392921 0.087916173 70
0.24174386 1.25799 0.11219569 91
0.25963387 1.229669 0.12552269 99
0.23119873 1.2746837 0.15995017 64
0.24413136 1.2579746 0.010052586 86
0.25617227 1.238765 0.028994121 100
0.24207437 1.2612563 0.05072464 84
0.2474193 1.2527292 0.069953002 49
0.25939152 1.2336291 0.086664692 57
0.25283337 1.2440917 0.10876112 87
0.26020521 1.2323309 0.12597258 90
0.24117044 1.2626985 0.15580906 67
0.25534168 1.2437569 0.0097384425 90
0.25148132 1.2499636 0.029622151 100
0.24168652 1.2657119 0.051073264 83
0.2491062 1.2537825 0.069953002 49
0.26309821 1.2312858 0.086038955 72
0.25137943 1.2501276 0.10990598 92
0.25770396 1.2399588 0.1277722 89
0.2490139 1.2539308 0.15270324 68
0.2569972 1.2447826 0.0097384425 75
0.25525635 1.2476034 0.029412808 100
0.24551147 1.2633941 0.05072464 84
0.25496683 1.2480726 0.068978049 50
0.26263529 1.2356466 0.086664692 57
0.26233667 1.2361305 0.10647142 81
0.26139307 1.2376595 0.12687239 99
0.24258849 1.2681305 0.15684435 66
0.25343508 1.2543294 0.0099129668 100
0.25483936 1.252036 0.029622151 100
0.24619517 1.2661531 0.050898954 83
0.26285711 1.2389419 0.067515619 51
0.26116782 1.2417008 0.087603301 57
0.24756211 1.2639207 0.1125773 100
0.26811543 1.2303544 0.12462288 100
0.24231154 1.2724955 0.15787962 65
0.25097436 1.2621977 0.010052586 86
0.25859782 1.2496495 0.029412808 100
0.24172199 1.2774272 0.051944822 81
0.25521946 1.2552103 0.069709264 33
0.26999572 1.2308885 0.085413218 58
0.26152042 1.2448388 0.10799789 72
0.27275956 1.2263391 0.12327318 76
0.24406746 1.2735665 0.15787962 65
0.25682354 1.2563879 0.0099129668 87
0.26027387 1.2506638 0.029412808 100
0.24966633 1.2682619 0.050898954 83
0.25896451 1.252836 0.069221787 50
0.26956671 1.2352467 0.086038955 58
0.25507167 1.2592944 0.11105084 84
0.2753602 1.2256352 0.12282328 85
0.25579122 1.2581006 -0.0099478718 86
0.25579998 1.2580861 0.15270324 68
0.26049131 1.2539254 0.0098431576 88
0.25776792 1.2584777 0.029831495 100
0.2513203 1.2692552 0.050898954 83
0.26464376 1.2469845 0.068246834 68
0.26705453 1.2429547 0.087290429 71
0.26274335 1.2501611 0.10876112 79
0.26986936 1.2382497 0.12597258 74
0.25146937 1.269006 0.15580906 67
0.26728544 1.2463349 0.0096686333 75
0.26355234 1.2526248 0.029412808 100
0.26018316 1.2583013 0.049678773 86
0.26529729 1.2496847 0.068490572 50
0.27274004 1.2371447 0.086038955 72
0.26943135 1.2427194 0.10685304 81
0.27448943 1.2341971 0.12462288 83
0.25518504 1.2667224 0.15477379 67
0.26590604 1.2524884 0.0097733475 89
0.26726553 1.2501795 0.029203463 100
0.25279117 1.2747619 0.051247578 82
0.26898786 1.2472544 0.068003096 51
0.27437237 1.2381097 0.086038955 58
0.26709864 1.250463 0.10837951 79
0.27808902 1.2317976 0.12372308 75
0.25103953 1.2777368 0.15787962 65
0.25952315 1.2672908 0.010052586 86
0.27599499 1.2390913 0.02847076 100
0.25656477 1.2723556 0.050898954 83
0.27065551 1.2482324 0.068003096 51
0.28098971 1.2305404 0.084474608 59
0.26778725 1.2531428 0.10876112 79
0.28658292 1.2209649 0.12057377 77
0.25671121 1.2721047 0.15580906 67
0.26827875 1.2561902 0.0098082526 74
0.27362871 1.2469573 0.028889447 100
0.26830915 1.2561378 0.049155839 87
0.2663551 1.25951 0.069465525 49
0.28259894 1.2314767 0.084474608 59
0.27045974 1.2524263 0.10837951 79
0.28425062 1.2286263 0.12237337 85
0.26427698 1.2630963 0.15270324 68
0.27794975 1.243301 0.0095290141 76
0.2762906 1.2461876 0.028784776 100
0.26405051 1.2674823 0.050201707 85
0.26608703 1.2639393 0.069953002 49
0.28421143 1.2324072 0.084474608 59
0.2731238 1.2516971 0.10799789 79
0.28002638 1.2396882 0.12507279 83
0.27177623 1.2540414 0.14959741 70
0.27861309 1.2459849 0.0095639192 91
0.27498671 1.2523452 0.029098792 100
0.26578879 1.2684774 0.050201707 85
0.27961171 1.2442335 0.067028143 51
0.28191349 1.2401963 0.08572609 58
0.27675176 1.2492495 0.10723466 81
0.28359798 1.237242 0.12417299 83
0.27155381 1.2583661 0.15063268 70
0.27338549 1.2591137 0.0098082526 74
0.28453764 1.2393943 0.028261416 100
0.26262656 1.2781377 0.051073264 83
0.27931431 1.2486303 0.067515619 51
0.28258398 1.2428488 0.086038955 58
0.27939275 1.2484915 0.10685304 81
0.29194576 1.2262951 0.12102367 86
0.26565227 1.2727876 0.15477379 67
0.27411619 1.2618203 0.0098431576 88
0.28226927 1.2472857 0.028680105 100
0.26147783 1.2843509 0.051596198 82
0.27904436 1.2530348 0.068003096 51
0.28520256 1.2420565 0.08572609 58
0.27242032 1.2648436 0.1102876 85
0.29449347 1.2254936 0.12057377 86
0.27118126 1.2670524 -0.0099478718 86
0.26740906 1.2737771 0.15477379 67
0.27583465 1.2627803 0.0098431576 88
0.28393692 1.2482173 0.028680105 100
0.27102432 1.2714263 0.050201707 85
0.27880189 1.257447 0.068490572 50
0.29261434 1.2326207 0.083848871 59
0.27605832 1.2623782 0.10952436 85
0.29324266 1.2314914 0.12192347 76
0.27583465 1.2627803 -0.0098431576 97
0.27292621 1.2680079 0.15270324 68
0.28238699 1.2549802 0.0096686333 75
0.28367797 1.2526406 0.028889447 100
0.2795144 1.260186 0.048981529 87
0.28242317 1.2549146 0.068003096 51
0.2932764 1.2352459 0.084161744 59
0.28536677 1.2495801 0.10647142 73
0.29203066 1.2375035 0.12327318 85
0.27659032 1.2654852 -0.0098780617 87
0.28026628 1.2588234 0.14959741 70
0.28408152 1.2559114 0.0096686333 75
0.28536433 1.2535673 0.028889447 100
0.28122711 1.2611272 0.048981529 87
0.28792939 1.2488801 0.067028143 51
0.28826374 1.2482692 0.086351827 58
0.29081243 1.2436121 0.10494494 75
0.29740626 1.2315631 0.12147357 77
0.27544156 1.2716991 -0.0099827768 86
0.28011939 1.2631513 0.15063268 70
0.287687 1.2533215 0.0095988233 76
0.29467553 1.2404449 0.028052073 100
0.27819121 1.270818 0.049853086 85
0.28770879 1.2532815 0.067515619 51
0.29370385 1.2422353 0.085100345 58
0.29153073 1.2462394 0.10532656 82
0.27999946 1.2674862 0.15166797 69
0.28748026 1.257756 0.0096686333 90
0.27899677 1.2735181 0.050027397 85
0.28939736 1.254194 0.067515619 51
0.29722622 1.2396482 0.084474608 59
0.28761196 1.2575113 0.10761628 79
0.27807537 1.2752302 0.15373851 76
0.28456342 1.2675364 0.0098431576 88
0.29052752 1.2563573 0.028889447 100
0.28647104 1.2639608 0.048981529 87
0.289305 1.2586489 0.068003096 51
0.29894927 1.2405715 0.084474608 59
0.29124877 1.2550054 0.10685304 73
0.28644595 1.2640078 -0.0097733475 88
0.28902227 1.2591788 0.14856213 79
0.29845807 1.2454813 0.0093893949 77
0.29596266 1.2501984 0.02847076 100
0.28819689 1.2648777 0.048981529 87
0.29286882 1.2560465 0.067515619 51
0.29569751 1.2506995 0.10570818 73
0.28630176 1.2684599 -0.0098431576 87
0.28892463 1.263502 0.14959741 70
0.29817194 1.2498653 0.047412723 90
0.29638067 1.2532785 0.1060898 81
0.28981465 1.2657903 -0.0097733475 88
0.2905626 1.2643651 0.14959741 70
0.29800817 1.2542782 0.0095290141 61
0.29892886 1.2525088 0.047587037 90
0.29984841 1.2507416 0.066540658 52
0.28600857 1.277339 -0.0099827768 86
0.2887229 1.2721226 0.15166797 77
0.29878333 1.2569319 0.0095639192 91
0.29147965 1.2710886 0.049330149 58
0.29796046 1.2585268 0.10685304 73
0.28961483 1.2747031 -0.0099129668 100
0.28693426 1.2798989 0.15373851 68
0.29502073 1.2684877 0.0097733475 89
0.29413766 1.2702141 0.049155839 58
0.29684201 1.2649271 -0.0097035384 100
0.29839295 1.2618949 0.1480445 79
0.29861161 1.265728 0.068246834 68
0.29314464 1.2765087 -0.0099129668 100
0.29836404 1.2662163 0.14907977 78
0.29584622 1.2755483 0.049504463 57
0.29491425 1.2774022 -0.0099129668 100
0.29761246 1.2764325 0.049504463 28
0.29490307 1.2818689 -0.0099827768 100
