# .PCD v0.7 - Point Cloud Data file format
VERSION 0.7
FIELDS x y z intensity
SIZE 4 4 4 4
TYPE F F F F
COUNT 1 1 1 1
WIDTH 715
HEIGHT 1
VIEWPOINT 0 0 0 1 0 0 0
POINTS 715
DATA ascii
0.048677802 9.2387199e-05 0.048149079 46
0.049413562 0.0067692995 0.047835063 28
0.047986269 0.010099947 0.047730394 100
0.045336783 0.011856973 0.047730394 95
0.04282546 0.013534665 0.047730394 66
0.038549423 0.018834174 0.047625721 28
0.032540977 0.015683115 0.047939736 18
0.033448279 0.022332907 0.047625721 9
0.021581054 0.01111871 0.048463095 8
-1.0591209 1.1338117 0.086459003 3
-1.0396509 1.1294096 0.1425868 4
-1.0403769 1.1351215 0.028482327 7
-1.0092402 1.127973 0.083842203 5
-1.0229154 1.1311126 0.1411923 9
-1.0157876 1.1349463 0.028063469 11
-0.99637371 1.1304215 0.083214171 43
-1.0333514 1.1390401 0.14223817 45
-1.0027645 1.1379166 0.02785404 35
-0.98921198 1.1347053 0.082900152 91
-1.0184171 1.1416253 0.14101799 86
-0.98014885 1.1379211 0.027470088 38
-1.0035293 1.143543 0.08373753 100
-1.0055532 1.1440296 0.13997212 87
-0.97878999 1.143527 0.027470088 37
-0.9885686 1.1459161 0.083004825 100
-1.0022364 1.1492555 0.13979781 84
-0.97366101 1.1476325 0.027400278 26
-0.97568184 1.1481333 0.082376793 90
-1.0009701 1.1544008 0.13979781 84
-0.97614509 1.1541908 0.027470088 25
-0.97428566 1.1537226 0.082376793 46
-1.0072794 1.1620284 0.14049506 74
-0.9709875 1.1582603 0.027400278 42
-0.98074561 1.1607512 0.082795486 28
-0.98859638 1.1627553 0.13892625 84
-0.96374708 1.1623273 0.027295563 61
-0.98316997 1.1673613 0.083004825 73
-0.97750312 1.1658926 0.1380547 91
-0.95470148 1.1653125 0.027155945 67
-0.97604877 1.1709208 0.082690813 91
-0.98003596 1.1719682 0.13840333 92
-0.94937807 1.1697944 0.027086135 81
-0.95334083 1.170851 0.081539422 94
-0.9785524 1.1775734 0.13840333 100
-0.95569497 1.1771135 0.027225753 92
-0.9500044 1.1755749 0.081434749 98
-0.97327369 1.1818665 0.1380547 99
-0.96197885 1.1844816 0.027365373 92
-0.94665343 1.1802804 0.081330076 100
-0.9622193 1.1845475 0.13718314 98
-0.94510931 1.1854737 0.027086135 89
-0.95098513 1.1871065 0.081644088 100
-0.96076304 1.1898236 0.13718314 89
-0.9359507 1.1885215 0.026946515 89
-0.94759756 1.1918019 0.081539422 84
-0.95353502 1.1934742 0.1366602 99
-0.94986397 1.1980966 0.027225753 67
-0.93459266 1.1937379 0.08091139 72
-0.95204765 1.19872 0.1366602 100
-0.96380466 1.2075098 0.027504992 42
-0.92742318 1.196995 0.080597371 34
-0.95635992 1.205358 0.13718314 94
-0.94499618 1.207734 0.027190849 52
-0.92592365 1.2021496 0.080597371 24
-0.9471826 1.2083741 0.13648589 84
-0.92237049 1.2066951 0.026806897 75
-0.93015069 1.2090026 0.08091139 28
-0.93418235 1.2101984 0.13544002 85
-0.91509169 1.210106 0.026702182 75
-0.93052202 1.2147412 0.081016064 36
-0.9326368 1.2153765 0.13544002 98
-0.91545957 1.2157995 0.026737086 81
-0.90794176 1.2135125 0.079864666 95
-0.92916697 1.2199693 0.13526571 100
-0.91389459 1.2209122 0.026737086 89
-0.90447599 1.218011 0.07976 97
-0.92949134 1.2257164 0.13544002 98
-0.9122321 1.2262746 0.026737086 89
-0.908544 1.2251238 0.080074012 80
-0.92210525 1.2293555 0.1349171 66
-0.89918953 1.227762 0.026527658 85
-0.91075546 1.2314154 0.080283359 64
-0.90719384 1.2302904 0.13369691 50
-0.89385384 1.2313479 0.026457848 85
-0.91111976 1.2368648 0.080388032 78
-0.90376157 1.2345138 0.1335226 46
-0.89984542 1.2388463 0.026597468 92
-0.89807898 1.2382751 0.07976 97
-0.90402704 1.2401985 0.13369691 47
-0.89819998 1.2439044 0.026597468 96
-0.89263922 1.2420846 0.079550654 100
-0.92131263 1.2514676 0.13544002 63
-0.88894361 1.2464423 0.026457848 100
-0.89287847 1.2477453 0.079655327 100
-0.90449184 1.2515905 0.13404553 82
-0.8797707 1.248672 0.02631823 99
-0.88939244 1.2518933 0.079550654 100
-0.89532954 1.253881 0.13334829 90
-0.86293894 1.2485284 0.026038991 96
-0.89905173 1.2607589 0.080178685 98
-0.89363164 1.2589232 0.13334829 84
-0.86874217 1.2562973 0.02617861 93
-0.88023919 1.2602382 0.079236634 100
-0.89748412 1.2661492 0.13387123 94
-0.87837237 1.2651768 0.026388038 88
-0.86342257 1.259994 0.078399263 100
-0.90139097 1.2731566 0.13439415 85
-0.8804093 1.2714828 0.026457848 81
-0.86170357 1.2649248 0.078399263 85
-0.90150589 1.2788789 0.13456847 52
-0.85980254 1.2697911 0.0261088 79
-0.86184984 1.2705169 0.078503937 48
-0.88845354 1.2799482 0.1335226 41
-0.85060722 1.2717657 0.025969181 89
-0.86770326 1.2778904 0.078922622 17
-0.89050585 1.2860594 0.13387123 36
-0.85260755 1.2780137 0.026038991 96
-0.86216599 1.2814758 0.078713275 53
-0.88307577 1.2890491 0.13334829 20
-0.85082573 1.2829067 0.026038991 96
-0.84911901 1.2822818 0.078085244 93
-0.8831262 1.2947333 0.1335226 15
-0.85652834 1.2905697 0.02617861 100
-0.85106844 1.2885489 0.07829459 100
-0.87194318 1.2962749 0.13265105 3
-0.84346491 1.2912724 0.025969181 100
-0.84363788 1.291337 0.077980578 70
-0.87196356 1.3019333 0.13282534 1
-0.82667309 1.290476 0.025689943 100
-0.8474142 1.2983176 0.07829459 44
-0.83655244 1.2942111 0.12968774 3
-0.83418792 1.2988467 0.025864467 74
-0.83996433 1.3010538 0.077980578 55
-0.84215885 1.3018923 0.130385 15
-0.83979541 1.3065561 0.026004085 72
-0.82878608 1.3023057 0.077457212 68
-0.85330456 1.3117716 0.13160518 56
-0.83241922 1.3089827 0.025899371 78
-0.81957 1.303973 0.077038527 69
-0.84964401 1.3156984 0.13143086 100
-0.82308716 1.3108734 0.025759751 99
-0.82698911 1.3124104 0.077561885 61
-0.82919306 1.3132786 0.12968774 99
-0.81375891 1.3127055 0.025620133 99
-0.8399331 1.3231215 0.078399263 89
-0.83099061 1.3195629 0.13003637 97
-0.81556696 1.3189543 0.025689943 100
-0.82316881 1.3220103 0.077561885 97
-0.84015554 1.3288389 0.13108224 100
-0.81734794 1.3252225 0.025759751 100
-0.81198102 1.3230431 0.077038527 100
-0.83450431 1.3321888 0.13073361 100
-0.77977401 1.3099651 0.17622307 15
-0.81910187 1.3315096 0.025829561 100
-0.80265075 1.3247625 0.076619841 100
-0.81778651 1.33097 0.12933913 100
-0.7852276 1.3176167 0.17719802 15
-0.80604857 1.3316936 0.025620133 100
-0.80439645 1.3310094 0.07682918 100
-0.80109423 1.3296416 0.12794463 100
-0.79247791 1.3260725 0.17841671 17
-0.78932124 1.3302503 0.025340894 100
-0.80611497 1.3372753 0.077038527 100
-0.81016082 1.3389676 0.1289905 100
-0.77221543 1.3230946 0.17597933 16
-0.79841 1.3395907 0.025550323 100
-0.79308754 1.3373424 0.076410495 100
-0.81183714 1.3452625 0.12933913 100
-0.7556476 1.3215271 0.17402942 18
-0.80009228 1.3458631 0.025620133 81
-0.78926176 1.3412435 0.076305822 56
-0.81165344 1.3507943 0.12951343 80
-0.76832181 1.3323119 0.17597933 16
-0.81664544 1.358005 0.025969181 57
-0.81498033 1.3572886 0.077875905 55
-0.82080323 1.3597939 0.1305593 18
-0.80484182 1.3529265 0.18109785 7
-0.79991156 1.3563981 0.025689943 94
-0.80925828 1.3604581 0.077666558 100
-0.81325382 1.3621938 0.13003637 60
-0.78823298 1.3513248 0.17914793 15
-0.79042858 1.358128 0.025550323 100
-0.81622976 1.3694485 0.078189917 100
-0.8128987 1.3679869 0.13021068 100
-0.78791112 1.3570235 0.17939167 35
-0.79385251 1.3652329 0.025655037 100
-0.80317205 1.3693608 0.077561885 100
-0.81991142 1.3767751 0.13108224 100
-0.78403884 1.3608861 0.17914793 40
-0.8009997 1.3737655 0.025829561 100
-0.79935366 1.3730299 0.077457212 100
-0.81243473 1.3788759 0.1305593 100
-0.7675733 1.3588271 0.17719802 26
-0.80252951 1.3801222 0.025899371 100
-0.80452281 1.3810214 0.077875905 100
-0.8066687 1.3819895 0.13021068 100
-0.76370043 1.3626065 0.17695428 20
-0.80028421 1.3850753 0.025899371 100
-0.80772692 1.3884656 0.078189917 100
-0.80079025 1.3853059 0.12986206 100
-0.76332599 1.3682404 0.17719802 16
-0.78541082 1.383938 0.025655037 100
-0.81826252 1.3990412 0.078922622 100
-0.79863423 1.3900173 0.12986206 100
-0.76483709 1.3744794 0.1776855 16
-0.79232937 1.3928038 0.025829561 100
-0.80156451 1.3970886 0.078085244 100
-0.80369109 1.3980753 0.1305593 100
-0.78072613 1.3874202 0.18012288 14
-0.79739124 1.4008775 0.025969181 100
-0.80117613 1.4026496 0.078189917 100
-0.81231683 1.4078659 0.13160518 100
-0.76777607 1.3870111 0.17866045 7
-0.80241305 1.408994 0.0261088 100
-0.80437702 1.4099219 0.078503937 100
-0.80647904 1.4109151 0.13125655 100
-0.78535753 1.4009354 0.18134159 3
-0.79114908 1.409408 0.025934275 100
-0.80754358 1.4172242 0.078817949 100
-0.79703981 1.4122164 0.1305593 100
-0.79082352 1.4147184 0.025969181 100
-0.80718976 1.4225879 0.078922622 100
-0.80567628 1.4218602 0.13160518 100
-0.7939623 1.4220133 0.026073895 100
-0.79951268 1.4247061 0.07860861 100
-0.81414813 1.4318063 0.13265105 100
-0.80054325 1.431332 0.02624842 100
-0.79710406 1.4296479 0.07860861 100
-0.81887072 1.4403067 0.13334829 100
-0.80181223 1.4378136 0.02631823 100
-0.80195588 1.4378846 0.079027295 100
-0.79865962 1.4362562 0.13160518 100
-0.79231387 1.4389606 0.02617861 100
-0.80855411 1.4470541 0.079550654 100
-0.79989213 1.4427372 0.13195379 100
-0.78997058 1.4436419 0.02617861 100
-0.81332034 1.4553806 0.079969339 100
-0.80109578 1.449235 0.13230242 100
-0.79141527 1.4496559 0.02624842 100
-0.80047065 1.454244 0.079341307 100
-0.80428714 1.4561777 0.13282534 100
-0.79971844 1.4597943 0.026457848 100
-0.79273862 1.4562271 0.079027295 100
-0.81785077 1.4690611 0.13439415 100
-0.80085725 1.4663339 0.026527658 100
-0.79566091 1.4636552 0.079341307 100
-0.80477661 1.4683542 0.13334829 100
-0.78777295 1.4655105 0.02631823 100
-0.80563587 1.4747975 0.080074012 100
-0.80233055 1.473079 0.13334829 100
-0.78875643 1.4722669 0.026388038 96
-0.80304354 1.4797614 0.080074012 100
-0.80680209 1.481733 0.13404553 100
-0.78806454 1.4778707 0.026422944 75
-0.79349607 1.4807441 0.079655327 99
-0.80430943 1.4864647 0.13404553 98
0.12143195 1.3020797 0.13280307 5
0.15774962 1.2603096 0.010960111 25
0.15074143 1.2690698 0.033495013 28
0.16167203 1.2554066 0.054385185 25
0.13290355 1.2913671 0.1057497 10
0.15140688 1.2682379 0.12402584 42
0.20183122 1.2052079 0.128672 8
0.15416199 1.2647941 0.16978529 7
0.16684183 1.2522138 0.010750682 92
0.17103615 1.2469351 0.031924933 91
0.15336803 1.269171 0.055779677 73
0.1585255 1.2626802 0.077265166 29
0.17518818 1.2417098 0.095425025 25
0.16771749 1.2511119 0.11944643 95
0.1838792 1.2307719 0.13587044 22
0.15219954 1.2706416 0.1713382 21
0.1672042 1.2550516 0.010785587 100
0.17385712 1.2466214 0.03182026 100
0.15255693 1.2736115 0.056128297 97
0.16754007 1.254626 0.075802729 30
0.16574067 1.256906 0.098240845 36
0.16201752 1.2616237 0.12173614 100
0.19023821 1.2258645 0.13407083 46
0.14668116 1.2810569 0.17444403 42
0.16281927 1.2643228 0.010960111 100
0.18422747 1.2369903 0.031087559 100
0.14703411 1.284476 0.057174169 100
0.171767 1.2528989 0.075315252 30
0.18214464 1.2396495 0.094486415 26
0.16987497 1.2553146 0.11982805 100
0.18590325 1.2348509 0.13632034 45
0.15332189 1.2764482 0.17237349 42
0.16568846 1.2640256 0.010925206 100
0.17474106 1.2523886 0.032029606 91
0.16709256 1.2622206 0.054559495 100
0.17093268 1.2572842 0.075802729 30
0.18612987 1.2377485 0.093860678 26
0.17630827 1.2503741 0.11830158 100
0.18864331 1.2345176 0.13587044 30
0.14670026 1.2884345 0.17599694 34
0.17483398 1.2559338 0.010715778 66
0.16918832 1.2632463 0.032657638 59
0.16768163 1.2651978 0.054733805 50
0.18242615 1.2460999 0.073852822 46
0.17577493 1.254715 0.096989371 25
0.17807144 1.2517405 0.11830158 13
0.17843929 1.251264 0.14036946 21
0.14860314 1.2899092 0.17599694 48
0.18131459 1.2508276 0.010576159 54
0.18054849 1.2518268 0.03182026 30
0.16568887 1.2712061 0.055256739 49
0.18279907 1.2488916 0.07409656 61
0.19180819 1.2371422 0.093234941 53
0.18803325 1.2420653 0.11563025 13
0.19663814 1.2308431 0.13407083 23
0.15855795 1.2805061 0.17237349 57
0.17823556 1.258541 0.010715778 39
0.17506003 1.262714 0.032448292 29
0.16994154 1.2694403 0.054908119 50
0.1881631 1.2454951 0.073365346 62
0.18754157 1.2463119 0.094799288 51
0.19214368 1.2402642 0.11486702 13
0.2018699 1.2274828 0.13272113 47
0.17096055 1.2681012 0.16771474 67
0.18226901 1.2565805 0.010645968 53
0.15261188 1.2958226 0.03454173 27
0.16799602 1.2754664 0.055431053 49
0.18974191 1.2466924 0.073365346 62
0.20460626 1.2270238 0.090731993 54
0.19725621 1.2367494 0.11372216 13
0.2080887 1.2224159 0.13092151 48
0.16795531 1.2755203 0.16978529 66
0.18405488 1.257925 0.010645968 40
0.16652536 1.2812977 0.033495013 28
0.18061015 1.2625179 0.053862248 51
0.18791831 1.2527738 0.07409656 76
0.19917229 1.2377685 0.092609204 53
0.1989693 1.2380393 0.11372216 13
0.20624143 1.228343 0.13227122 31
0.18372005 1.2583714 0.16357364 69
0.18209139 1.263947 0.010750682 79
0.19685626 1.2441239 0.030982886 31
0.17986512 1.2669359 0.054210871 51
0.1918928 1.2507877 0.073609084 62
0.19246551 1.250019 0.094799288 51
0.20286879 1.2360517 0.11295892 13
0.21474767 1.2201033 0.12957181 32
0.18418759 1.2611327 0.16409127 69
0.19570684 1.2491494 0.010401634 83
0.19257614 1.2533834 0.031506244 62
0.1792329 1.2714289 0.054559495 76
0.1853117 1.2632079 0.075315252 100
0.19884104 1.2449107 0.093547814 78
0.20799944 1.2325249 0.11181407 14
0.20705199 1.2338061 0.13317102 31
0.18705276 1.2608533 0.16357364 69
0.19729772 1.2503216 0.010401634 97
0.2060023 1.2384675 0.030459527 65
0.17618078 1.2790794 0.055256739 99
0.19987339 1.246814 0.072634131 78
0.20275617 1.2428882 0.092922069 79
0.20953509 1.2336564 0.11181407 14
0.2235862 1.2145212 0.1273223 16
0.18182203 1.2713969 0.16667947 67
0.19199467 1.261308 0.010611063 94
0.20889783 1.238111 0.030354854 65
0.18274254 1.2740052 0.054559495 100
0.2074686 1.2400724 0.071415432 96
0.2068184 1.2409647 0.092296332 100
0.21123677 1.2349012 0.11181407 14
0.24013698 1.19524 0.12147357 8
0.18479991 1.2711817 0.16616182 68
0.19597045 1.2592524 0.010541254 81
0.21045202 1.2392395 0.030354854 97
0.19142389 1.2655355 0.053513627 100
0.20088324 1.2524631 0.073121607 62
0.21301416 1.2356988 0.091044858 95
0.2127803 1.236022 0.11181407 14
0.22783989 1.2152103 0.12687239 16
0.19552398 1.2598693 0.16202073 70
0.19776601 1.2605467 0.010541254 95
0.19936007 1.2583268 0.031506244 93
0.20486331 1.2506626 0.051770512 100
0.20612735 1.2489021 0.072390392 47
0.21126685 1.2417445 0.091983467 93
0.21449062 1.2372549 0.11181407 14
0.23402029 1.2100563 0.12507279 8
0.2018289 1.2548884 0.15995017 72
0.20171654 1.2584558 0.010471444 96
0.21489573 1.2399724 0.030250182 98
0.20183232 1.2582934 0.052467756 100
0.20886981 1.2484235 0.072146654 79
0.21512672 1.2396483 0.09135773 94
0.20692363 1.251153 0.11486702 20
0.22190496 1.2301421 0.13047162 16
0.19895253 1.2623322 0.16202073 70
0.210439 1.2499343 0.010262015 98
0.22008118 1.2363061 0.029936166 99
0.18981534 1.2790837 0.054559495 100
0.21865135 1.238327 0.070440479 65
0.20886385 1.2521607 0.093547814 100
0.20755553 1.2540098 0.11524864 40
0.23597461 1.2138424 0.12552269 24
0.20187515 1.2620385 0.16150309 86
0.20398551 1.2625115 0.010506349 100
0.21588859 1.2455689 0.030459527 97
0.19608691 1.2737542 0.053862248 100
0.21221814 1.2507933 0.072146654 63
0.22068474 1.2387421 0.090731993 95
0.20013362 1.2679942 0.11830158 84
0.23408738 1.2196651 0.12687239 41
0.19462433 1.275836 0.16564418 83
0.20464945 1.2654169 0.010541254 95
0.2244868 1.2369595 0.029831495 99
0.20021439 1.2717791 0.053513627 100
0.21852335 1.2455143 0.071171694 81
0.22240499 1.2399459 0.090731993 95
0.19971582 1.2724943 0.11906482 100
0.22236475 1.2400037 0.13227122 86
0.20089969 1.2707961 0.16357364 85
0.20629421 1.2665594 0.010541254 95
0.21921679 1.2478898 0.030459527 97
0.20868391 1.2631069 0.052467756 100
0.21558291 1.2531397 0.072146654 63
0.22284093 1.242654 0.091044858 100
0.2170271 1.2510533 0.11372216 100
0.22503424 1.2394853 0.13182132 86
0.20586079 1.2671856 0.16202073 78
0.22388256 1.2446814 0.010052586 86
0.22427988 1.244103 0.030145511 98
0.2081508 1.2675797 0.05281638 100
0.22401592 1.2444872 0.070684217 65
0.22225562 1.2470493 0.091670595 100
0.21982002 1.2505945 0.11334054 100
0.22115752 1.2486477 0.13407083 93
0.21197411 1.2620146 0.15995017 72
0.21418965 1.2622795 0.010401634 83
0.2337324 1.2336309 0.029412808 67
0.20643443 1.2736483 0.053339314 100
0.22111654 1.2521251 0.071659178 80
0.2227262 1.2497654 0.091983467 93
0.22362825 1.2484431 0.1125773 100
0.23263007 1.2352469 0.13002171 96
0.21143025 1.2663246 0.16098544 72
0.21487537 1.2651632 0.010436539 41
0.23207545 1.2397492 0.029726824 67
0.21051615 1.2716041 0.05299069 79
0.22622374 1.2483954 0.070927955 48
0.23445153 1.2362385 0.089167647 100
0.22648442 1.2480102 0.11219569 91
0.24198323 1.2251099 0.12687239 100
0.21325165 1.2675623 0.16098544 72
0.21874988 1.2629522 0.010366729 41
0.22695118 1.2507473 0.030354854 32
0.21773762 1.2644585 0.052119136 54
0.22670475 1.2511141 0.071171694 81
0.23599935 1.2372823 0.089167647 100
0.22916633 1.2474508 0.11181407 98
0.23262513 1.2423036 0.13137141 94
0.22136837 1.2590555 0.15787962 73
0.22499579 1.2575076 0.01022711 42
0.21763662 1.2685463 0.031401575 31
0.22397286 1.259042 0.051421888 55
0.2317737 1.2473407 0.070440479 98
0.23990563 1.2351427 0.08854191 98
0.23418546 1.243723 0.11066922 92
0.23868221 1.2369778 0.12957181 96
0.22530624 1.2570419 0.15684435 74
0.22219938 1.2652527 0.010366729 27
0.22370112 1.2629838 0.030982886 31
0.21569929 1.2750733 0.05299069 52
0.23445401 1.246738 0.07019674 82
0.24254009 1.2345213 0.088229038 100
0.24225968 1.2349449 0.10837951 87
0.23377898 1.2477579 0.13227122 94
0.2247906 1.2613378 0.15787962 81
0.22401676 1.2664509 0.010366729 27
0.21674019 1.2775326 0.03182026 30
0.22630134 1.2629716 0.051596198 54
0.23620346 1.2478913 0.07019674 82
0.23340231 1.2521572 0.09135773 100
0.24073312 1.240993 0.10952436 85
0.24301949 1.2375109 0.1291219 96
0.22129187 1.2706007 0.1604678 72
0.23440117 1.2541276 0.010087491 28
0.22278789 1.2719424 0.031401575 31
0.2235857 1.2707186 0.052293446 53
0.23995805 1.2456033 0.069709264 83
0.24902678 1.231692 0.087290429 85
0.24015239 1.2453053 0.1102876 92
0.24776414 1.2336289 0.1277722 89
0.22189876 1.2733064 0.16098544 72
0.22966236 1.2653562 0.010296919 42
0.23547548 1.256367 0.030354854 32
0.22975078 1.2652194 0.051596198 54
0.2417033 1.2467365 0.069709264 83
0.24643025 1.239427 0.08854191 84
0.24083045 1.2480862 0.11066922 85
0.24946547 1.2347335 0.1277722 97
0.22899091 1.2663944 0.15839726 73
0.23778868 1.2563192 0.010087491 71
0.23816904 1.2557266 0.030250182 65
0.22924203 1.2696319 0.051944822 54
0.23363408 1.2627906 0.071902916 48
0.25225732 1.2337819 0.087290429 85
0.25196323 1.2342401 0.10723466 88
0.25521937 1.2291681 0.12597258 90
0.23690078 1.2577021 0.15529142 75
0.23527664 1.264207 0.01022711 84
0.24746126 1.2450737 0.029517479 67
0.23321587 1.2674431 0.051596198 82
0.24503905 1.2488773 0.069709264 66
0.24971485 1.2415348 0.08854191 70
0.25577587 1.2320173 0.10647142 73
0.25585753 1.2318891 0.12642249 74
0.2345396 1.2653644 0.15736198 74
0.24225995 1.2567966 0.010052586 86
0.24476936 1.2528272 0.029936166 66
0.22954398 1.2769113 0.052467756 80
0.24768949 1.2482079 0.069465525 49
0.24916908 1.2458675 0.089167647 70
0.2468189 1.249585 0.1102876 85
0.26051477 1.2279204 0.12507279 92
0.23102257 1.2745724 0.15995017 64
0.24298385 1.2596154 0.010087491 71
0.25184628 1.2454821 0.029412808 100
0.23140407 1.2780824 0.052467756 80
0.25471714 1.2409039 0.068246834 85
0.26350826 1.2268841 0.085413218 73
0.25066468 1.2473664 0.10952436 78
0.26633614 1.2223743 0.12327318 85
0.23697925 1.2691914 0.15787962 65
0.24355245 1.2623286 0.010122396 85
0.25342467 1.2464682 0.029412808 100
0.24361923 1.2622213 0.05072464 84
0.24788833 1.2553627 0.07019674 66
0.26084948 1.2345397 0.086664692 71
0.24083728 1.2666907 0.11372216 100
0.26474845 1.2282758 0.12462288 83
0.24476153 1.2603861 0.15477379 67
0.24527287 1.2633953 0.010122396 85
0.24879265 1.2576963 0.03004084 100
0.24219844 1.2683733 0.051247578 82
0.2485413 1.2581033 0.070440479 49
0.26247278 1.2355462 0.086664692 57
0.25907907 1.2410412 0.10761628 72
0.26532587 1.2309268 0.12507279 83
0.24647516 1.2614486 0.15477379 67
0.25736207 1.2473547 0.0097733475 89
0.25667474 1.2484758 0.029412808 100
0.25114202 1.2575009 0.050027397 85
0.25638658 1.248946 0.068978049 50
0.26401818 1.2364972 0.086664692 57
0.25448617 1.2520459 0.10990598 92
0.26278192 1.2385137 0.12687239 99
0.24406782 1.2690403 0.15684435 66
0.25288033 1.2586761 0.0099827768 100
0.2646561 1.2393084 0.028784776 100
0.23533437 1.287534 0.05299069 79
0.26020658 1.2466265 0.068490572 50
0.26367739 1.2409179 0.087290429 57
0.25931478 1.2480931 0.10876112 79
0.27158788 1.2279074 0.12372308 83
0.24188441 1.2767611 0.15891489 65
0.26070172 1.2493861 0.0097733475 89
0.26105419 1.2488019 0.029308135 100
0.24734664 1.2715163 0.051247578 82
0.26384005 1.2441857 0.068003096 51
0.27034381 1.2334085 0.08572609 58
0.25380114 1.2608207 0.11143246 84
0.2781423 1.2204859 0.12147357 86
0.24157029 1.2810881 0.15995017 64
0.25937992 1.2555907 0.0098780617 73
0.25768265 1.2584267 0.029831495 99
0.25020999 1.2709126 0.051073264 83
0.25844395 1.2571547 0.069709264 66
0.27305859 1.2327354 0.085413218 58
0.25761849 1.258534 0.11066922 78
0.27379069 1.2315121 0.12417299 92
0.25138226 1.2689538 0.15580906 67
0.25997058 1.2582711 0.0099129668 87
0.26542386 1.2490903 0.029203463 100
0.26001272 1.2582002 0.049678773 86
0.2570197 1.2632389 0.070440479 49
0.27257699 1.2370479 0.086038955 58
0.26826373 1.2443094 0.10723466 81
0.27930346 1.2257237 0.12237337 76
0.25698483 1.2632977 0.15373851 76
0.26785165 1.2489928 0.0097035384 90
0.25907224 1.2638973 0.03004084 100
0.25573671 1.2695599 0.05072464 84
0.26487455 1.2540469 0.068978049 50
0.27228549 1.2414657 0.086664692 57
0.27100047 1.2436472 0.10685304 81
0.27504122 1.2367873 0.12507279 83
0.25487289 1.2710264 0.15580906 67
0.26540479 1.2568312 0.0098431576 88
0.26675951 1.2545139 0.029412808 100
0.26443356 1.2584927 0.049504463 86
0.27249226 1.2447073 0.067515619 51
0.27385047 1.242384 0.086664692 57
0.26960024 1.2496545 0.10799789 87
0.28249159 1.2276025 0.12237337 85
0.25458604 1.2753379 0.15684435 66
0.2681939 1.2561411 0.0098082526 74
0.27454713 1.2451811 0.028784776 100
0.26023066 1.2698784 0.05055033 84
0.27224293 1.2491561 0.068003096 51
0.27756503 1.239975 0.086038955 58
0.26643717 1.2591715 0.10990598 78
0.28514791 1.2268939 0.12192347 76
0.26317957 1.2647913 -0.0099827768 75
0.25450248 1.2797599 0.15787962 65
0.26581904 1.2640063 0.0099478718 73
0.27612439 1.246092 0.028784776 100
0.26586384 1.2639284 0.049853086 85
0.26987401 1.2569573 0.068978049 50
0.28109503 1.2374513 0.085413218 58
0.26903984 1.2584074 0.10952436 99
0.28666446 1.2277696 0.12192347 76
0.26775411 1.2606425 0.15166797 69
0.2706039 1.2598336 0.0098431576 88
0.27589208 1.2505623 0.028994121 100
0.27063751 1.2597746 0.049330149 87
0.26969361 1.2614294 0.069465525 49
0.28183141 1.2401496 0.08572609 58
0.28055894 1.2423804 0.10570818 73
0.28544748 1.2338099 0.12327318 85
0.2733829 1.2549614 0.14959741 70
0.27715477 1.252056 0.0096686333 90
0.27158439 1.2618976 0.029622151 100
0.26539341 1.2728357 0.05055033 84
0.27132481 1.2623563 0.069465525 49
0.28241894 1.2427554 0.086038955 58
0.27922577 1.248397 0.10685304 81
0.28122759 1.2448603 0.12597258 90
0.26927477 1.2659782 -0.0099478718 86
0.26547679 1.2726884 0.15477379 67
0.27990204 1.2513089 0.0096337283 90
0.28120854 1.2489808 0.028784776 100
0.27406359 1.2617129 0.049330149 87
0.28381741 1.2443318 0.066784397 34
0.28802034 1.2368423 0.084787481 59
0.27809864 1.2545226 0.10799789 87
0.28964558 1.2339461 0.12282328 76
0.27110279 1.266989 0.15270324 68
0.27371699 1.2661788 0.0099129668 87
0.28279838 1.2498695 0.028784776 100
0.26988003 1.2730696 0.05037602 84
0.28152892 1.2521493 0.067759357 34
0.28860888 1.2394344 0.085100345 58
0.27493137 1.2639979 0.10990598 78
0.29497766 1.2279966 0.12102367 77
0.27274415 1.267926 -0.0099478718 86
0.26711348 1.278038 0.15580906 75
0.27940309 1.2601855 0.0097733475 89
0.29228091 1.2368574 0.0279474 100
0.27557731 1.2671158 0.049678773 86
0.28233853 1.2548679 0.068003096 51
0.29701385 1.2282836 0.082910269 60
0.28148785 1.2564089 0.10799789 79
0.29759982 1.2272222 0.12057377 86
0.28230235 1.2549335 -0.0096686333 89
0.27831373 1.2621589 0.15063268 70
0.28391191 1.2558185 0.0096686333 75
0.28807384 1.2482197 0.028575432 100
0.29062667 1.2435589 0.047238413 91
0.27822635 1.2661991 0.069465525 49
0.2928414 1.2395152 0.084787481 59
0.28970402 1.2452434 0.10532656 82
0.2953729 1.2348933 0.12237337 85
0.27814826 1.2663417 -0.0098780617 87
0.2873714 1.2495022 0.14649157 72
0.28456962 1.2584553 0.0097035384 90
0.28393939 1.2596151 0.029203463 100
0.28649068 1.25492 0.048284281 88
0.29124704 1.2461672 0.066540658 52
0.29534298 1.2386297 0.084474608 59
0.29315618 1.242654 0.10456333 82
0.29877684 1.2323105 0.12147357 86
0.28158379 1.2639499 0.15063268 70
0.28619087 1.2593328 0.0097035384 90
0.29314685 1.2464303 0.028366089 100
0.28053629 1.2698213 0.049678773 86
0.29000142 1.2522647 0.067271881 69
0.29314876 1.2464268 0.08572609 58
0.29099834 1.2504156 0.1060898 73
0.29938653 1.2348565 0.12192347 76
0.27955624 1.2716391 0.15270324 68
0.28995609 1.2568145 0.0096337283 90
0.28339621 1.2690949 0.049504463 57
0.29091978 1.2550104 0.067515619 51
0.29191989 1.2531382 0.10647142 73
0.28336078 1.2691612 -0.0098780617 87
0.27693325 1.2811937 0.15529142 67
0.28876284 1.262975 0.0097384425 75
0.29843307 1.2447265 0.028156744 100
0.28971729 1.2611738 0.048632905 88
0.29252955 1.2558669 0.067515619 51
0.29352346 1.2539914 0.10647142 73
0.29250818 1.2559072 -0.0095988233 90
0.28677106 1.2667336 0.15063268 70
0.29995307 1.2462692 0.0093893949 77
0.29716206 1.2515854 0.047587037 90
0.28701502 1.2709126 0.069465525 49
0.28693947 1.2710564 -0.0098780617 87
0.28957832 1.2660302 0.15011504 78
0.29814637 1.2536002 0.028575432 100
0.29876044 1.2524211 0.047587037 90
0.29417908 1.2612181 0.068003096 51
0.29211697 1.2651777 0.14959741 70
0.296864 1.260442 0.0096337283 100
0.29047841 1.2728139 0.049504463 57
0.29659173 1.2609695 0.1480445 79
0.29849178 1.2612787 0.0096337283 100
0.294871 1.2683513 0.048981529 58
0.29381952 1.2704052 0.15063268 70
0.29839811 1.26572 0.0097035384 100
0.29206279 1.2782021 -0.0099478718 100
