# .PCD v0.7 - Point Cloud Data file format
VERSION 0.7
FIELDS x y z intensity
SIZE 4 4 4 4
TYPE F F F F
COUNT 1 1 1 1
WIDTH 728
HEIGHT 1
VIEWPOINT 0 0 0 1 0 0 0
POINTS 728
DATA ascii
0.054417968 0.0021849275 0.015951499 123
0.047490418 0.0032536983 0.04804441 29
0.053621978 0.018345594 0.047207031 100
0.038830578 0.0017921925 0.048358422 100
0.037264347 0.0052400827 0.048253752 61
0.031512022 0.0018883944 0.048567768 25
0.032203555 0.0086574554 0.048253752 17
0.041708946 0.028770208 0.047102362 20
0.0266366 0.012473524 0.048253752 8
0.031101942 0.023959339 0.047625721 9
0.019331753 0.012689948 0.048463095 8
-1.0503781 1.1362416 0.028656852 3
-1.0036488 1.1255476 0.083528183 5
-1.0309358 1.1317922 0.14188954 6
-1.0277288 1.1365684 0.028272899 8
-0.9810614 1.1257257 0.082376793 22
-1.0258458 1.136131 0.14154093 34
-1.0050311 1.1370207 0.027888946 28
-0.9973051 1.1351972 0.083318844 84
-1.0168018 1.1397988 0.14084367 81
-0.98630339 1.1379831 0.027574802 40
-1.0019124 1.141722 0.083632857 100
-1.0039413 1.1422079 0.13979781 87
-0.98099333 1.1429329 0.027504992 42
-0.98300904 1.1434238 0.082690813 100
-1.0025008 1.1481718 0.13979781 86
-0.98557216 1.1494468 0.027609708 26
-0.98176235 1.1485054 0.082690813 99
-0.99350137 1.1514062 0.13910057 91
-0.98229867 1.1543182 0.027574802 23
-0.97849447 1.1533642 0.082586139 56
-0.99989063 1.1587305 0.13979781 76
-0.97713977 1.1584116 0.027504992 36
-0.97721487 1.1584307 0.082586139 38
-0.99086946 1.1619036 0.13910057 80
-0.96408886 1.1610062 0.027295563 61
-0.9893176 1.1675214 0.083318844 63
-0.9739899 1.163563 0.13770607 91
-0.9549771 1.1642619 0.027155945 68
-0.97632819 1.1698554 0.082690813 100
-0.98031622 1.1709 0.13840333 91
-0.9496569 1.1687475 0.027086135 78
-0.95941097 1.1713411 0.081853434 94
-0.9788366 1.1765063 0.13840333 99
-0.95597881 1.1760623 0.027225753 92
-0.94450206 1.1729678 0.081120729 98
-0.97356087 1.1808031 0.1380547 100
-0.95469564 1.1807914 0.027225753 92
-0.95093566 1.179765 0.081539422 100
-0.96457464 1.1834885 0.13735744 100
-0.94554359 1.1839077 0.027086135 88
-0.94949621 1.1850017 0.081539422 100
-0.95928162 1.1877099 0.13700883 91
-0.93638819 1.1869652 0.026946515 93
-0.9403463 1.1880755 0.081120729 86
-0.95589596 1.1924376 0.13683452 98
-0.94069403 1.1937916 0.027051231 75
-0.93503565 1.192183 0.08091139 78
-0.95057935 1.1966019 0.13648589 100
-0.96410972 1.2064528 0.027504992 50
-0.9334783 1.197623 0.08091139 44
-0.95092016 1.2026508 0.1366602 100
-0.94722086 1.2072508 0.027225753 46
-0.92430788 1.2005591 0.080492698 22
-0.95322579 1.2090044 0.13700883 84
-0.92459255 1.2062343 0.026841801 71
-0.92088073 1.2051363 0.080388032 28
-0.93448931 1.2091622 0.13544002 84
-0.91156751 1.2079352 0.026632372 75
-0.92700571 1.212561 0.080806717 26
-0.92913026 1.2131976 0.13509139 94
-0.91385692 1.2141956 0.026702182 75
-0.91589588 1.2148143 0.080283359 84
-0.93329376 1.2200936 0.13561434 99
-0.91420895 1.2198901 0.026737086 81
-0.90860671 1.2181687 0.079969339 100
-0.93552262 1.2264389 0.13596296 99
-0.91652817 1.2259305 0.026806897 88
-0.90520531 1.2224102 0.079864666 93
-0.91687781 1.2260392 0.13439415 75
-0.90348297 1.2274449 0.026597468 88
-0.91123778 1.2298855 0.080283359 70
-0.9038741 1.2275679 0.13334829 56
-0.89425594 1.2300878 0.026457848 85
-0.90962356 1.2349833 0.080283359 70
-0.90036958 1.2320354 0.13317397 46
-0.89264113 1.2351264 0.026457848 85
-0.90038794 1.237624 0.079864666 89
-0.90822929 1.2401521 0.13404553 45
-0.89109081 1.2399077 0.026457848 96
-0.88743621 1.2387161 0.079236634 100
-0.91234487 1.2468382 0.13456847 57
-0.89703768 1.2474415 0.026597468 100
-0.88958472 1.2449824 0.07944598 100
-0.91067153 1.2519399 0.13456847 80
-0.88389796 1.2489408 0.026388038 100
-0.89730603 1.2534193 0.079969339 100
-0.89944643 1.2541342 0.13369691 84
-0.87085062 1.2501023 0.02617861 93
-0.88804108 1.255911 0.079550654 100
-0.90718549 1.2623798 0.13456847 78
-0.87303537 1.2561042 0.02624842 96
-0.87886173 1.2580945 0.079131968 100
-0.89988834 1.2652771 0.13404553 91
-0.87132984 1.2610686 0.02624842 92
-0.86959821 1.2604703 0.078713275 100
-0.89250118 1.2683833 0.1335226 99
-0.87707108 1.2689145 0.026388038 83
-0.86024958 1.2630335 0.07829459 91
-0.89818794 1.2762971 0.13421984 61
-0.86409599 1.2696469 0.02617861 77
-0.86425632 1.2697035 0.07860861 57
-0.88710815 1.2777779 0.13334829 39
-0.85669392 1.2725617 0.026073895 88
-0.86250347 1.2746372 0.07860861 23
-0.88720316 1.2834616 0.1335226 39
-0.85690051 1.2779026 0.0261088 96
-0.85706502 1.2779621 0.078399263 42
-0.8705005 1.2828124 0.1321281 26
-0.85511905 1.2828106 0.0261088 96
-0.8477785 1.2801316 0.077980578 78
-0.87431663 1.2898169 0.13265105 15
-0.85716325 1.2888509 0.02617861 100
-0.85170096 1.2868369 0.07829459 100
-0.87071568 1.293848 0.13247673 9
-0.84026271 1.2884156 0.025899371 100
-0.84231168 1.2891796 0.077875905 89
-0.87251979 1.3004439 0.13282534 1
-0.83105057 1.2902035 0.025759751 100
-0.83871335 1.2930897 0.077771232 48
-0.86329502 1.302349 0.1321281 1
-0.84408468 1.3009557 0.026038991 85
-0.83865327 1.298887 0.077875905 53
-0.8501628 1.3032706 0.13108224 11
-0.84044987 1.3048577 0.026004085 72
-0.83689171 1.303489 0.077875905 68
-0.86326319 1.3136332 0.13247673 48
-0.83848017 1.3099504 0.026004085 75
-0.83120424 1.3071209 0.077666558 74
-0.85011965 1.3144767 0.13143086 100
-0.8236528 1.3094351 0.025759751 93
-0.82941538 1.3116982 0.077666558 63
-0.8353247 1.3140187 0.13021068 100
-0.81051475 1.3100398 0.025550323 100
-0.83113343 1.3182241 0.077875905 82
-0.83146971 1.3183575 0.13003637 99
-0.81985337 1.3190119 0.025759751 100
-0.82003838 1.3190861 0.077352546 95
-0.83334249 1.3244181 0.130385 97
-0.81422156 1.3222895 0.025689943 100
-0.81811339 1.3238649 0.077352546 95
-0.83878595 1.332234 0.13108224 100
-0.81608468 1.3283234 0.025759751 100
-0.8162691 1.3283987 0.077352546 100
-0.81847078 1.3292986 0.12933913 100
-0.80427104 1.3234951 0.17963541 21
-0.80293947 1.3287468 0.025550323 100
-0.80682915 1.3303531 0.076933853 100
-0.80904561 1.3312684 0.12864187 100
-0.77838117 1.3186045 0.17646681 16
-0.79369622 1.3301524 0.025410704 100
-0.80496353 1.3348494 0.076933853 100
-0.81085485 1.3373053 0.1289905 100
-0.77838689 1.3237703 0.17671055 18
-0.79163414 1.3350735 0.025410704 100
-0.79184026 1.3351603 0.076305822 100
-0.81243879 1.3438361 0.12933913 100
-0.77086002 1.3263237 0.17597933 20
-0.80447549 1.3457779 0.025689943 96
-0.7862826 1.3380442 0.076096483 67
-0.81236202 1.3491304 0.12951343 99
-0.76352721 1.328371 0.17524812 16
-0.82461125 1.3597271 0.0261088 60
-0.81375915 1.3550715 0.077771232 48
-0.81043404 1.353645 0.12951343 33
-0.78355998 1.3421156 0.17817298 7
-0.80796736 1.3579264 0.025829561 86
-0.81181151 1.3595906 0.077771232 93
-0.83043176 1.3676522 0.13160518 48
-0.80351561 1.355999 0.18109785 12
-0.78361374 1.3537506 0.025410704 100
-0.81675237 1.3682561 0.078189917 100
-0.81707031 1.3683953 0.1305593 100
-0.78296727 1.3534677 0.17866045 38
-0.79081672 1.3622094 0.025585229 100
-0.81293398 1.371978 0.078085244 100
-0.82236868 1.3761452 0.13125655 100
-0.78102511 1.3578846 0.17866045 42
-0.79594213 1.3703783 0.025724847 100
-0.80707043 1.3753422 0.077875905 100
-0.81285948 1.3779246 0.1305593 100
-0.75891954 1.3538637 0.17597933 28
-0.80113178 1.3783568 0.025864467 100
-0.80312794 1.3792555 0.077771232 100
-0.80709571 1.3810421 0.13021068 100
-0.77678424 1.3673942 0.17866045 21
-0.78989738 1.3789327 0.025689943 100
-0.80826622 1.3872806 0.078189917 100
-0.80132669 1.3841269 0.12986206 100
-0.76926929 1.369558 0.17792924 16
-0.79321653 1.3861072 0.025794657 100
-0.8133648 1.3953488 0.07860861 100
-0.80641872 1.3921628 0.1305593 100
-0.76536399 1.3733318 0.1776855 15
-0.79105765 1.3907921 0.025794657 100
-0.80211121 1.395909 0.078085244 100
-0.81147093 1.4002416 0.13125655 100
-0.7578457 1.3754179 0.17695428 9
-0.79612952 1.398855 0.025934275 100
-0.79810852 1.3997796 0.077980578 100
-0.80926269 1.4049902 0.13125655 100
-0.76831406 1.3858607 0.17866045 7
-0.79765469 1.4050202 0.026004085 100
-0.80504638 1.4085033 0.078503937 100
-0.80354482 1.4077957 0.13090792 100
-0.77703887 1.395306 0.18012288 5
-0.79723579 1.4105792 0.026038991 100
-0.80641681 1.4149446 0.078713275 100
-0.80131024 1.4125166 0.13090792 100
-0.76409155 1.39482 0.17866045 3
-0.78597683 1.4109532 0.025864467 100
-0.80955952 1.4222672 0.079027295 100
-0.80265194 1.4189532 0.13125655 100
-0.7891311 1.4182265 0.025969181 100
-0.80008358 1.4235282 0.07860861 100
-0.81293172 1.4297476 0.13247673 100
-0.79427665 1.4259379 0.0261088 100
-0.79443377 1.4260147 0.078399263 100
-0.80906183 1.4331524 0.13230242 100
-0.80274338 1.4359255 0.02631823 100
-0.79930335 1.434232 0.078817949 100
-0.81031376 1.4396522 0.13265105 100
-0.78954846 1.4355406 0.0261088 100
-0.80401438 1.4427278 0.079236634 100
-0.80428165 1.4428606 0.13230242 100
-0.78721708 1.4402124 0.0261088 100
-0.80344337 1.4483449 0.079341307 100
-0.80014342 1.446691 0.1321281 100
-0.78486949 1.4448761 0.0261088 100
-0.79750246 1.451263 0.079131968 100
-0.80488545 1.4549956 0.13282534 100
-0.80031985 1.4586161 0.026457848 100
-0.79333693 1.4550551 0.079027295 100
-0.8220101 1.4696774 0.13474278 100
-0.79790789 1.4633255 0.026457848 100
-0.79981786 1.4643078 0.079550654 100
-0.80715722 1.468083 0.1335226 100
-0.78837937 1.4643428 0.02631823 100
-0.80447751 1.4726944 0.079969339 100
-0.80471224 1.4728162 0.1335226 100
-0.77898163 1.4650701 0.02617861 100
-0.80037004 1.4762566 0.079864666 100
-0.80237406 1.4773047 0.1335226 100
-0.79069716 1.4771684 0.026457848 92
-0.79083019 1.4772387 0.07944598 100
-0.80518371 1.4848096 0.13404553 100
-0.80234414 1.489357 0.026737086 26
-0.77601022 1.4753489 0.078713275 23
-0.80795735 1.4923427 0.13456847 50
0.10844836 1.3168302 0.13661924 5
0.16590869 1.2489102 0.010715778 13
0.13763613 1.2841623 0.03454173 27
0.14612079 1.2735831 0.056476921 24
0.082831025 1.3524969 0.11826446 8
0.14097196 1.280003 0.12707879 17
0.20008054 1.2063025 0.1291219 8
0.1354278 1.2869158 0.17754987 6
0.16019425 1.259702 0.010925206 52
0.17062011 1.2466043 0.031924933 61
0.15913674 1.2610306 0.054908119 50
0.14696908 1.2763164 0.07945881 14
0.16247427 1.2568377 0.09855371 24
0.15384817 1.2676744 0.12364423 73
0.18590456 1.2274029 0.13497064 15
0.15898159 1.2612255 0.16823238 15
0.16182029 1.2609921 0.010925206 100
0.17963475 1.2384592 0.031296901 100
0.14717495 1.2795162 0.056825545 95
0.16219276 1.2605208 0.076777689 29
0.16531593 1.2565706 0.098240845 24
0.16280624 1.2597449 0.12135452 100
0.19346631 1.2209643 0.13272113 39
0.14982966 1.2761583 0.17289113 42
0.16115361 1.2655578 0.010995016 100
0.17518958 1.2476699 0.03182026 100
0.15150496 1.2778543 0.056476921 100
0.16154239 1.2650623 0.077265166 29
0.18173492 1.2393284 0.094486415 39
0.16096804 1.2657943 0.12249938 100
0.19151261 1.2268674 0.13407083 46
0.14930242 1.2806613 0.1739264 35
0.16771591 1.2605355 0.010855397 100
0.17554793 1.2504857 0.031924933 91
0.16053957 1.2697439 0.055431053 99
0.15708503 1.2741766 0.078483857 28
0.18815035 1.2343146 0.093234941 26
0.17347559 1.2531447 0.11906482 100
0.19422752 1.2265165 0.13362093 31
0.15456057 1.277416 0.17237349 42
0.17065424 1.2602853 0.010820492 78
0.17478302 1.2549491 0.032134276 60
0.1586287 1.2758276 0.055953987 73
0.16370639 1.2692651 0.077508904 29
0.17526752 1.2543228 0.096989371 25
0.17756715 1.2513506 0.11830158 26
0.18628311 1.2400857 0.13722014 22
0.15751636 1.2772653 0.17185585 29
0.17837438 1.2536125 0.010645968 66
0.17030844 1.264109 0.032657638 29
0.16152224 1.275543 0.055779677 49
0.18592644 1.2437847 0.073365346 46
0.18530107 1.2445985 0.094799288 51
0.1875391 1.2416861 0.11563025 13
0.18309438 1.2474701 0.13901976 29
0.14978382 1.2908187 0.17599694 61
0.17772415 1.2581514 0.010715778 66
0.18181115 1.2527924 0.03182026 30
0.16458595 1.2753792 0.055605363 49
0.18405408 1.2498512 0.07409656 61
0.18344936 1.2506442 0.095737889 38
0.19879457 1.2305226 0.1125773 13
0.19902757 1.2302171 0.13362093 46
0.17278212 1.2646317 0.16667947 67
0.17460212 1.2658252 0.010855397 39
0.18108746 1.2572594 0.032029606 30
0.16394708 1.2798983 0.055953987 48
0.19052431 1.2447951 0.073121607 62
0.18870652 1.2471961 0.094799288 51
0.18618339 1.2505286 0.11715672 13
0.2065177 1.2236711 0.13137141 47
0.17217878 1.2690259 0.16771474 67
0.16672319 1.2799205 0.011134636 37
0.17079026 1.2745095 0.033076324 29
0.17889747 1.2637236 0.054036561 51
0.17667848 1.2666757 0.076290213 44
0.20817769 1.2247684 0.090106249 55
0.19612017 1.24081 0.1144854 13
0.20927429 1.2233095 0.13092151 40
0.17856592 1.2641647 0.16564418 68
0.1852482 1.2588177 0.010645968 53
0.16777584 1.2822331 0.033495013 28
0.1818147 1.2634192 0.053862248 51
0.19384772 1.2472932 0.073121607 78
0.2038604 1.2338748 0.091670595 54
0.20011398 1.2388955 0.11372216 13
0.20852783 1.2276198 0.13182132 31
0.18260381 1.2623615 0.16460891 69
0.19758645 1.2455648 0.010331824 98
0.19801581 1.2449855 0.030982886 31
0.18938413 1.2566335 0.05299069 79
0.19897813 1.2436869 0.072390392 95
0.20069614 1.2413685 0.092922069 79
0.20400861 1.2368984 0.11295892 13
0.21816897 1.2177898 0.128672 32
0.17963779 1.2697856 0.16667947 67
0.19213882 1.2564569 0.010541254 81
0.19612539 1.2510376 0.031296901 62
0.17927858 1.2739383 0.054733805 75
0.19710478 1.2497063 0.073121607 78
0.20234364 1.2425849 0.092922069 79
0.21145737 1.2301962 0.11105084 14
0.21857929 1.220515 0.1291219 24
0.18596369 1.264851 0.16460891 69
0.19383904 1.2577031 0.010541254 81
0.21311945 1.2313018 0.029936166 66
0.18574005 1.2687932 0.054036561 77
0.20580581 1.2413166 0.071659178 80
0.20632538 1.2406051 0.092296332 100
0.2084344 1.2377172 0.1125773 13
0.23049751 1.2075053 0.12507279 16
0.18883258 1.2645586 0.16409127 69
0.19202253 1.2638004 0.010645968 66
0.21004266 1.2389431 0.030354854 65
0.18748337 1.2700617 0.054036561 77
0.18764597 1.2698374 0.075802729 100
0.21144846 1.2370038 0.09135773 100
0.20545989 1.2452645 0.11410378 13
0.23774558 1.2007291 0.12282328 17
0.19396275 1.2611239 0.16253836 70
0.20184025 1.2536244 0.010401634 97
0.21159962 1.2400677 0.030354854 65
0.1926358 1.2664102 0.053513627 100
0.19742399 1.2597589 0.07409656 61
0.21299896 1.2381239 0.09135773 100
0.22309625 1.224098 0.10876112 14
0.23462144 1.2080884 0.12462288 16
0.20575148 1.2481914 0.15787962 73
0.20120522 1.2580907 0.010471444 82
0.21208128 1.2428712 0.030459527 97
0.19205397 1.2708967 0.053862248 100
0.20836899 1.2480659 0.072146654 79
0.21004105 1.2457262 0.092609204 100
0.22011751 1.2316256 0.1102876 21
0.23501956 1.2107722 0.12507279 16
0.20180675 1.2572489 0.1604678 72
0.2005972 1.2625673 0.010541254 81
0.20911175 1.250564 0.030878214 95
0.19149911 1.2753932 0.054210871 100
0.21003985 1.2492557 0.072146654 79
0.21284661 1.2452989 0.092296332 100
0.2092362 1.2503885 0.1144854 27
0.23205012 1.2182268 0.12687239 16
0.19903886 1.2647641 0.16253836 70
0.19771364 1.2703241 0.010680873 93
0.22228992 1.2354205 0.029831495 99
0.19900075 1.2684962 0.053339314 78
0.21400052 1.2471931 0.071659178 64
0.22246858 1.2351667 0.090106249 96
0.19735175 1.270838 0.11906482 65
0.23249474 1.2209272 0.1273223 32
0.19743145 1.2707249 0.16409127 69
0.19946223 1.2715508 0.010680873 93
0.22048408 1.2414727 0.030145511 98
0.20188433 1.2680852 0.053165004 100
0.2099824 1.2564986 0.072877869 47
0.22748917 1.2314497 0.089167647 98
0.20135149 1.2688476 0.11830158 100
0.23183799 1.2252274 0.12822211 65
0.20582154 1.2624519 0.16098544 72
0.21489295 1.2530549 0.010262015 98
0.22440869 1.2393379 0.029936166 66
0.20362508 1.2692974 0.053165004 100
0.22186613 1.243003 0.070684217 81
0.22572401 1.2374419 0.090106249 96
0.22323781 1.2410257 0.11143246 84
0.22232121 1.242347 0.13272113 94
0.2141495 1.2541265 0.15787962 73
0.21195921 1.2607507 0.010401634 97
0.21803597 1.2519287 0.03066887 96
0.20754316 1.2671616 0.05281638 100
0.21104956 1.2620713 0.073365346 100
0.22055247 1.2482754 0.091983467 100
0.22925636 1.2356396 0.10990598 85
0.23052213 1.233802 0.13002171 88
0.20918149 1.2647831 0.16098544 72
0.21367431 1.2619276 0.010401634 97
0.23437428 1.2316508 0.029308135 68
0.20478272 1.274933 0.053513627 100
0.23069516 1.2370321 0.069465525 49
0.22110909 1.2510531 0.092296332 100
0.22423545 1.2464803 0.11219569 100
0.23214304 1.2349143 0.13002171 96
0.21309134 1.2627803 0.15995017 72
0.21651635 1.261444 0.010366729 69
0.23710915 1.231097 0.029203463 68
0.20542863 1.2777836 0.053687938 78
0.22898343 1.2430716 0.07019674 82
0.23166376 1.2391217 0.089793384 100
0.22700304 1.24599 0.11181407 98
0.23705053 1.2311834 0.128672 97
0.20938978 1.2719462 0.16253836 70
0.21376562 1.2692394 0.010506349 40
0.21752235 1.2636614 0.03119223 31
0.21054214 1.2740257 0.053165004 52
0.22176552 1.2573612 0.072146654 79
0.23992407 1.2303995 0.087916173 98
0.22318301 1.2552565 0.11372216 100
0.23757368 1.2338893 0.1291219 96
0.21761894 1.2635181 0.15943253 73
0.22662294 1.2537851 0.0101573 42
0.22590703 1.2548562 0.030564198 32
0.22116122 1.2619561 0.051770512 54
0.22788131 1.2519026 0.071171694 81
0.23604435 1.2396903 0.089480512 100
0.23360693 1.2433368 0.11066922 92
0.23919487 1.234977 0.1291219 96
0.2204172 1.2630692 0.15891489 73
0.22831362 1.2549109 0.0101573 28
0.20331115 1.2925998 0.032866981 29
0.2173734 1.2714024 0.05264207 53
0.23066279 1.2513698 0.070927955 97
0.23440975 1.2457217 0.090419121 100
0.23743173 1.2411664 0.10990598 92
0.23758799 1.2409308 0.13047162 96
0.22000447 1.2674363 0.15995017 72
0.21681273 1.2760735 0.010576159 27
0.22051352 1.2704524 0.031401575 31
0.22241247 1.2675681 0.052119136 54
0.23998624 1.2408755 0.069221787 83
0.23498601 1.2484703 0.090731993 95
0.23691913 1.2455341 0.11066922 92
0.24673498 1.2306249 0.1273223 97
0.22174284 1.2685852 0.15995017 72
0.22295645 1.2705373 0.010436539 27
0.21133783 1.2883193 0.032448292 29
0.21870235 1.2770481 0.05299069 52
0.23511696 1.2519257 0.070684217 81
0.2463825 1.2346839 0.087916173 100
0.2353594 1.2515546 0.11181407 84
0.25260839 1.2251552 0.12552269 99
0.22031519 1.2745798 0.16150309 70
0.21591219 1.2850403 0.010715778 39
0.23262286 1.2592785 0.030564198 32
0.22363836 1.2731295 0.052467756 53
0.24319854 1.2429748 0.069221787 83
0.2522251 1.2290592 0.086664692 86
0.24016324 1.2476542 0.11066922 85
0.24775636 1.2359483 0.12822211 97
0.234606 1.2562213 0.15529142 75
0.23719475 1.2559373 0.010087491 57
0.24298111 1.2469482 0.029726824 33
0.23402393 1.2608631 0.051073264 55
0.23625565 1.2573962 0.071171694 65
0.24527568 1.2433838 0.089167647 84
0.24820831 1.2388279 0.10837951 94
0.24938467 1.2370005 0.12822211 97
0.23839647 1.2540705 0.15425615 83
0.24543512 1.2469682 0.0098780617 59
0.24688107 1.2447038 0.029517479 67
0.23582515 1.262018 0.051073264 55
0.24979591 1.2401388 0.068490572 50
0.2512652 1.2378378 0.087916173 56
0.2488721 1.2415856 0.10876112 79
0.25109833 1.2380992 0.12822211 89
0.23185524 1.2682351 0.15839726 73
0.24496126 1.2514067 0.0099478718 87
0.25281596 1.2390106 0.029098792 100
0.23434535 1.2681606 0.051596198 54
0.25993881 1.2277694 0.066540658 69
0.24655631 1.2488894 0.089793384 69
0.24316442 1.2542424 0.11143246 100
0.25794929 1.2309091 0.12597258 99
0.23463035 1.2677107 0.15787962 65
0.24238592 1.25924 0.010087491 71
0.25551805 1.2383542 0.028994121 100
0.22866252 1.2810662 0.05281638 79
0.2530854 1.2422231 0.068490572 67
0.26084736 1.2298783 0.086038955 58
0.2521717 1.2436764 0.10876112 87
0.26267183 1.2269766 0.12462288 100
0.22814324 1.2818921 0.16202073 63
0.24409556 1.2603108 0.010087491 71
0.24658266 1.2563244 0.03004084 99
0.24099469 1.265281 0.051073264 83
0.25053251 1.2499934 0.069465525 49
0.26454565 1.2275329 0.085413218 58
0.24031731 1.2663667 0.11372216 100
0.26117414 1.2329369 0.12597258 99
0.23811269 1.2699003 0.15787962 65
0.24669057 1.2595695 0.010052586 86
0.25021574 1.2538795 0.029831495 100
0.25199598 1.2510061 0.049504463 57
0.25413287 1.2475569 0.068978049 50
0.25974235 1.2385027 0.087290429 71
0.2573877 1.2423034 0.10799789 72
0.26365626 1.2321854 0.12552269 90
0.24375442 1.2643087 0.15580906 67
0.25468466 1.2504039 0.0098431576 88
0.25609037 1.2481172 0.029412808 100
0.24324289 1.2690167 0.051247578 82
0.25060382 1.2570424 0.07019674 33
0.26344845 1.2361474 0.086664692 71
0.25286934 1.2533569 0.1102876 99
0.26220971 1.2381625 0.12687239 90
0.23941159 1.2752492 0.15891489 65
0.25636336 1.2514318 0.0098431576 88
0.2588011 1.2474351 0.029308135 100
0.24291173 1.2734864 0.051596198 82
0.25954136 1.2462213 0.068490572 50
0.25479135 1.2540092 0.089793384 69
0.26273668 1.2409825 0.10723466 81
0.26790461 1.2325094 0.12507279 92
0.23916528 1.279629 0.15995017 64
0.25183389 1.2627189 0.010052586 86
0.26253751 1.2450311 0.029098792 100
0.24879718 1.267737 0.050898954 100
0.26326093 1.2438357 0.068003096 51
0.26568702 1.2398266 0.086977564 57
0.25726745 1.2537398 0.10990598 85
0.27254754 1.2284896 0.12372308 83
0.24494681 1.2740998 0.15787962 65
0.24746764 1.274096 0.010262015 84
0.25708616 1.2580692 0.029831495 99
0.25062349 1.2688377 0.050898954 83
0.25274146 1.2653086 0.070927955 48
0.27350998 1.2307029 0.085100345 58
0.26005268 1.2531261 0.10952436 78
0.27523264 1.2278326 0.12327318 93
0.25474936 1.2619629 0.15373851 68
0.26559761 1.2476579 0.0097035384 90
0.2598134 1.2573726 0.029726824 100
0.25644377 1.263032 0.050201707 85
0.25853446 1.2595205 0.069953002 49
0.27613041 1.229968 0.084787481 59
0.26475403 1.2490747 0.10837951 87
0.27085069 1.2388353 0.12597258 99
0.25741336 1.2614034 -0.0099827768 86
0.25745675 1.2613306 0.15322088 68
0.26930073 1.2452042 0.0096337283 90
0.26354799 1.2549433 0.029517479 100
0.25613993 1.2674845 0.05055033 84
0.26832178 1.2468616 0.068003096 51
0.27371901 1.2377244 0.086038955 58
0.26942351 1.2449963 0.10723466 81
0.27744448 1.2314174 0.12372308 92
0.25426099 1.2706654 0.15580906 67
0.27298322 1.2427306 0.0095639192 91
0.26726207 1.2524939 0.029308135 100
0.26190752 1.2616314 0.049853086 85
0.26898444 1.2495546 0.068246834 68
0.27235723 1.2437989 0.086977564 57
0.2690981 1.2493606 0.10799789 79
0.28496829 1.2222781 0.12102367 86
0.25601041 1.2716948 0.15580906 67
0.26961014 1.2523388 0.0097384425 90
0.27296302 1.2465709 0.028889447 100
0.26262408 1.2643565 0.050027397 85
0.27165774 1.2488164 0.068003096 51
0.27699107 1.2396418 0.086038955 58
0.26583976 1.2588247 0.10990598 85
0.28458989 1.2265699 0.12192347 85
0.25193813 1.2827389 0.15891489 65
0.26729977 1.2602438 0.0098780617 73
0.27263281 1.2509955 0.029098792 100
0.26634204 1.2619046 0.049678773 86
0.27333081 1.2497851 0.068003096 51
0.28159246 1.2354581 0.085100345 58
0.26754782 1.2598137 0.10990598 85
0.28715873 1.2258055 0.12147357 77
0.26430294 1.2654407 -0.0099827768 86
0.26145014 1.2703879 0.15477379 67
0.2729843 1.2542845 0.0097384425 90
0.27629685 1.2484934 0.028889447 100
0.26806083 1.2628918 0.049678773 100
0.27303597 1.2541941 0.068490572 50
0.28518048 1.2329628 0.084474608 59
0.27218369 1.2556841 0.10876112 100
0.28584862 1.2317948 0.12282328 93
0.26801988 1.2629634 -0.0099129668 87
0.26703539 1.2646844 0.15270324 68
0.28059739 1.244813 0.0095290141 76
0.27796876 1.2494459 0.028889447 100
0.27764881 1.2500098 0.048284281 88
0.27668706 1.2517049 0.068003096 51
0.28484848 1.2373207 0.085100345 58
0.28260028 1.2412831 0.10532656 75
0.28746217 1.2327141 0.12282328 85
0.26495051 1.2723901 0.15477379 67
0.27432501 1.2596438 0.0098082526 74
0.28543928 1.2399031 0.028261416 100
0.26360264 1.2786885 0.051073264 83
0.28023371 1.249149 0.067515619 51
0.28155404 1.2468039 0.086664692 57
0.27934873 1.250721 0.10723466 81
0.29282224 1.2267897 0.12102367 86
0.26472256 1.2766994 0.15580906 67
0.27213603 1.2675868 0.0099478718 73
0.28708118 1.2408237 0.028261416 100
0.27217981 1.2675084 0.049853086 85
0.28577927 1.243155 0.066540658 52
0.29092488 1.2339406 0.084161744 59
0.27624243 1.2602333 0.10914274 85
0.29821879 1.220879 0.11922406 87
0.27213603 1.2675868 -0.0099478718 86
0.27214429 1.267572 0.15270324 68
0.27968779 1.2580578 0.0097384425 75
0.27904946 1.2592103 0.029308135 100
0.27488348 1.2667322 0.049678773 86
0.27973822 1.2579668 0.068490572 50
0.29254591 1.2348421 0.084161744 59
0.27510172 1.2663381 0.1102876 85
0.2960175 1.228574 0.12102367 86
0.2767812 1.2633058 -0.0098431576 87
0.27575481 1.2651589 0.15166797 69
0.27561659 1.2695146 0.0099478718 87
0.28652823 1.2496499 0.028680105 100
0.28812984 1.2467341 0.047587037 90
0.28335461 1.2554275 0.068003096 51
0.29702321 1.2305439 0.083223134 60
0.28628799 1.2500873 0.10647142 81
0.29574332 1.2328738 0.12192347 85
0.27657935 1.2677618 -0.0099129668 87
0.28120527 1.2593403 0.14959741 78
0.28875771 1.2493513 0.0095290141 76
0.28812024 1.2505209 0.028680105 100
0.2820847 1.2615955 0.048981529 87
0.29256538 1.2423646 0.066053182 52
0.29571593 1.2365837 0.084161744 59
0.28882095 1.2492353 0.1060898 81
0.2982122 1.2320033 0.12147357 77
0.27631763 1.2721775 -0.0099827768 86
0.2837539 1.2585328 0.14907977 78
0.29423574 1.2432234 0.0093893949 93
0.29359773 1.244404 0.028261416 100
0.28001302 1.2695389 0.049678773 86
0.29232809 1.2467531 0.066540658 52
0.29171073 1.2478954 0.086038955 58
0.29142886 1.2484169 0.10570818 73
0.28454229 1.2611586 0.14959741 70
0.28936151 1.2564964 0.0096337283 90
0.29345185 1.2488616 0.02847076 100
0.28372753 1.2670126 0.049330149 87
0.29407722 1.2476943 0.066540658 52
0.29532978 1.2453563 0.085413218 58
0.28947553 1.2562835 0.10723466 73
0.28747284 1.2600217 -0.0097035384 89
0.28087044 1.2723455 0.15270324 68
0.28449401 1.2697649 0.0098780617 73
0.2988731 1.242699 0.028052073 100
0.29200736 1.2556225 0.048109971 89
0.28829557 1.2626092 0.068490572 50
0.28656915 1.2658589 0.10914274 78
0.28730857 1.264467 -0.0097733475 88
0.28262559 1.2732818 0.15270324 68
0.29734063 1.249414 0.009459204 93
0.29826373 1.2476624 0.047238413 91
0.28715402 1.2687428 0.069221787 33
0.29736826 1.2493615 0.10532656 75
0.28335577 1.2759497 -0.0099827768 86
0.2951043 1.2536573 0.14649157 81
0.29808947 1.2520653 0.0094941091 92
0.29284632 1.2620988 0.029098792 100
0.29255056 1.2626648 0.048632905 88
0.29533222 1.2573417 0.067515619 51
0.29995233 1.2485005 0.10494494 75
0.2869758 1.2733328 -0.0099129668 87
0.29142582 1.2648171 0.14959741 70
0.29801875 1.2565367 0.0095639192 91
0.28886032 1.2742202 0.049678773 86
0.2896874 1.2726233 0.15166797 69
0.29972294 1.2574049 0.047935657 59
0.29882604 1.2591516 0.067515619 51
0.29149771 1.2734232 -0.0098780617 100
0.28791368 1.2804029 0.15373851 76
0.29597822 1.2689763 -0.0097733475 100
0.29495555 1.2709851 0.15063268 78
0.29587087 1.2866862 0.05037602 56
0.29935181 1.2796088 -0.0099129668 100
