# .PCD v0.7 - Point Cloud Data file format
VERSION 0.7
FIELDS x y z intensity
SIZE 4 4 4 4
TYPE F F F F
COUNT 1 1 1 1
WIDTH 727
HEIGHT 1
VIEWPOINT 0 0 0 1 0 0 0
POINTS 727
DATA ascii
-1.10408 0.15182912 0.058406927 26
-1.1450745 0.16154116 0.060605038 31
-1.1063176 0.16001415 0.019511791 4
-1.0305582 0.15291484 0.018185407 5
-0.99640918 0.15140434 0.017592026 3
-1.1520364 0.17875646 0.020349506 51
0.055101305 0.0041240454 0.015916595 126
0.05399406 0.0085474849 0.047625721 40
0.040977776 0.00036770105 0.048358422 100
0.036597133 0.0056878328 0.048253752 52
0.040780425 0.017319977 0.047625721 28
0.038156152 0.019102037 0.047625721 19
0.027756155 0.0092774034 0.048358422 8
0.024839044 0.011288285 0.048358422 8
0.029178858 0.022864699 0.047730394 9
0.019555092 0.014973104 0.048358422 8
0.030896962 0.036301553 0.047102362 10
-1.0278268 1.1273153 0.084784247 3
-1.0414684 1.1304045 0.14276111 4
-1.0440831 1.1368511 0.028552137 7
-1.0071061 1.1283414 0.08373753 7
-1.0266092 1.1328298 0.14154093 9
-1.0096908 1.1346736 0.027958754 11
-1.0155697 1.1360481 0.084260888 48
-1.0195129 1.13697 0.14101799 48
-0.98506147 1.1345708 0.027539898 33
-1.0084529 1.1401262 0.083946876 100
-1.016284 1.1419861 0.14084367 91
-0.97995597 1.1387223 0.027470088 38
-0.9955669 1.1424845 0.083318844 100
-1.0131049 1.1467112 0.14066938 87
-0.98642915 1.1459618 0.027609708 37
-0.97291702 1.1426554 0.082167454 100
-1.0059745 1.1507446 0.14014643 84
-0.98510736 1.1513226 0.027609708 22
-0.97548372 1.1489321 0.082376793 86
-0.99690145 1.1542523 0.13944919 91
-0.96437675 1.1517904 0.027260659 27
-0.98383492 1.156696 0.082900152 39
-0.99168688 1.1586756 0.13910057 82
-0.96109754 1.1565785 0.027225753 48
-0.99215049 1.1645228 0.083423518 35
-0.98839051 1.1635609 0.13892625 84
-0.95973891 1.1618509 0.027225753 61
-0.97143191 1.1648859 0.082376793 80
-0.9831503 1.1679274 0.13857763 87
-0.96609706 1.169155 0.027365373 68
-0.96038705 1.1676517 0.081853434 98
-0.97597176 1.1717548 0.1380547 92
-0.96469456 1.1744448 0.027365373 78
-0.95706016 1.1724063 0.081748761 94
-0.96686035 1.1750231 0.13735744 99
-0.94783193 1.1755487 0.027086135 93
-0.95950204 1.1787084 0.081958108 100
-0.95966786 1.1787534 0.13683452 100
-0.93483704 1.1775985 0.026876707 93
-0.95228809 1.182389 0.081644088 100
-0.96399575 1.1856028 0.13735744 99
-0.94496423 1.1859956 0.027086135 89
-0.93929452 1.1844178 0.081016064 100
-0.9721331 1.1935557 0.13822901 89
-0.94350296 1.1912115 0.027086135 92
-0.9359166 1.1890718 0.08091139 82
-0.96297508 1.1967031 0.13753176 98
-0.95755559 1.200292 0.027365373 64
-0.93651325 1.1942861 0.081016064 70
-0.94629997 1.1970794 0.13613728 100
-0.96372825 1.2077739 0.027504992 45
-0.93502313 1.1994724 0.081016064 32
-0.93905824 1.2006392 0.13561434 99
-0.92572945 1.2023723 0.026841801 57
-0.93543166 1.205215 0.081120729 24
-0.94519407 1.2080753 0.13631158 82
-0.92037719 1.2063831 0.026771991 74
-0.90901214 1.2030102 0.07976 27
-0.9417457 1.2127249 0.13613728 89
-0.918845 1.211513 0.026771991 75
-0.91705543 1.2109752 0.080283359 40
-0.94400734 1.2190764 0.13648589 98
-0.92303389 1.2183845 0.026876707 78
-0.91550714 1.2160934 0.080283359 90
-0.92908841 1.2202275 0.13526571 99
-0.91389459 1.2209122 0.026737086 83
-0.91592854 1.2215387 0.080388032 92
-0.91806668 1.2221973 0.13439415 94
-0.89703947 1.2212567 0.026457848 89
-0.92006356 1.2284368 0.080702044 80
-0.9107731 1.2255396 0.13387123 66
-0.90681678 1.2301713 0.026667276 83
-0.90694636 1.2302122 0.080074012 66
-0.9014942 1.2284901 0.13317397 46
-0.90139216 1.2340358 0.026597468 83
-0.89391667 1.2316458 0.07944598 85
-0.90747601 1.2359809 0.13387123 43
-0.89595836 1.2378681 0.026527658 88
-0.90179771 1.2397575 0.079969339 92
-0.90773612 1.241679 0.13404553 49
-0.89051563 1.241668 0.026457848 99
-0.8944549 1.2429578 0.079655327 100
-0.90418738 1.2461445 0.13387123 64
-0.88135022 1.2439282 0.02631823 100
-0.90425473 1.2515119 0.080283359 100
-0.90260035 1.2509642 0.13387123 80
-0.87589484 1.2476512 0.02624842 99
-0.89120215 1.2527789 0.079655327 100
-0.9009127 1.2560318 0.13387123 82
-0.87800676 1.2539092 0.02631823 93
-0.8762669 1.2533196 0.078922622 100
-0.90109426 1.2617329 0.13404553 78
-0.88387543 1.2614845 0.026457848 96
-0.88212854 1.2608857 0.079341307 100
-0.89559942 1.2655032 0.13369691 100
-0.86703604 1.2612467 0.02617861 89
-0.87474507 1.2639192 0.079027295 100
-0.89009601 1.269241 0.13334829 90
-0.8577643 1.2635438 0.026038991 81
-0.87678188 1.270211 0.079236634 80
-0.90526634 1.2801974 0.1349171 49
-0.86734158 1.2724638 0.02624842 79
-0.86184984 1.2705169 0.078503937 44
-0.90347654 1.285274 0.1349171 36
-0.85804933 1.2747092 0.0261088 93
-0.84693319 1.2707248 0.077771232 14
-0.89416689 1.2876554 0.13421984 36
-0.86379915 1.2823464 0.02624842 99
-0.86019892 1.2810416 0.07860861 55
-0.87174612 1.2852263 0.13230242 20
-0.84698087 1.2817755 0.025969181 96
-0.85840648 1.2859612 0.07860861 100
-0.85871416 1.2860738 0.13125655 15
-0.83393437 1.2824821 0.025759751 100
-0.85846978 1.2915678 0.078713275 100
-0.85129887 1.2889123 0.13073361 3
-0.83588272 1.2887118 0.025829561 100
-0.83232373 1.2873797 0.077352546 70
-0.8718707 1.3021815 0.13282534 1
-0.84154505 1.2963762 0.025969181 99
-0.8249051 1.2900819 0.077038527 49
-0.84764212 1.2986825 0.13073361 3
-0.8415671 1.3019445 0.026004085 72
-0.84360284 1.3027227 0.078189917 53
-0.83834392 1.3007123 0.13003637 18
-0.8360644 1.3051157 0.025934275 71
-0.84369189 1.3080604 0.07829459 68
-0.83843511 1.306031 0.13021068 56
-0.82487327 1.3063171 0.025759751 81
-0.83622307 1.3107445 0.077980578 68
-0.85140485 1.3166667 0.13160518 100
-0.82671362 1.3125794 0.025829561 93
-0.8138873 1.3075244 0.07682918 67
-0.84021991 1.3179026 0.13073361 99
-0.81737977 1.314423 0.025689943 100
-0.81756943 1.3144984 0.0771432 91
-0.83829898 1.322752 0.13073361 99
-0.81918162 1.3206851 0.025759751 100
-0.81936651 1.3207594 0.077352546 95
-0.82896715 1.3246207 0.13003637 100
-0.81354576 1.3239558 0.025689943 100
-0.81928605 1.3262877 0.077457212 97
-0.82517689 1.328681 0.12986206 100
-0.80430073 1.3254392 0.025550323 100
-0.82297748 1.3330991 0.077771232 100
-0.81778651 1.33097 0.12933913 100
-0.78155428 1.3161101 0.17671055 15
-0.80235368 1.3301632 0.025550323 100
-0.79886073 1.3287164 0.076515168 100
-0.81397933 1.3349787 0.12916481 100
-0.78330797 1.3222742 0.17719802 20
-0.80398077 1.3366601 0.025620133 100
-0.78943425 1.3305721 0.076096483 100
-0.82108897 1.3438201 0.13003637 100
-0.77578121 1.3248582 0.17646681 16
-0.8019945 1.341383 0.025620133 100
-0.79114872 1.3367993 0.076305822 96
-0.80439585 1.3423977 0.12864187 100
-0.77566487 1.3302554 0.17671055 16
-0.80009228 1.3458631 0.025620133 77
-0.7966103 1.344378 0.076724514 54
-0.80249017 1.3468859 0.12864187 88
-0.7792775 1.3369849 0.17744176 16
-0.79991049 1.3513633 0.025655037 61
-0.82394713 1.3617151 0.078399263 55
-0.79369897 1.3486881 0.17963541 5
-0.79603916 1.3552744 0.025620133 93
-0.80355722 1.3585434 0.077352546 100
-0.81852847 1.3650531 0.1305593 61
-0.76618451 1.3422933 0.17622307 15
-0.80131215 1.3631845 0.025759751 100
-0.80698103 1.3656731 0.077666558 100
-0.82009166 1.3714283 0.13090792 100
-0.78599089 1.356459 0.17914793 38
-0.80654627 1.3711386 0.025899371 100
-0.80489343 1.3704062 0.077666558 100
-0.81798393 1.3762071 0.13090792 100
-0.76215714 1.351468 0.17622307 30
-0.79531258 1.3717874 0.025724847 100
-0.80825895 1.3775785 0.077980578 100
-0.8049472 1.3760972 0.12986206 100
-0.79273647 1.370635 0.18061037 35
-0.7913813 1.3756568 0.025689943 100
-0.81341106 1.3856037 0.078399263 100
-0.80282325 1.3808231 0.12986206 100
-0.759875 1.3614312 0.17646681 20
-0.79653758 1.3836524 0.025829561 100
-0.80216676 1.3862178 0.077875905 100
-0.80793494 1.3888466 0.1305593 100
-0.75238341 1.3635304 0.17573559 15
-0.80528778 1.3933628 0.026038991 100
-0.80182201 1.3917687 0.077980578 100
-0.8057664 1.3935828 0.1305593 100
-0.77194542 1.378027 0.17866045 14
-0.8049174 1.3989317 0.026073895 100
-0.80688983 1.3998473 0.078399263 100
-0.80719584 1.3999894 0.13090792 100
-0.78061837 1.3876524 0.18012288 12
-0.79003769 1.3977195 0.025829561 100
-0.81010896 1.4071215 0.078713275 100
-0.79416305 1.399652 0.12986206 100
-0.76766843 1.3872409 0.17866045 5
-0.79145414 1.4041024 0.025899371 100
-0.81148809 1.4135724 0.078922622 100
-0.80636722 1.4111519 0.13125655 100
-0.79242605 1.4045619 0.18231654 3
-0.7910375 1.409642 0.025934275 100
-0.80562788 1.4166013 0.078713275 100
-0.8077175 1.417598 0.13160518 100
-0.79780585 1.4186552 0.0261088 100
-0.79616386 1.4178648 0.07829459 100
-0.81262988 1.4257895 0.13230242 100
-0.80284339 1.4266137 0.02624842 100
-0.79939836 1.4249417 0.07860861 100
-0.80686289 1.4285645 0.13195379 100
-0.79335946 1.4278142 0.0261088 100
-0.80248529 1.4322829 0.078922622 100
-0.80455583 1.4332969 0.13195379 100
-0.79117066 1.4322654 0.0261088 100
-0.81281739 1.4429545 0.079655327 100
-0.80592173 1.4395494 0.13230242 100
-0.79243058 1.4387262 0.02617861 100
-0.80152136 1.4432547 0.079131968 100
-0.81427652 1.4496086 0.13334829 100
-0.79711705 1.4472347 0.02631823 100
-0.78476912 1.441027 0.07829459 100
-0.81533664 1.4563942 0.13369691 100
-0.79831189 1.4537418 0.026388038 100
-0.8020131 1.4556186 0.07944598 100
-0.80937845 1.4593537 0.13334829 100
-0.78879565 1.4548016 0.02624842 100
-0.80316788 1.462153 0.079655327 100
-0.80696386 1.4640946 0.13334829 100
-0.78651744 1.4592373 0.02624842 100
-0.81151587 1.472129 0.080283359 100
-0.80642539 1.4695039 0.1335226 100
-0.7876516 1.465744 0.02631823 100
-0.79842526 1.4713476 0.079655327 100
-0.81458098 1.4797506 0.13456847 100
-0.79242104 1.4738904 0.026457848 99
-0.79609209 1.4758153 0.079655327 100
-0.81221992 1.4842718 0.13456847 100
-0.80233008 1.4851155 0.026702182 74
-0.78479213 1.4758415 0.079131968 93
-0.80443448 1.4862283 0.13404553 98
-0.77743715 1.4775949 0.13160518 24
0.12758955 1.2944348 0.13089497 11
0.15516067 1.2602046 0.14531837 7
0.15283948 1.2666249 0.011099731 25
0.13835442 1.2847376 0.03454173 27
0.1393581 1.2834826 0.057522789 23
0.13299456 1.2914398 0.1057497 10
0.15026766 1.2698408 0.12440746 42
0.21286115 1.1915715 0.12462288 8
0.14580244 1.2754242 0.17340876 7
0.15697601 1.2648075 0.011029921 89
0.17733058 1.2391816 0.031401575 93
0.14601994 1.2786009 0.056825545 71
0.16231549 1.2580853 0.076533951 14
0.1691274 1.2495092 0.096989371 25
0.1592539 1.2619398 0.12211776 100
0.19244403 1.2201542 0.13272113 23
0.15108538 1.2722237 0.17185585 29
0.15507823 1.2709558 0.011134636 100
0.17657971 1.2436813 0.031610917 100
0.15775457 1.267561 0.055431053 100
0.15427533 1.2719743 0.078483857 28
0.1782251 1.2415942 0.095112152 25
0.15498236 1.2710774 0.12402584 100
0.19168341 1.2245225 0.13362093 38
0.15771279 1.267614 0.16978529 44
0.16660392 1.2596668 0.010855397 100
0.17445871 1.2496347 0.031924933 100
0.16186327 1.2657214 0.055082429 100
0.17919397 1.243587 0.073852822 31
0.18953335 1.2303817 0.092609204 26
0.1832732 1.2383771 0.11563025 100
0.1859844 1.2349144 0.13632034 38
0.15221933 1.2780385 0.17289113 42
0.16945738 1.259357 0.010820492 100
0.17114705 1.257184 0.032343622 90
0.1573939 1.2748699 0.055953987 97
0.17589211 1.2510822 0.074827775 30
0.17893574 1.2471683 0.095737889 25
0.16795579 1.2612879 0.1209729 100
0.18035045 1.245349 0.13901976 29
0.15153441 1.2824049 0.1739264 35
0.1686376 1.2637814 0.010890301 78
0.18008965 1.2489535 0.031715591 61
0.16394168 1.2698616 0.055256739 49
0.18598324 1.2413226 0.073121607 31
0.17327541 1.2577765 0.097615108 24
0.19026697 1.2357761 0.13587044 15
0.14969325 1.2883103 0.17547931 42
0.17661753 1.2573055 0.010715778 53
0.17585769 1.2582972 0.032238949 30
0.15374598 1.2871554 0.056999855 47
0.17934421 1.2537469 0.074827775 45
0.18476263 1.2466753 0.095112152 38
0.18103367 1.251542 0.11791996 13
0.20035475 1.2263259 0.13272113 23
0.15638623 1.2837096 0.17340876 57
0.16128212 1.2808198 0.011204445 50
0.17264107 1.2658929 0.032657638 29
0.17718074 1.2599272 0.053862248 51
0.1881631 1.2454951 0.073365346 46
0.1995039 1.230592 0.091670595 54
0.18501031 1.2496382 0.11715672 13
0.21131071 1.2150764 0.1291219 48
0.17564005 1.2619518 0.16564418 68
0.17271075 1.2694091 0.010925206 39
0.1671508 1.2767687 0.03328567 28
0.18489814 1.2532769 0.05299069 52
0.18144894 1.2578425 0.075071514 75
0.1939694 1.2412696 0.093547814 52
0.19260395 1.2430769 0.11524864 13
0.20111957 1.231805 0.13362093 38
0.18201756 1.2570899 0.16357364 69
0.18396974 1.2578611 0.010645968 40
0.15444976 1.2972066 0.03454173 27
0.17813274 1.265641 0.054210871 51
0.19498208 1.2431834 0.072634131 78
0.20146164 1.2345471 0.091983467 53
0.19888762 1.237978 0.11372216 13
0.20148337 1.2345182 0.13407083 31
0.17899731 1.2644886 0.16564418 68
0.18695453 1.2575955 0.010611063 81
0.20409566 1.2345737 0.030354854 32
0.17757213 1.2701967 0.054559495 50
0.19908977 1.241297 0.072146654 63
0.19490871 1.2469125 0.094173551 52
0.20295012 1.2361122 0.11295892 13
0.21017104 1.2264141 0.13137141 31
0.17850477 1.2689441 0.16667947 67
0.18381783 1.2652283 0.010750682 92
0.20682561 1.2341123 0.030250182 65
0.181602 1.268225 0.054210871 76
0.20301503 1.2392658 0.071659178 80
0.20588771 1.2353806 0.091670595 81
0.20099601 1.2419963 0.11410378 13
0.21863809 1.218137 0.128672 32
0.17786422 1.2732799 0.16771474 67
0.18563539 1.266567 0.010750682 92
0.20852897 1.2353671 0.030250182 65
0.1822519 1.2711782 0.054385185 76
0.20121422 1.2453358 0.072390392 95
0.20642713 1.2382314 0.091983467 93
0.20040542 1.246438 0.11486702 13
0.23065853 1.2052082 0.12462288 16
0.19342574 1.2559501 0.16150309 78
0.19670525 1.2548435 0.010471444 82
0.20772162 1.2397251 0.030459527 65
0.19330266 1.259513 0.05299069 100
0.20162335 1.2480941 0.072634131 63
0.20565507 1.2425612 0.092609204 93
0.20661202 1.2412479 0.11334054 13
0.23095584 1.2078397 0.12507279 16
0.18593761 1.2696204 0.16564418 68
0.20308784 1.2495928 0.010331824 98
0.20116934 1.2522449 0.03119223 63
0.19151038 1.2655981 0.053513627 100
0.19049647 1.2669998 0.075315252 100
0.20730671 1.2437603 0.092609204 93
0.21516293 1.2328994 0.11105084 14
0.22677547 1.2168455 0.1273223 16
0.19560948 1.2599312 0.16202073 70
0.20468011 1.2507405 0.010331824 98
0.20859644 1.2452884 0.03066887 96
0.18153223 1.2829661 0.055256739 99
0.21415049 1.2375562 0.070684217 81
0.21348938 1.2384766 0.09135773 100
0.2201359 1.2292236 0.10990598 14
0.24758622 1.1910083 0.11967396 8
0.19160089 1.2689488 0.16460891 85
0.20180181 1.2585164 0.010471444 96
0.21613699 1.2384044 0.030145511 65
0.18572766 1.2810682 0.054908119 100
0.2112577 1.24525 0.071659178 64
0.21635523 1.2380983 0.091044858 100
0.20244959 1.2576077 0.11639348 19
0.23442721 1.2127435 0.12552269 16
0.19231078 1.2718322 0.16512655 76
0.19880268 1.2661973 0.010611063 94
0.21999982 1.2362485 0.029936166 99
0.19663271 1.2692633 0.053513627 100
0.21283555 1.2463708 0.071659178 64
0.22019175 1.2359773 0.090419121 100
0.19953164 1.2651675 0.11791996 39
0.23026806 1.2217407 0.1277722 24
0.20178929 1.2619777 0.16150309 70
0.20522076 1.2609354 0.010471444 96
0.21023226 1.2537994 0.030982886 95
0.20533535 1.2607722 0.052467756 100
0.21230206 1.2508523 0.072146654 79
0.22303715 1.2355665 0.090106249 96
0.19796392 1.2712686 0.11906482 91
0.22632602 1.2308834 0.13002171 48
0.20692563 1.2585078 0.15995017 72
0.2160013 1.2489541 0.010192205 99
0.21640822 1.2483705 0.030564198 97
0.2001268 1.271718 0.053513627 100
0.21616942 1.248713 0.071659178 64
0.21893319 1.2447497 0.091670595 100
0.22208786 1.2402259 0.11143246 100
0.22005334 1.2431433 0.13317102 85
0.21075752 1.2564735 0.15891489 73
0.21093214 1.2600416 0.010401634 97
0.22270948 1.2430203 0.030145511 65
0.20196804 1.272997 0.053513627 100
0.21905574 1.2483008 0.071415432 48
0.22179946 1.2443354 0.09135773 94
0.22157937 1.2446536 0.11219569 100
0.23176908 1.2299267 0.1291219 96
0.20594755 1.2672455 0.16202073 70
0.21482372 1.2578669 0.010331824 98
0.22993475 1.235872 0.029622151 100
0.20138153 1.2774327 0.053862248 100
0.22626409 1.2412149 0.07019674 82
0.22113705 1.2486775 0.091983467 100
0.21870831 1.2522126 0.11372216 89
0.22777852 1.2390105 0.13137141 94
0.20759839 1.2683837 0.16202073 70
0.20872998 1.2706585 0.010576159 81
0.22489479 1.246944 0.030250182 65
0.21334338 1.2638904 0.052293446 100
0.22352102 1.2489593 0.071171694 81
0.23290715 1.2351894 0.089167647 100
0.22158372 1.2518015 0.11334054 96
0.23059729 1.2385781 0.13092151 88
0.21377972 1.2632502 0.15995017 72
0.21487537 1.2651632 0.010436539 41
0.22311983 1.2529815 0.030564198 64
0.22056666 1.2567539 0.051421888 82
0.22288585 1.2533273 0.071659178 64
0.23334435 1.2378743 0.089480512 97
0.23308676 1.2382549 0.10990598 85
0.22887614 1.2444763 0.13227122 94
0.22191399 1.2547632 0.15684435 74
0.22329605 1.2563701 0.01022711 42
0.21367103 1.270699 0.031610917 30
0.2133801 1.2711322 0.05281638 53
0.22346807 1.256114 0.071902916 96
0.23608091 1.2373371 0.089167647 98
0.23472321 1.2393583 0.10990598 100
0.23162094 1.2439767 0.13182132 94
0.21714494 1.2655274 0.15995017 72
0.22934878 1.2507962 0.010087491 43
0.22419861 1.2585186 0.030773543 32
0.2139383 1.2739033 0.05299069 52
0.22287905 1.2604972 0.072390392 100
0.23763239 1.2383754 0.089167647 100
0.23519209 1.2420346 0.1102876 85
0.2342757 1.2434086 0.13137141 100
0.22093374 1.263414 0.15891489 89
0.22016603 1.268703 0.010436539 27
0.21285543 1.2797564 0.032029606 30
0.21697471 1.2735281 0.05281638 53
0.22805002 1.2567824 0.071659178 80
0.24270225 1.2346286 0.088229038 98
0.22617668 1.2596149 0.11410378 96
0.24792096 1.226738 0.12642249 99
0.21963364 1.2695079 0.1604678 72
0.22182161 1.269794 0.010436539 27
0.23208767 1.2541595 0.030354854 32
0.22192705 1.2696333 0.052293446 53
0.22639731 1.2628255 0.072390392 95
0.2388235 1.2439011 0.089793384 100
0.22887966 1.259045 0.11372216 100
0.24515873 1.234253 0.12822211 89
0.22659361 1.2625265 0.15787962 73
0.2257517 1.2675858 0.010366729 27
0.216333 1.2820394 0.032029606 30
0.2334629 1.2557522 0.05072464 56
0.23353842 1.2556363 0.071171694 81
0.24587196 1.2367095 0.088229038 98
0.24023536 1.2453593 0.1102876 85
0.24252543 1.241845 0.13002171 88
0.23253366 1.2571782 0.15580906 75
0.24912721 1.2350786 0.0096686333 45
0.23105115 1.2630198 0.030773543 32
0.22317109 1.2752006 0.05264207 53
0.24593312 1.2400159 0.068734311 84
0.24849427 1.2360569 0.087916173 84
0.24714535 1.238142 0.10837951 87
0.24409181 1.242862 0.13002171 88
0.22995362 1.2647164 0.15787962 73
0.24219364 1.2496418 0.0099478718 58
0.24688348 1.2423339 0.029412808 67
0.22825316 1.2713647 0.052119136 54
0.24658573 1.2427979 0.068978049 50
0.24593693 1.2438087 0.089167647 84
0.24674255 1.2425535 0.10914274 85
0.25424701 1.2308595 0.12642249 90
0.23072562 1.267512 0.15839726 73
0.24163702 1.254033 0.010017681 72
0.24093959 1.2551277 0.030145511 65
0.2299175 1.2724289 0.052119136 81
0.24602205 1.2471498 0.069465525 66
0.24750981 1.2448145 0.089167647 84
0.2472564 1.2452123 0.10952436 85
0.25682396 1.2301942 0.12597258 90
0.22926322 1.2734559 0.15995017 64
0.23922601 1.261976 0.0101573 42
0.25027117 1.2444907 0.029412808 100
0.24142551 1.258494 0.05055033 56
0.24573612 1.2516701 0.069953002 66
0.25777492 1.2326119 0.086664692 71
0.24069539 1.2596499 0.1125773 96
0.25443017 1.2379067 0.1277722 97
0.2353256 1.2681506 0.15787962 65
0.24085918 1.2630038 0.0101573 85
0.24760211 1.2522506 0.029831495 99
0.24198866 1.2612026 0.05072464 84
0.24206215 1.2610854 0.071171694 65
0.2593106 1.2335783 0.086664692 71
0.26109448 1.2307335 0.10570818 73
0.25805399 1.2355824 0.12687239 99
0.24108443 1.2626445 0.15580906 67
0.25103334 1.250497 0.0098780617 88
0.25139758 1.2499115 0.029622151 100
0.23949489 1.2690414 0.051421888 82
0.25111917 1.2503591 0.069465525 49
0.25675628 1.2412992 0.087916173 84
0.24818414 1.2550762 0.11105084 84
0.25453344 1.2448716 0.1291219 96
0.24280596 1.2637199 0.15580906 67
0.24947602 1.2565898 0.0099827768 87
0.24669364 1.2610948 0.030250182 98
0.24010456 1.2717636 0.051596198 82
0.25897241 1.2412138 0.068003096 51
0.26351079 1.2338655 0.086351827 58
0.26011071 1.2393708 0.10723466 73
0.2683979 1.2259526 0.12372308 83
0.24038437 1.2713104 0.15787962 65
0.24804184 1.2627509 0.010087491 71
0.25675824 1.2485271 0.029412808 100
0.24289894 1.2711434 0.051421888 82
0.25439575 1.2523823 0.069465525 49
0.2610032 1.2415999 0.087603301 57
0.25149292 1.2571193 0.11105084 100
0.26999119 1.2269329 0.12372308 83
0.24617371 1.2657995 0.15580906 67
0.24863833 1.265458 0.010122396 85
0.25627089 1.2529097 0.029622151 100
0.25181013 1.2602434 0.050201707 100
0.25290227 1.2584479 0.07019674 49
0.26359522 1.240868 0.087290429 71
0.25923136 1.2480425 0.10876112 72
0.26948258 1.2311888 0.12462288 100
0.24781951 1.2668042 0.15580906 67
0.25252214 1.2631347 0.010052586 86
0.26216942 1.2471422 0.029203463 100
0.2515507 1.264745 0.05055033 84
0.25571987 1.2578337 0.069953002 49
0.26328224 1.2452974 0.087916173 70
0.25591499 1.2575103 0.11066922 92
0.27016822 1.2338824 0.12507279 92
0.2556296 1.2579833 0.15270324 68
0.26237687 1.2503929 0.0097733475 89
0.25657144 1.2600893 0.029936166 100
0.24909911 1.2725697 0.051247578 82
0.2614181 1.2519943 0.068978049 50
0.26485997 1.2462456 0.087916173 56
0.27064383 1.2365854 0.10570818 73
0.26870489 1.2398238 0.12642249 90
0.24931043 1.2722167 0.15684435 66
0.26209766 1.2548828 0.0098431576 88
0.26346812 1.2525747 0.029412808 100
0.25501192 1.2668165 0.05055033 84
0.26318663 1.2530488 0.068978049 50
0.26761594 1.245589 0.087603301 57
0.26634187 1.2477348 0.10799789 79
0.27540335 1.2324735 0.12417299 83
0.25115317 1.2733154 0.15684435 66
0.26167673 1.2592804 0.0099129668 87
0.26912591 1.2466394 0.028994121 100
0.25463802 1.2712251 0.050898954 83
0.26479006 1.2539972 0.068978049 50
0.2772176 1.2329078 0.085100345 58
0.26294404 1.2571299 0.10990598 85
0.28188524 1.2249869 0.12192347 76
0.25478545 1.2709749 0.15580906 67
0.26649868 1.2551544 0.0098082526 89
0.26986709 1.24939 0.029098792 100
0.26753446 1.2533818 0.048981529 87
0.26656592 1.2550393 0.068978049 50
0.27891609 1.2339046 0.085100345 58
0.26076931 1.264959 0.11143246 84
0.28158826 1.2293316 0.12282328 85
0.26448086 1.2586074 -0.0098780617 76
0.26247162 1.2620459 0.15270324 68
0.26710588 1.2578217 0.0098431576 88
0.2684525 1.2554996 0.029412808 100
0.26414144 1.2629336 0.049853086 85
0.26618424 1.259411 0.069465525 49
0.28342885 1.2296745 0.084161744 89
0.27029136 1.2523286 0.10837951 79
0.28604576 1.2251618 0.12147357 86
0.26798144 1.2563119 0.15063268 70
0.278864 1.2415199 0.0094941091 92
0.27023384 1.2565283 0.029412808 100
0.25999096 1.2743411 0.050898954 83
0.2739172 1.2501228 0.068003096 51
0.28117663 1.2374982 0.085413218 58
0.2759757 1.2465428 0.10685304 81
0.28674436 1.2278156 0.12192347 76
0.26013571 1.2740895 0.15580906 67
0.27051839 1.2597847 0.0098431576 88
0.27976766 1.2435757 0.028575432 100
0.26561481 1.2683783 0.050201707 85
0.27747852 1.2475873 0.067515619 51
0.28077036 1.2418184 0.086038955 72
0.27269244 1.2559748 0.10876112 100
0.28729817 1.2303786 0.12237337 85
0.26754519 1.2649952 -0.0099478718 86
0.26372379 1.271692 0.15477379 67
0.27330011 1.2590654 0.0098082526 74
0.28150523 1.2445629 0.028575432 100
0.26646227 1.2711513 0.05037602 84
0.2792308 1.248583 0.067515619 51
0.28541961 1.2376442 0.085100345 58
0.27834252 1.2501531 0.10723466 73
0.28994691 1.2296423 0.12192347 85
0.27231541 1.2608058 -0.0098431576 87
0.26366195 1.2761009 0.15580906 67
0.27403036 1.2617722 0.0098431576 88
0.27925369 1.2524643 0.028994121 100
0.27308854 1.2634504 0.049504463 86
0.27313125 1.2633743 0.069465525 49
0.28898704 1.2351196 0.084474608 59
0.27713785 1.2562346 0.10837951 79
0.29155293 1.2305472 0.12192347 76
0.27207312 1.2652599 -0.0099129668 87
0.27488446 1.2602501 0.15063268 78
0.28158376 1.2522488 0.0096337283 90
0.2770541 1.2603869 0.029412808 100
0.27868855 1.2574505 0.048807215 88
0.2825785 1.2504616 0.067515619 51
0.28773013 1.2412059 0.085413218 58
0.27883679 1.2571841 0.10837951 79
0.29316214 1.2314466 0.12192347 85
0.27574864 1.2627325 -0.0098431576 87
0.28223458 1.2510796 0.14752686 71
0.2900337 1.2409282 0.0093893949 77
0.28455898 1.2508456 0.028784776 100
0.27750307 1.2636273 0.049330149 87
0.27658236 1.2652951 0.069465525 49
0.29319519 1.2352011 0.084161744 59
0.28528306 1.2495339 0.10647142 81
0.29289085 1.2357523 0.12282328 76
0.2736046 1.2706895 -0.0099827768 86
0.27644646 1.2655413 0.15166797 77
0.28879821 1.2470949 0.0094941091 92
0.29199386 1.2412579 0.028156744 100
0.27540064 1.2715659 0.050027397 85
0.28403267 1.2557993 0.068003096 51
0.293872 1.2378274 0.084474608 59
0.28695858 1.250455 0.10647142 81
0.27632245 1.2698823 0.15270324 76
0.28760266 1.2532758 0.0095988233 76
0.28982836 1.2491765 0.028575432 100
0.28190655 1.2637668 0.049155839 87
0.28951886 1.2497466 0.067028143 51
0.29456401 1.2404546 0.084787481 59
0.28489015 1.2582717 0.10799789 79
0.27710676 1.2726068 -0.0099827768 86
0.27991262 1.2674391 0.15166797 69
0.28360301 1.2647529 0.0098082526 74
0.29529011 1.2430476 0.028156744 100
0.28079805 1.2699623 0.049678773 86
0.28743064 1.2576442 0.068003096 51
0.29031914 1.2522796 0.10647142 81
0.28455105 1.2629921 -0.0097733475 88
0.28439826 1.263276 0.15011504 78
0.2919248 1.2533319 0.0095639192 91
0.28911394 1.2585962 0.048458595 59
0.29193944 1.2533045 0.067271881 34
0.29878503 1.2404839 0.084474608 59
0.28830534 1.2601105 0.10799789 79
0.28438976 1.2674438 -0.0098431576 87
0.29067138 1.2556794 0.14752686 71
0.29112217 1.2589352 0.028994121 100
0.29455024 1.2524606 0.047761347 60
0.28898364 1.2629741 0.068490572 50
0.29858017 1.2448494 0.085100345 58
0.29828572 1.2454056 0.10456333 75
0.28875241 1.2634108 0.14959741 70
0.29995307 1.2462692 0.0093893949 93
0.28604829 1.272754 0.049678773 86
0.29624256 1.2533367 0.067028143 51
0.29538372 1.2549726 0.10647142 81
0.28972811 1.2657449 -0.0097733475 88
0.28688428 1.2711616 0.15166797 69
0.29607695 1.2577816 0.0095988233 76
0.28964481 1.2701377 0.049330149 87
0.29793125 1.2542195 0.067028143 51
0.29146019 1.2666504 -0.0097733475 88
0.28417513 1.2806449 0.15425615 75
0.29227823 1.2693268 0.0098082526 89
0.29413363 1.265732 0.048807215 58
0.29962304 1.2550964 0.067028143 51
0.29967609 1.2549937 0.1060898 66
0.2950297 1.2639959 -0.0097035384 100
0.29570571 1.2626863 0.14856213 71
0.29950929 1.2595018 0.067515619 68
0.296547 1.2652906 0.14907977 78
0.29669929 1.2692831 0.048981529 58
0.29297763 1.28081 0.15322088 76
0.29829469 1.2746222 -0.0098431576 100
0.29830348 1.2835495 -0.0099827768 100
