# .PCD v0.7 - Point Cloud Data file format
VERSION 0.7
FIELDS x y z intensity
SIZE 4 4 4 4
TYPE F F F F
COUNT 1 1 1 1
WIDTH 735
HEIGHT 1
VIEWPOINT 0 0 0 1 0 0 0
POINTS 735
DATA ascii
-1.1019952 0.15232641 0.058302253 26
-1.1186118 0.15880369 0.019721219 4
-1.1844816 0.1681549 0.062698476 31
-1.0725644 0.15589672 0.018918408 6
-1.0403675 0.1549271 0.018359931 6
-1.0260097 0.15626857 0.018115599 2
-1.1518487 0.17996277 0.020349506 51
0.058647811 0.011356413 0.015776975 97
0.045323253 0.0022871494 0.048149079 23
0.041543543 0.0023883581 0.048253752 100
0.039975941 0.0058290958 0.048149079 71
0.036197066 0.0059567094 0.048253752 43
0.031292498 0.0044479966 0.048463095 25
0.044388592 0.029356837 0.046997689 21
0.033883512 0.019607067 0.047730394 9
0.028992116 0.018129945 0.047939736 9
0.019510984 0.010127246 0.048567768 8
-1.0315976 1.1287496 0.084993593 5
-1.0393996 1.1305193 0.1425868 6
-1.0322633 1.1347126 0.028342709 7
-0.99335736 1.1257447 0.083004825 7
-1.028424 1.1338276 0.14171524 13
-1.0075526 1.1350338 0.02792385 12
-1.0056551 1.1345892 0.08373753 63
-1.0193205 1.1377919 0.14101799 53
-1.000433 1.1390793 0.027819136 36
-0.99660105 1.1381671 0.083318844 100
-1.0199654 1.143729 0.1411923 100
-0.98565871 1.1406639 0.027574802 36
-0.99737829 1.1434927 0.083423518 100
-1.0032895 1.1449194 0.13979781 86
-0.97852892 1.1445942 0.027470088 33
-0.99024564 1.1474656 0.083109498 93
-0.99810094 1.1493907 0.13944919 91
-0.98096007 1.1514274 0.027539898 23
-0.97715682 1.1504798 0.082481466 72
-1.0043659 1.1572587 0.14014643 84
-0.97380322 1.1552985 0.027435184 26
-0.97388309 1.1553187 0.082376793 38
-1.0049362 1.1631706 0.14032075 66
-0.96663815 1.1591244 0.027330469 50
-0.98413628 1.1636138 0.083004825 35
-0.98232573 1.1631494 0.13840333 85
-0.96140021 1.1634085 0.027260659 63
-0.98468584 1.1694697 0.083109498 82
-0.9770878 1.1674919 0.1380547 92
-0.94841713 1.1656191 0.027051231 71
-0.97555774 1.1727849 0.082690813 91
-0.97761732 1.1733286 0.13822901 94
-0.95668525 1.1734333 0.027225753 81
-0.96063739 1.1744915 0.081958108 94
-0.97427553 1.1781433 0.1380547 100
-0.95927042 1.1792111 0.027295563 93
-0.94008261 1.1740088 0.08091139 100
-0.97683173 1.1839726 0.13840333 100
-0.95397645 1.183417 0.027225753 92
-0.94636661 1.1813252 0.081330076 100
-0.9619295 1.1856031 0.13718314 98
-0.9447462 1.1867783 0.027086135 89
-0.94484895 1.1868069 0.081330076 92
-0.95655769 1.1900716 0.13683452 94
-0.93943363 1.1909057 0.027016325 89
-0.94338495 1.1920223 0.081330076 82
-0.94933027 1.1937025 0.13631158 100
-0.94956475 1.1991436 0.027225753 60
-0.93045622 1.1936752 0.080702044 66
-0.9498325 1.1992203 0.13648589 100
-0.9576605 1.20716 0.027400278 42
-0.92129523 1.1966155 0.080283359 26
-0.96172005 1.2083371 0.13770607 92
-0.9408527 1.2076511 0.027121039 59
-0.92178887 1.2020547 0.080388032 26
-0.94687611 1.2094193 0.13648589 84
-0.92014843 1.207153 0.026771991 74
-0.92410058 1.2083281 0.080597371 26
-0.9357844 1.2118024 0.13561434 92
-0.91087776 1.2102305 0.026632372 75
-0.92630869 1.2148806 0.080806717 46
-0.92270929 1.2137959 0.13456847 99
-0.9131574 1.2164946 0.026702182 83
-0.90755421 1.2147846 0.079864666 99
-0.93258494 1.222423 0.13561434 99
-0.91732162 1.2233701 0.026806897 88
-0.90599269 1.2198697 0.079864666 95
-0.92528588 1.2258309 0.13509139 89
-0.92336422 1.2308773 0.026946515 85
-0.91394442 1.2279307 0.080388032 76
-0.92178422 1.230383 0.1349171 61
-0.90268236 1.2299809 0.026597468 83
-0.91043288 1.2324351 0.080283359 66
-0.90877157 1.231909 0.13387123 45
-0.89345068 1.2326077 0.026457848 81
-0.91071182 1.2381397 0.080388032 78
-0.90715033 1.2369983 0.13387123 43
-0.89190871 1.2373918 0.026457848 89
-0.89395183 1.2380542 0.079550654 100
-0.89990777 1.2399848 0.13334829 52
-0.88646823 1.2411757 0.026388038 99
-0.89041144 1.2424691 0.07944598 100
-0.9209761 1.2524947 0.13544002 63
-0.8924064 1.2487066 0.026527658 99
-0.88685793 1.2468652 0.079341307 100
-0.9022643 1.2519782 0.13387123 80
-0.88314384 1.2511926 0.026388038 96
-0.89654487 1.2556921 0.079969339 100
-0.8911292 1.2538737 0.13299966 84
-0.87009472 1.2523336 0.02617861 99
-0.89105839 1.2594539 0.07976 100
-0.90075058 1.2627459 0.13404553 82
-0.86840242 1.2572877 0.02617861 99
-0.87422985 1.2592897 0.078922622 100
-0.88960034 1.2645702 0.13317397 100
-0.87811285 1.2659246 0.026388038 85
-0.86693925 1.2620444 0.07860861 100
-0.90112728 1.2739165 0.13439415 87
-0.88014656 1.2722317 0.026457848 77
-0.87086636 1.2689728 0.078922622 72
-0.90499896 1.2809592 0.1349171 49
-0.86322182 1.2721143 0.02617861 81
-0.85961801 1.2708337 0.078399263 38
-0.88997453 1.2816193 0.13369691 33
-0.85393268 1.2743399 0.026038991 96
-0.86725944 1.2791274 0.078922622 17
-0.88067955 1.2839484 0.13299966 31
-0.85225254 1.2789929 0.026038991 93
-0.85429889 1.2797356 0.07829459 59
-0.87522179 1.2873302 0.13265105 18
-0.8579765 1.2866399 0.02617861 100
-0.84688598 1.2825704 0.077980578 100
-0.87153679 1.2916157 0.13247673 15
-0.85241479 1.2901607 0.0261088 100
-0.85070616 1.2895269 0.07829459 100
-0.86597127 1.2951889 0.1321281 3
-0.83561093 1.2894373 0.025829561 100
-0.84514374 1.293011 0.078085244 55
-0.87159187 1.3029258 0.13282534 1
-0.83378929 1.2942709 0.025829561 96
-0.8526482 1.3014159 0.07860861 51
-0.85854405 1.3036497 0.13177948 3
-0.82634836 1.296953 0.025724847 72
-0.83772808 1.3013098 0.077875905 55
-0.85109061 1.3064259 0.13125655 22
-0.8394205 1.3075262 0.026004085 74
-0.83027679 1.3039888 0.077561885 72
-0.84363502 1.3091567 0.13073361 60
-0.84126061 1.3138289 0.026073895 88
-0.82840437 1.3088036 0.077561885 68
-0.85287851 1.3183703 0.13177948 100
-0.81908339 1.3101245 0.025689943 100
-0.8285628 1.3138642 0.077666558 74
-0.82705504 1.3132694 0.12951343 95
-0.81718975 1.3149002 0.025689943 100
-0.83036667 1.320152 0.077875905 89
-0.82700104 1.3188107 0.12968774 97
-0.8152793 1.3196692 0.025689943 100
-0.82102686 1.3219833 0.077457212 97
-0.83616632 1.3280785 0.13073361 100
-0.81705707 1.3259382 0.025759751 100
-0.81724161 1.3260133 0.077352546 100
-0.83420986 1.3329138 0.13073361 100
-0.78316885 1.312157 0.17671055 15
-0.81880766 1.3322263 0.025829561 100
-0.80790251 1.3277471 0.076933853 100
-0.8211785 1.3332002 0.12968774 100
-0.77392334 1.3137906 0.17573559 13
-0.80575424 1.3324037 0.025620133 100
-0.80225772 1.3309531 0.076724514 100
-0.80816227 1.3334026 0.12864187 100
-0.80868882 1.333621 0.18061037 28
-0.79261833 1.332731 0.025410704 100
-0.80387658 1.3374498 0.076933853 100
-0.81895083 1.3437678 0.12986206 100
-0.78098291 1.3278543 0.17719802 20
-0.79801208 1.3405318 0.025550323 100
-0.78717321 1.3359444 0.076096483 96
-0.80776554 1.34466 0.1289905 100
-0.77354318 1.3301756 0.17646681 18
-0.80530745 1.3489265 0.025724847 68
-0.79263598 1.3435138 0.076515168 45
-0.80768472 1.349942 0.12916481 80
-0.76255065 1.3306627 0.17524812 15
-0.81796795 1.3599894 0.026004085 67
-0.81630129 1.3592706 0.077980578 59
-0.82211739 1.361779 0.13073361 16
-0.78610462 1.3462471 0.17866045 7
-0.79583472 1.3557444 0.025620133 96
-0.80701441 1.36061 0.077561885 100
-0.79639822 1.3559895 0.12846756 61
-0.78054613 1.3490902 0.17817298 15
-0.78645891 1.3572209 0.025480513 100
-0.81408721 1.3693604 0.078085244 100
-0.80893725 1.3670976 0.12986206 100
-0.78396875 1.3561268 0.17890419 35
-0.79536861 1.3667471 0.025689943 100
-0.80650955 1.3716888 0.077771232 100
-0.81959349 1.3774924 0.13108224 100
-0.75469571 1.3487065 0.17524812 31
-0.80422801 1.3763428 0.025899371 100
-0.80257815 1.3756042 0.077666558 100
-0.80837244 1.3781985 0.13021068 100
-0.77622074 1.3638029 0.17841671 33
-0.80392545 1.3818898 0.025934275 100
-0.81137604 1.385257 0.07829459 100
-0.80624121 1.3829364 0.13021068 100
-0.77052206 1.3667936 0.17792924 20
-0.79814261 1.3849523 0.025864467 100
-0.80922014 1.3900054 0.07829459 100
-0.80409342 1.3876668 0.13021068 100
-0.77746123 1.3755186 0.17914793 15
-0.79417139 1.3888183 0.025829561 100
-0.81430453 1.398087 0.078713275 100
-0.80554873 1.3940561 0.1305593 100
-0.75189811 1.3693569 0.17597933 13
-0.79381663 1.3943491 0.025864467 100
-0.80848116 1.4011624 0.078503937 100
-0.80697578 1.4004631 0.13090792 100
-0.76059967 1.3789163 0.17744176 13
-0.79706079 1.4015828 0.025969181 100
-0.80446142 1.4050527 0.078399263 100
-0.81198269 1.4085791 0.13160518 100
-0.7674529 1.3877008 0.17866045 5
-0.80750102 1.4122677 0.026213514 100
-0.80584711 1.4114852 0.07860861 100
-0.80614334 1.4116253 0.13125655 100
-0.78861576 1.4033325 0.18182907 3
-0.79261869 1.4109716 0.025969181 100
-0.81080931 1.4196558 0.079027295 100
-0.79850131 1.41378 0.13073361 100
-0.78857154 1.4147866 0.025934275 100
-0.81932956 1.4296026 0.079655327 100
-0.80163091 1.4210773 0.13125655 100
-0.79170829 1.4220774 0.026038991 100
-0.80264801 1.4273942 0.078817949 100
-0.81368572 1.4327586 0.13265105 100
-0.80019671 1.432039 0.02624842 100
-0.79855174 1.4312325 0.078713275 100
-0.811364 1.4375147 0.13265105 100
-0.79799396 1.4365128 0.02624842 100
-0.80351299 1.4392418 0.079131968 100
-0.8055709 1.4402592 0.13230242 100
-0.79208022 1.439429 0.02617861 100
-0.80831772 1.4475282 0.079550654 100
-0.79609138 1.4414299 0.13160518 100
-0.78259009 1.4405143 0.026038991 100
-0.80772859 1.4531633 0.079655327 100
-0.80441815 1.4514976 0.13265105 100
-0.79450673 1.4524024 0.02631823 100
-0.79643065 1.4533787 0.079131968 100
-0.80913764 1.4598281 0.13334829 100
-0.79567653 1.4589138 0.026388038 100
-0.7975927 1.4598949 0.079341307 100
-0.81913584 1.4709238 0.13456847 100
-0.80037075 1.4672768 0.026527658 100
-0.79872555 1.4664273 0.079550654 100
-0.81136996 1.4729564 0.13404553 100
-0.79083425 1.4682915 0.026388038 100
-0.7962864 1.471131 0.079550654 100
-0.79653805 1.4712621 0.13282534 100
-0.78484792 1.471108 0.02631823 96
-0.80443996 1.4813985 0.080178685 100
-0.80113763 1.4796638 0.1335226 100
-0.78769368 1.4785713 0.026422944 68
-0.78606397 1.4777081 0.079236634 76
-0.80393404 1.4871738 0.13404553 94
0.12786418 1.2946559 0.13089497 11
0.15541738 1.2604111 0.14531837 7
0.12250605 1.3013153 0.18272625 6
0.1568439 1.2621456 0.010995016 25
0.16355589 1.2537438 0.032448292 29
0.16698521 1.2494509 0.053687938 26
0.14608601 1.2756122 0.07945881 14
0.1529946 1.2669642 0.10074379 11
0.14440259 1.2777195 0.12631555 47
0.18389046 1.2282892 0.13542053 15
0.15691906 1.2620516 0.16875002 14
0.15847808 1.2634467 0.010995016 100
0.16888639 1.2503288 0.032134276 100
0.15743175 1.2647655 0.055256739 99
0.16010338 1.2613983 0.077021427 29
0.17428976 1.2435188 0.095737889 25
0.16927373 1.2498406 0.11906482 100
0.17935595 1.2371337 0.13767004 30
0.14894688 1.2754593 0.17289113 28
0.16276366 1.2617364 0.010925206 100
0.17559212 1.245446 0.031715591 92
0.15554982 1.2708969 0.055779677 100
0.16681963 1.2565858 0.076046467 29
0.1784721 1.2417889 0.095112152 25
0.16131794 1.2635722 0.12211776 100
0.18468753 1.233896 0.13632034 38
0.14841175 1.2799612 0.1739264 35
0.15946859 1.2693183 0.011064826 100
0.17717081 1.2466849 0.031715591 100
0.15230319 1.2784797 0.056476921 100
0.17455015 1.2500356 0.074827775 30
0.17760468 1.2461302 0.095737889 38
0.1726329 1.2524869 0.11906482 100
0.188629 1.2320349 0.13542053 38
0.15248537 1.2782468 0.17289113 42
0.16620603 1.2644278 0.010925206 100
0.1850439 1.2401596 0.03119223 63
0.16638654 1.2641952 0.054733805 100
0.17022595 1.259249 0.076046467 29
0.17208469 1.2568545 0.097615108 37
0.17681152 1.2507651 0.11830158 84
0.19151983 1.2318169 0.13497064 30
0.14605883 1.2903826 0.1765146 41
0.1776152 1.2530282 0.010645968 53
0.18050778 1.2492762 0.031715591 61
0.16802746 1.2654645 0.054733805 75
0.17063844 1.2620778 0.076290213 44
0.18093774 1.2487184 0.095737889 25
0.18472448 1.2438066 0.13811995 22
0.14660719 1.2932492 0.17703223 48
0.17678767 1.2574358 0.010715778 66
0.1711714 1.264771 0.032657638 29
0.16967258 1.2667285 0.054733805 50
0.1819267 1.250724 0.074340299 46
0.19213438 1.2373922 0.093234941 39
0.20029813 1.2267299 0.11181407 14
0.18629768 1.2450153 0.13811995 30
0.16596103 1.2715759 0.16926765 59
0.18324772 1.2523037 0.010576159 40
0.16797847 1.2723838 0.033076324 29
0.17493981 1.2632291 0.054210871 51
0.18832913 1.2456213 0.073365346 46
0.19607764 1.2354314 0.092609204 53
0.19824958 1.2325753 0.11295892 13
0.20674786 1.2213995 0.13092151 48
0.16879576 1.271309 0.16875002 66
0.18269378 1.2569013 0.010645968 53
0.16991031 1.2738469 0.033076324 29
0.16363773 1.282162 0.056128297 48
0.19613546 1.2390828 0.072146654 63
0.19905704 1.2352101 0.092296332 53
0.1929343 1.2433263 0.11524864 13
0.20496285 1.2273813 0.13227122 47
0.17072347 1.272769 0.16875002 66
0.18431041 1.2581165 0.010645968 40
0.17397824 1.2719078 0.032866981 29
0.17370045 1.2722785 0.054908119 50
0.19769296 1.2402537 0.072146654 79
0.20060164 1.2363713 0.092296332 53
0.195683 1.2429366 0.11486702 13
0.20297617 1.2332017 0.13362093 38
0.1781843 1.2662935 0.16616182 76
0.19198343 1.2513673 0.010471444 82
0.18765187 1.2571912 0.03182026 30
0.18496826 1.2607994 0.053513627 52
0.17682779 1.2717446 0.076777689 87
0.1928007 1.2502685 0.094799288 64
0.20319423 1.2362939 0.11295892 13
0.20692113 1.2312829 0.13272113 31
0.17646027 1.2722387 0.16771474 67
0.19129032 1.2558315 0.010541254 81
0.19765905 1.2472057 0.031087559 63
0.18313336 1.2668792 0.054036561 77
0.19626808 1.2490897 0.073121607 78
0.20386603 1.2387991 0.092296332 80
0.20365787 1.239081 0.11334054 13
0.21895102 1.2183683 0.128672 32
0.18624806 1.2626607 0.16409127 69
0.19062406 1.2603064 0.010611063 94
0.21113411 1.2323239 0.03004084 66
0.18604788 1.2665498 0.053862248 77
0.20263666 1.2439172 0.072146654 79
0.20433676 1.2415978 0.092609204 93
0.20761862 1.2371203 0.1125773 13
0.22743034 1.2100905 0.12597258 16
0.18682793 1.2654855 0.16460891 69
0.19469079 1.2583239 0.010541254 81
0.20217422 1.248039 0.030982886 95
0.18426672 1.2726504 0.054385185 76
0.1972855 1.2547579 0.073609084 93
0.20714727 1.2412041 0.092296332 100
0.21387157 1.2319626 0.11105084 14
0.23240814 1.2064866 0.12462288 16
0.18742311 1.2683123 0.16512655 68
0.18945944 1.2693505 0.010750682 79
0.21562025 1.2331177 0.029936166 66
0.18961039 1.2691414 0.053862248 100
0.20371273 1.2496096 0.072634131 78
0.21234566 1.237653 0.09135773 94
0.22016403 1.2268245 0.10952436 14
0.22260249 1.2234472 0.1291219 8
0.19603717 1.2602403 0.16202073 70
0.19819424 1.2608539 0.010541254 95
0.21025786 1.2440223 0.030564198 97
0.20064023 1.2574412 0.052467756 100
0.20076334 1.2572694 0.073609084 93
0.21398014 1.2388288 0.09135773 94
0.2148985 1.2375474 0.11181407 14
0.23553967 1.208748 0.12462288 8
0.1977506 1.2614729 0.16202073 70
0.20669687 1.2521827 0.010331824 98
0.19668958 1.2662383 0.031924933 91
0.19755101 1.2650285 0.053165004 100
0.21150658 1.2454274 0.071659178 80
0.20972615 1.247928 0.092922069 100
0.20725963 1.2513924 0.11486702 20
0.2267473 1.2240212 0.128672 16
0.20041677 1.2610034 0.16150309 70
0.20145741 1.2631763 0.010541254 81
0.21686727 1.2413719 0.030250182 98
0.19468156 1.272764 0.053862248 100
0.22233367 1.2336371 0.069709264 66
0.21481675 1.2442733 0.091983467 100
0.20440975 1.2589989 0.11639348 46
0.23170823 1.2203724 0.1273223 24
0.20101789 1.2637982 0.16202073 70
0.20777467 1.2578418 0.010401634 97
0.21507367 1.247437 0.030564198 64
0.19643867 1.2740012 0.053862248 100
0.219394 1.2412784 0.070684217 81
0.21760875 1.2438233 0.091670595 100
0.20048138 1.2682383 0.11830158 97
0.23328224 1.2214807 0.1273223 56
0.19941536 1.269758 0.16357364 69
0.20490891 1.2655976 0.010541254 81
0.22359005 1.2387689 0.029936166 66
0.2073082 1.2621518 0.052467756 100
0.21423504 1.2522041 0.072146654 79
0.22265109 1.2401174 0.090731993 100
0.21231946 1.2549551 0.11486702 94
0.22595158 1.2353774 0.13092151 88
0.20557764 1.2646372 0.16150309 70
0.21573657 1.253639 0.010262015 98
0.22182164 1.2448345 0.030250182 98
0.21582502 1.253511 0.051421888 100
0.22382081 1.2419419 0.070440479 49
0.22654036 1.2380072 0.090106249 100
0.22740909 1.2367501 0.1102876 92
0.2242541 1.2413151 0.13227122 94
0.21060148 1.2610688 0.15995017 72
0.21742681 1.2548028 0.010262015 98
0.22009164 1.2509181 0.030564198 97
0.20398998 1.27439 0.053513627 100
0.22883901 1.2381668 0.069709264 66
0.22817597 1.2391334 0.090106249 100
0.22681916 1.2411113 0.11105084 91
0.2303108 1.2360214 0.13047162 88
0.21668899 1.2558783 0.15787962 73
0.22024655 1.2543077 0.01022711 70
0.22964084 1.2405105 0.029831495 66
0.20687407 1.273948 0.053339314 100
0.2260063 1.2458485 0.070684217 81
0.22648025 1.2451524 0.091044858 100
0.22515082 1.2471049 0.11219569 100
0.23413298 1.2339128 0.12957181 96
0.20860174 1.2714105 0.16253836 70
0.21522114 1.265397 0.010436539 41
0.23128518 1.2416258 0.029831495 66
0.21198198 1.2701902 0.05281638 79
0.2276693 1.2469766 0.070684217 81
0.23367104 1.2380953 0.089480512 100
0.22022265 1.2579958 0.1144854 100
0.23684537 1.233398 0.1291219 96
0.21143574 1.2709985 0.16202073 70
0.21695244 1.2665626 0.010436539 41
0.23182088 1.2443942 0.029936166 33
0.22038886 1.261439 0.051770512 54
0.22712472 1.2513961 0.071171694 81
0.23420662 1.2408372 0.089793384 100
0.21536666 1.2689269 0.1167751 100
0.23737937 1.2361066 0.12957181 96
0.21749094 1.2657597 0.15995017 72
0.21203938 1.2777098 0.010645968 40
0.23126534 1.2488272 0.030145511 32
0.21879426 1.2675622 0.052293446 53
0.22660714 1.255825 0.071659178 80
0.24023044 1.2353592 0.08854191 100
0.23995563 1.2357719 0.10876112 79
0.23792845 1.2388173 0.13002171 96
0.2192235 1.2669173 0.15995017 72
0.2312814 1.2520795 0.010087491 28
0.20192951 1.2964759 0.033076324 29
0.22145781 1.2669382 0.052119136 54
0.22266111 1.2651182 0.072877869 100
0.24169391 1.23633 0.08854191 84
0.23167583 1.251483 0.11219569 100
0.2383281 1.241421 0.13047162 96
0.22291708 1.264731 0.15891489 73
0.22528708 1.2648927 0.010331824 28
0.21034336 1.2876682 0.032448292 29
0.22428745 1.2664162 0.051944822 54
0.2363703 1.2480009 0.07019674 82
0.24223992 1.2390549 0.088854775 98
0.23766649 1.2460253 0.11066922 92
0.24638987 1.2327302 0.1277722 97
0.2235862 1.2674849 0.15943253 73
0.2150138 1.2844565 0.010715778 26
0.23394907 1.2553766 0.030354854 32
0.22276074 1.272559 0.052467756 53
0.23695755 1.2507563 0.070440479 100
0.24603489 1.2368157 0.088229038 98
0.2414726 1.2438222 0.10990598 92
0.24907029 1.232154 0.1273223 89
0.22743303 1.2653835 0.15839726 73
0.22766468 1.2688271 0.010366729 41
0.25515693 1.2262816 0.02847076 35
0.227761 1.2686779 0.051944822 54
0.2386376 1.2518461 0.070440479 49
0.25195467 1.2312373 0.086977564 100
0.24312842 1.2448963 0.10990598 85
0.25174299 1.2315649 0.12687239 90
0.22601876 1.2713742 0.15995017 72
0.24020222 1.2531159 0.010017681 58
0.25567332 1.2289894 0.028575432 70
0.23595661 1.2597367 0.050898954 55
0.23817834 1.256272 0.070927955 65
0.25036758 1.2372634 0.087916173 70
0.25114655 1.2360487 0.10761628 87
0.25335598 1.2326032 0.12687239 99
0.23507056 1.2611185 0.1563267 74
0.24189049 1.2541943 0.010017681 87
0.24762711 1.2451792 0.029517479 67
0.23445913 1.2658727 0.051421888 55
0.24520621 1.2489836 0.069709264 33
0.24987945 1.2416396 0.08854191 70
0.24118131 1.2553087 0.11181407 98
0.2486954 1.2435005 0.12957181 88
0.23263827 1.2687342 0.15839726 73
0.24358252 1.2552669 0.010017681 72
0.25142035 1.2428544 0.029308135 68
0.2308732 1.2753944 0.052293446 53
0.25217935 1.2416523 0.068490572 50
0.24730894 1.2493654 0.089793384 69
0.25335926 1.2397836 0.10799789 72
0.26075456 1.2280719 0.12507279 100
0.23541254 1.2682055 0.15787962 65
0.24952528 1.2495553 0.0098780617 88
0.25201228 1.2455862 0.029412808 100
0.24004439 1.2646868 0.051073264 83
0.24644956 1.2544641 0.07019674 66
0.25737476 1.2370276 0.087290429 71
0.24770412 1.2524619 0.11066922 85
0.2623553 1.2290788 0.12507279 100
0.23099917 1.2791228 0.16098544 64
0.24275446 1.2641872 0.0101573 71
0.25367418 1.2466234 0.029412808 100
0.23861715 1.2708418 0.051596198 82
0.25128686 1.2504632 0.069465525 49
0.26109275 1.2346911 0.086664692 71
0.24317056 1.2635179 0.11295892 89
0.26395953 1.23008 0.12507279 83
0.23685831 1.2736709 0.15891489 65
0.25594702 1.2464843 0.0097733475 89
0.26050091 1.2391052 0.028889447 100
0.24865052 1.2583076 0.050201707 85
0.25079674 1.2548299 0.069953002 49
0.26263529 1.2356466 0.086664692 57
0.26233667 1.2361305 0.10647142 81
0.26446337 1.2326844 0.12552269 90
0.24055937 1.2714186 0.15787962 65
0.25970054 1.2440971 0.0097035384 90
0.26214015 1.2401128 0.028889447 100
0.24827603 1.2627548 0.05055033 84
0.25249094 1.2558713 0.069953002 49
0.26426247 1.2366469 0.086664692 57
0.25576383 1.2505262 0.10952436 99
0.26302725 1.2386642 0.12687239 99
0.24836442 1.2626104 0.15477379 67
0.25504279 1.2553102 0.0099129668 87
0.26162606 1.2444783 0.029098792 100
0.25094649 1.26205 0.05037602 100
0.26235175 1.2432843 0.068003096 51
0.26888934 1.2325276 0.08572609 58
0.26449651 1.2397554 0.10685304 66
0.27571627 1.2212949 0.12192347 85
0.24397957 1.2735131 0.15787962 65
0.24977133 1.2684813 0.0101573 71
0.26353306 1.2456322 0.029098792 100
0.24161673 1.2820206 0.052293446 80
0.26015723 1.2512372 0.068978049 50
0.26769081 1.2387289 0.086664692 57
0.26030704 1.2509884 0.10914274 85
0.27250299 1.230739 0.12417299 83
0.2420164 1.281357 0.15995017 64
0.24937394 1.2729069 0.01022711 84
0.26613665 1.2448652 0.028994121 100
0.25047231 1.2710695 0.051073264 83
0.26175466 1.2521956 0.068978049 50
0.27127382 1.2362714 0.086038955 58
0.26089633 1.2536316 0.10952436 85
0.27603212 1.2283113 0.12327318 85
0.25655615 1.260892 -0.0099827768 86
0.25957331 1.2558448 0.15166797 69
0.26736858 1.2463843 0.0096686333 90
0.26669383 1.2475216 0.029098792 100
0.25721857 1.2634925 0.050201707 85
0.26031664 1.2582705 0.069709264 66
0.27382949 1.2354943 0.08572609 58
0.26250169 1.2545875 0.10952436 78
0.27158746 1.2392732 0.12597258 90
0.25527173 1.2667739 0.15477379 67
0.26590604 1.2524884 0.0097733475 89
0.27030569 1.2450163 0.028889447 100
0.25683483 1.2678944 0.05055033 84
0.26898786 1.2472544 0.068003096 68
0.27236781 1.2415141 0.086664692 57
0.26411024 1.2555382 0.10952436 78
0.27808902 1.2317976 0.12372308 83
0.26280192 1.2577603 0.15166797 69
0.27170953 1.2466189 0.0096337283 90
0.27204859 1.2460382 0.028889447 100
0.2546432 1.2758479 0.051247578 82
0.27073899 1.2482811 0.068003096 51
0.27409786 1.2425286 0.086664692 57
0.26787159 1.2531921 0.10876112 79
0.28273124 1.2277424 0.12237337 93
0.25290248 1.2788291 0.15787962 65
0.26827875 1.2561902 0.0098082526 74
0.27863544 1.2383168 0.028366089 100
0.26231572 1.2664812 0.050201707 85
0.27431706 1.2457694 0.067515619 51
0.28061819 1.234895 0.085100345 58
0.27045974 1.2524263 0.10837951 87
0.28522763 1.2269402 0.12192347 85
0.26527107 1.2613809 -0.0099129668 87
0.25846568 1.2731254 0.15580906 67
0.27006263 1.2572196 0.0098082526 74
0.27736872 1.2445035 0.028680105 100
0.27009282 1.257167 0.049155839 87
0.27210692 1.2536615 0.068490572 50
0.28527623 1.2307408 0.084161744 59
0.26440531 1.2670659 0.11143246 84
0.28787503 1.2262177 0.12147357 77
0.26508152 1.2658889 -0.0099827768 86
0.26608619 1.2641404 0.15270324 68
0.27068937 1.2598823 0.0098431576 88
0.27102968 1.2592854 0.029517479 100
0.26973617 1.2615541 0.049504463 86
0.27174586 1.2580293 0.068978049 50
0.28582716 1.2333322 0.084474608 59
0.27577934 1.250955 0.10761628 79
0.28456321 1.235549 0.12372308 92
0.27155381 1.2583661 0.15063268 70
0.2774072 1.2521988 0.0096686333 75
0.27675644 1.25335 0.029098792 100
0.2695787 1.2660469 0.049853086 85
0.27549025 1.2555897 0.068490572 50
0.2826665 1.2428954 0.086038955 58
0.28237474 1.2434115 0.10570818 81
0.28818935 1.2331259 0.12282328 85
0.2685504 1.2678659 -0.0099827768 86
0.26954284 1.2661103 0.15270324 68
0.27900773 1.2531 0.0096686333 75
0.2842235 1.2438018 0.02847076 100
0.27122518 1.2669741 0.049853086 85
0.2809867 1.2495722 0.067515619 51
0.28230333 1.247225 0.086664692 57
0.28010419 1.2511455 0.10723466 81
0.29163334 1.2305924 0.12192347 85
0.26835418 1.2720923 0.15425615 75
0.2807802 1.2540901 0.0096686333 75
0.28984478 1.2377908 0.028052073 100
0.26045987 1.2906286 0.052119136 81
0.28274623 1.2505549 0.067515619 51
0.28885472 1.2395711 0.085100345 58
0.27996108 1.255563 0.10799789 79
0.29521751 1.2281301 0.12102367 94
0.27397683 1.2663233 -0.0099129668 87
0.27113527 1.2714329 0.15373851 68
0.27948865 1.2602327 0.0097733475 89
0.28946757 1.2421484 0.028261416 100
0.27566406 1.2671638 0.049678773 86
0.28242317 1.2549146 0.068003096 51
0.2932764 1.2352459 0.084161744 59
0.27777871 1.2633315 0.10952436 78
0.29862112 1.2255599 0.12012386 86
0.28142089 1.256731 -0.0097035384 89
0.27466628 1.2689719 0.15270324 68
0.28704539 1.2506948 0.0095639192 91
0.28736576 1.2501091 0.028680105 100
0.27940047 1.26467 0.049330149 87
0.2822969 1.2593752 0.068490572 50
0.29213926 1.2413828 0.085100345 58
0.2842997 1.2557139 0.10761628 79
0.29935727 1.2281879 0.12057377 77
0.28128725 1.2612208 -0.0097733475 88
0.28113261 1.2615036 0.15011504 78
0.28959474 1.2498065 0.0095290141 76
0.28705391 1.2544881 0.028889447 100
0.2829431 1.2620624 0.048981529 87
0.2886557 1.2515367 0.067271881 34
0.29464611 1.2404991 0.084787481 59
0.29153073 1.2462394 0.10532656 75
0.29901895 1.232442 0.12147357 77
0.28368548 1.2606945 0.14959741 70
0.29230249 1.2489967 0.0094941091 92
0.29450899 1.2448953 0.028261416 100
0.28097257 1.2700562 0.049678773 86
0.29512486 1.2437506 0.066053182 52
0.29824409 1.2379527 0.084161744 59
0.28862721 1.2558281 0.10723466 81
0.28093347 1.270129 -0.0099129668 87
0.2836552 1.26507 0.15063268 70
0.28824288 1.2604336 0.0097035384 90
0.2923235 1.2527881 0.028680105 100
0.28638482 1.2639148 0.048981529 87
0.29108912 1.2551007 0.067515619 51
0.29793701 1.2422704 0.084787481 59
0.29393739 1.2497642 0.10570818 73
0.28259346 1.2710184 -0.0099129668 87
0.28165987 1.2727675 0.15270324 68
0.29097727 1.259622 0.0096686333 75
0.29596266 1.2501984 0.02847076 100
0.28819689 1.2648777 0.048981529 87
0.29472536 1.2525371 0.067028143 51
0.29569751 1.2506995 0.10570818 73
0.28817198 1.2649248 -0.0097733475 88
0.2907314 1.2600868 0.14856213 71
0.29817775 1.2498542 0.009459204 62
0.29076526 1.263979 0.048807215 58
0.29079223 1.2639275 0.068490572 50
0.29911757 1.2480633 0.10494494 82
0.28795618 1.2693317 -0.0098431576 87
0.29235801 1.2609439 0.14856213 71
0.29809272 1.2543221 0.0095290141 76
0.29563478 1.2590477 0.028889447 100
0.29717433 1.2560878 0.047935657 89
0.29443631 1.2613519 0.068003096 51
0.29071081 1.2685146 -0.0098082526 99
0.29415914 1.2618849 0.14856213 79
0.29696065 1.2604648 0.048284281 59
0.29136297 1.2713147 0.15115032 77
0.29502073 1.2684877 0.0097733475 100
0.29504499 1.2684402 0.048981529 58
0.29399422 1.2704946 0.15063268 70
0.29495347 1.2729417 0.0098431576 100
0.29412255 1.2745802 0.069465525 66
0.29495347 1.2729417 -0.0098431576 100
0.29760882 1.2720423 0.0098082526 100
0.29760882 1.2720423 -0.0098082526 100
0.29490307 1.2818689 -0.0099827768 100
