# .PCD v0.7 - Point Cloud Data file format
VERSION 0.7
FIELDS x y z intensity
SIZE 4 4 4 4
TYPE F F F F
COUNT 1 1 1 1
WIDTH 733
HEIGHT 1
VIEWPOINT 0 0 0 1 0 0 0
POINTS 733
DATA ascii
-1.1155462 0.15638272 0.059034958 30
-1.1638581 0.16729982 0.020524031 33
-1.0406096 0.1532927 0.018359931 6
-1.0084311 0.15215082 0.017801454 4
-1.0256802 0.15841709 0.018115599 1
0.054887921 0.0032067895 0.047835063 61
0.054525763 0.0082014203 0.047625721 44
0.047490418 0.0032536983 0.04804441 29
0.043850243 0.0032574534 0.048149079 100
0.043613136 0.009267509 0.015951499 4
0.041713238 0.011875749 0.047835063 65
0.047026038 0.025151968 0.047102362 30
0.042312384 0.023521006 0.047311705 20
0.038320363 0.023828685 0.047416378 9
0.03130877 0.018955886 0.047835063 9
0.026277542 0.017583549 0.04804441 9
0.026078224 0.022595286 0.047835063 9
-1.0600603 1.1387529 0.028831376 6
-1.0035868 1.1258188 0.083528183 5
-1.0289304 1.1316233 0.14171524 6
-1.0178626 1.134853 0.028098375 10
-1.0023353 1.1312397 0.083528183 26
-1.0121343 1.13352 0.14032075 37
-0.99121696 1.1346123 0.027644612 30
-1.0010009 1.1369269 0.083528183 88
-1.0185468 1.1410778 0.14101799 84
-0.98021299 1.1376541 0.027470088 38
-1.0016525 1.1428052 0.083632857 100
-1.017242 1.1465508 0.14101799 95
-0.98869938 1.1450944 0.027644612 40
-0.98100346 1.1432184 0.082586139 100
-1.0159848 1.1517459 0.14101799 87
-1.0048509 1.1547867 0.027958754 22
-0.97775251 1.1480806 0.082481466 100
-0.99336809 1.151945 0.13910057 91
-0.97634608 1.1533916 0.027470088 25
-0.97836059 1.1538976 0.082586139 50
-0.98816067 1.1563592 0.13875194 84
-0.9614343 1.1552597 0.027225753 44
-0.98475271 1.1612036 0.083004825 35
-0.98680264 1.1617261 0.13875194 82
-0.96395224 1.1615347 0.027295563 61
-0.97757691 1.1650583 0.082690813 65
-0.97771019 1.1650927 0.1380547 91
-0.95870787 1.1658021 0.027225753 67
-0.96459728 1.1673472 0.082062781 100
-0.98017615 1.1714342 0.13840333 92
-0.96504694 1.1731228 0.027365373 78
-0.95548064 1.1705774 0.081644088 92
-0.96721321 1.1736991 0.13735744 100
-0.95590788 1.1763251 0.027225753 88
-0.95600146 1.1763504 0.081748761 98
-0.96002394 1.1774358 0.13683452 100
-0.94676512 1.1794686 0.027086135 96
-0.96035331 1.1831858 0.082062781 100
-0.96051437 1.1832299 0.13700883 100
-0.94532663 1.1846907 0.027086135 96
-0.94158024 1.1836518 0.081120729 100
-0.97058231 1.1916947 0.1380547 91
-0.94387001 1.1899079 0.027086135 93
-0.93628174 1.1877749 0.08091139 86
-0.95951074 1.1943043 0.13718314 98
-0.95585746 1.1989548 0.027330469 72
-0.93673521 1.1935077 0.081016064 72
-0.94652349 1.1962959 0.13613728 100
-0.9562723 1.2047632 0.027365373 53
-0.93524784 1.1986947 0.081016064 38
-0.93736929 1.1993071 0.13544002 98
-0.93747157 1.2049671 0.027051231 49
-0.92990845 1.2027555 0.080806717 22
-0.94733554 1.2078515 0.13648589 84
-0.92459255 1.2062343 0.026841801 71
-0.92471117 1.2062695 0.080597371 26
-0.94213146 1.2114229 0.13613728 85
-0.91922969 1.2102311 0.026771991 74
-0.91361326 1.2085482 0.080074012 34
-0.9443987 1.2177725 0.13648589 94
-0.92342466 1.217099 0.026876707 78
-0.91780704 1.2153943 0.080388032 84
-0.92566758 1.2177795 0.1349171 100
-0.91420895 1.2198901 0.026737086 85
-0.91815263 1.2211018 0.080492698 100
-0.92028648 1.2217574 0.13456847 99
-0.90109426 1.2216877 0.026527658 89
-0.91648942 1.2264798 0.080492698 86
-0.92052323 1.2277354 0.13474278 73
-0.90332323 1.2279522 0.026597468 88
-0.90726727 1.229195 0.080074012 68
-0.92271703 1.2340633 0.13509139 49
-0.9055261 1.2342377 0.026667276 85
-0.89994711 1.2324584 0.07976 80
-0.91918999 1.2385958 0.1349171 43
-0.90770274 1.2405442 0.026737086 88
-0.89642328 1.2369032 0.079655327 91
-0.91185719 1.2418852 0.13439415 45
-0.89464623 1.2419041 0.026527658 96
-0.90048033 1.2438098 0.079969339 100
-0.9026255 1.2445107 0.13369691 63
-0.88159817 1.2431786 0.02631823 99
-0.89692122 1.2482433 0.079864666 100
-0.91231066 1.2533299 0.13474278 82
-0.88002115 1.2479234 0.02631823 100
-0.88585597 1.2498734 0.079341307 100
-0.90503091 1.2562819 0.13421984 84
-0.88213295 1.2541931 0.026388038 93
-0.88038808 1.2536032 0.079131968 100
-0.91087431 1.2639104 0.1349171 78
-0.88051933 1.2589395 0.026388038 92
-0.88066643 1.2589898 0.079236634 100
-0.89603132 1.2642415 0.13369691 91
-0.87124413 1.2613167 0.02624842 89
-0.88083845 1.2646334 0.079341307 100
-0.882999 1.2653803 0.13265105 95
-0.86196989 1.2636349 0.0261088 77
-0.88098854 1.2702841 0.07944598 91
-0.89818794 1.2762971 0.13421984 54
-0.86212343 1.2692271 0.026143705 75
-0.85851997 1.2679533 0.07829459 55
-0.9039256 1.2840054 0.1349171 38
-0.8714928 1.2786882 0.026353134 88
-0.84155375 1.2679744 0.077457212 19
-0.89443773 1.2868991 0.13421984 38
-0.86406726 1.2816061 0.02624842 99
-0.85858816 1.2796237 0.078503937 48
-0.87950987 1.2871931 0.13299966 22
-0.85494 1.2833011 0.0261088 99
-0.85698026 1.2840464 0.078503937 85
-0.85354978 1.282793 0.13073361 15
-0.8381328 1.2826598 0.025829561 100
-0.85892445 1.2903385 0.078713275 100
-0.87791723 1.2973528 0.13317397 7
-0.84008175 1.2889009 0.025899371 100
-0.83838814 1.2882686 0.077666558 76
-0.87233454 1.3009404 0.13282534 1
-0.84200388 1.2951617 0.025969181 100
-0.82348973 1.2881768 0.076933853 49
-0.86301607 1.3030889 0.1321281 1
-0.84567481 1.3023982 0.026073895 75
-0.8346439 1.2981904 0.077666558 53
-0.84057564 1.3004531 0.13021068 13
-0.82888097 1.301513 0.025794657 74
-0.83465534 1.3037388 0.077771232 68
-0.84801084 1.3088869 0.13108224 52
-0.82338387 1.3046317 0.025724847 75
-0.83473903 1.309052 0.077875905 70
-0.85364288 1.316411 0.13177948 100
-0.82346445 1.3099146 0.025759751 96
-0.81993228 1.3085262 0.0771432 61
-0.84811467 1.3196048 0.13143086 97
-0.82528836 1.3161819 0.025829561 100
-0.82175654 1.3147793 0.077352546 89
-0.84248418 1.3230109 0.13108224 97
-0.82346958 1.3207395 0.025829561 100
-0.82179624 1.3200685 0.077457212 95
-0.83509487 1.3254011 0.1305593 100
-0.81402868 1.3227656 0.025689943 100
-0.81977099 1.3250927 0.077457212 95
-0.82566386 1.3274808 0.12986206 100
-0.80478495 1.3242571 0.025550323 100
-0.81792265 1.3296319 0.077457212 100
-0.81827551 1.3297763 0.12933913 100
-0.80274433 1.3292189 0.025550323 100
-0.79740471 1.3270116 0.076410495 100
-0.82357973 1.3378322 0.13003637 100
-0.77635509 1.3183098 0.17622307 16
-0.81195527 1.3383222 0.025759751 100
-0.78817731 1.3284001 0.075991809 100
-0.82720524 1.3446858 0.1305593 100
-0.76353759 1.3181183 0.17476064 15
-0.80249256 1.3402028 0.025620133 100
-0.79716402 1.3379564 0.076619841 100
-0.81040245 1.3435376 0.12916481 100
-0.79078668 1.3352678 0.17866045 28
-0.79691416 1.3431189 0.025550323 89
-0.79343539 1.3416386 0.076515168 67
-0.8011598 1.3449254 0.12846756 100
-0.77063864 1.3319385 0.17622307 16
-0.80950195 1.3543692 0.025829561 55
-0.82435995 1.3607557 0.078399263 48
-0.81917852 1.3585286 0.130385 28
-0.77768892 1.3406947 0.17744176 3
-0.80939108 1.35967 0.025864467 90
-0.80407029 1.357362 0.077352546 97
-0.83549768 1.3709943 0.1321281 58
-0.77396804 1.3443043 0.17719802 15
-0.79806274 1.360636 0.025689943 100
-0.80190843 1.3623209 0.077352546 100
-0.82233614 1.3712711 0.13108224 100
-0.7736724 1.3499497 0.17744176 33
-0.81438607 1.3731887 0.026038991 100
-0.79811007 1.3659933 0.077247873 100
-0.81304568 1.3725963 0.130385 100
-0.79897565 1.3663759 0.18109785 40
-0.79208046 1.3692175 0.025655037 100
-0.81233019 1.3782587 0.078189917 100
-0.7980929 1.371902 0.12916481 100
-0.78046709 1.3640323 0.17890419 26
-0.7827931 1.3703794 0.025515418 100
-0.81030566 1.3827729 0.078189917 100
-0.79972261 1.3780057 0.12951343 100
-0.74953109 1.355396 0.17500438 20
-0.79343182 1.3808218 0.025759751 100
-0.80088586 1.3842111 0.077771232 100
-0.80484694 1.3860121 0.13021068 100
-0.76012927 1.36568 0.17671055 16
-0.79685169 1.3877746 0.025864467 100
-0.79339534 1.3861892 0.077457212 100
-0.81547362 1.3963161 0.13143086 100
-0.76897269 1.374987 0.17817298 14
-0.79820746 1.3943876 0.025934275 100
-0.80381423 1.3969842 0.078189917 100
-0.80051345 1.3954556 0.13021068 100
-0.77034909 1.3814857 0.17866045 14
-0.79794127 1.3997014 0.025969181 100
-0.81258494 1.4065423 0.078817949 100
-0.79482168 1.398244 0.12986206 100
-0.77550811 1.3892215 0.17963541 5
-0.78477246 1.3995196 0.025759751 100
-0.81385559 1.413236 0.079027295 100
-0.80152017 1.4074183 0.13073361 100
-0.76066166 1.3881481 0.17792924 3
-0.79531819 1.4099554 0.026004085 100
-0.79908985 1.4117496 0.07829459 100
-0.80479652 1.4144641 0.13125655 100
-0.79656881 1.4166131 0.026073895 100
-0.79312783 1.4149607 0.078085244 100
-0.81499773 1.4254625 0.13247673 100
-0.80341595 1.4254329 0.02624842 100
-0.80176705 1.4246343 0.078713275 100
-0.807437 1.4273802 0.13195379 100
-0.79022533 1.4251199 0.026038991 100
-0.80115288 1.4304615 0.078817949 100
-0.79785854 1.4288511 0.13125655 100
-0.78434342 1.4280252 0.025969181 100
-0.79704803 1.4342905 0.078713275 100
-0.80984586 1.4406018 0.13265105 100
-0.78919977 1.4362419 0.0261088 100
-0.79829735 1.4407678 0.078922622 100
-0.80749685 1.4453444 0.13265105 100
-0.79401499 1.4445002 0.02624842 100
-0.79773277 1.4463661 0.079027295 100
-0.81403476 1.4545472 0.1335226 100
-0.79902714 1.4523294 0.026388038 100
-0.79738349 1.4514982 0.079131968 100
-0.80120999 1.4534335 0.13247673 100
-0.79307455 1.4552166 0.02631823 100
-0.80211288 1.4598279 0.079550654 100
-0.79881614 1.458146 0.13247673 100
-0.78356224 1.4562408 0.02617861 100
-0.79969662 1.4645435 0.079550654 100
-0.80880696 1.4692316 0.13369691 100
-0.79535764 1.4682611 0.026457848 100
-0.79371864 1.4674103 0.079341307 100
-0.81343144 1.4776417 0.13439415 100
-0.79633242 1.4750428 0.026527658 99
-0.7946921 1.4741838 0.079550654 100
-0.82318383 1.4891043 0.13561434 100
-0.80093604 1.4834735 0.026667276 88
-0.78869361 1.4770079 0.079341307 100
-0.80128568 1.4836582 0.13369691 100
-0.79878634 1.4883707 0.13369691 43
0.12836489 1.2925382 0.13051336 5
0.15615714 1.2615962 0.010995016 12
0.13790539 1.2843782 0.03454173 27
0.14140162 1.2800142 0.057174169 23
0.13006949 1.2941589 0.10637543 10
0.15474167 1.263363 0.122881 24
0.18690625 1.2232151 0.13407083 7
0.1622718 1.2539639 0.16616182 7
0.16161004 1.2582731 0.010890301 78
0.16332656 1.2561152 0.032552965 59
0.14938584 1.2736411 0.056302611 48
0.16197482 1.2578145 0.076533951 14
0.16264424 1.2569729 0.09855371 24
0.15646625 1.2647398 0.122881 85
0.18727735 1.2260048 0.13452072 15
0.14472181 1.2795045 0.17444403 21
0.15711996 1.2674724 0.011064826 100
0.16997722 1.2511923 0.032134276 100
0.1474418 1.2797271 0.056825545 100
0.16244966 1.2607238 0.076777689 29
0.1802623 1.2381692 0.094486415 26
0.15454525 1.2707326 0.12402584 100
0.18887132 1.2272682 0.13452072 46
0.15129206 1.2748518 0.17237349 42
0.17366546 1.2499572 0.010645968 100
0.17412397 1.2493725 0.031924933 100
0.15905854 1.2685862 0.055431053 100
0.17151421 1.2527008 0.075315252 30
0.179461 1.2425659 0.095112152 25
0.17083231 1.2535704 0.11944643 100
0.18445748 1.2361937 0.13677025 37
0.16259295 1.2640785 0.16823238 52
0.17042959 1.2575797 0.010785587 100
0.18929532 1.2333455 0.030773543 96
0.15468183 1.2778085 0.056302611 96
0.17198205 1.2555854 0.07555899 30
0.1665515 1.2625613 0.098866582 24
0.18337658 1.2409484 0.11601187 100
0.17890453 1.2466931 0.13946965 29
0.15007946 1.2837205 0.17444403 42
0.16706955 1.2650969 0.010925206 65
0.17120188 1.2597541 0.032448292 59
0.16237384 1.271168 0.055431053 49
0.18079633 1.2473493 0.07409656 30
0.16568375 1.2668886 0.099492319 24
0.1875574 1.2386078 0.13677025 22
0.14578575 1.2926149 0.17703223 27
0.17367166 1.2600863 0.010785587 65
0.17656296 1.256321 0.032134276 30
0.16655248 1.2693574 0.055082429 50
0.18609184 1.2439117 0.073365346 46
0.18306059 1.2478592 0.095425025 51
0.18292099 1.2480412 0.11715672 13
0.19869021 1.2275051 0.13317102 23
0.14290622 1.3001517 0.17910278 59
0.17062217 1.2678243 0.010925206 52
0.15655726 1.2862804 0.034018371 27
0.15751654 1.2850217 0.056651235 47
0.18903446 1.2436634 0.073121607 62
0.19918245 1.2303472 0.091670595 54
0.18824551 1.2446988 0.11601187 13
0.20273179 1.2256896 0.13227122 39
0.1706129 1.2678365 0.16771474 67
0.17718825 1.2627667 0.010785587 52
0.16800213 1.2749085 0.033180997 28
0.17374191 1.2673219 0.054559495 50
0.18470156 1.252836 0.074340299 61
0.19721597 1.2362949 0.092609204 53
0.19701186 1.2365646 0.11372216 13
0.20902762 1.2206827 0.13047162 40
0.18167761 1.2568328 0.16357364 69
0.18379945 1.2577333 0.010645968 40
0.16985527 1.2763052 0.033180997 28
0.17437094 1.2702909 0.054733805 50
0.19481692 1.2430594 0.072634131 63
0.18350866 1.2581207 0.096676499 50
0.20226061 1.2331454 0.1125773 13
0.21068174 1.2219296 0.13047162 40
0.18114457 1.2612693 0.16460891 69
0.1855042 1.2590086 0.010645968 66
0.18356106 1.2616155 0.032134276 30
0.17731029 1.2700016 0.054559495 50
0.19647038 1.2442963 0.072634131 63
0.18993691 1.2530618 0.095425025 76
0.20622599 1.2312082 0.11181407 14
0.21691981 1.2168614 0.128672 32
0.1805526 1.2656517 0.16564418 68
0.18823227 1.2585442 0.010611063 94
0.20887882 1.2306625 0.03004084 66
0.18125427 1.2679676 0.054210871 76
0.18851149 1.2581673 0.074584037 100
0.20321178 1.2383153 0.092296332 80
0.20533994 1.2354414 0.1125773 13
0.22412381 1.210075 0.12642249 33
0.18326122 1.2652574 0.16512655 68
0.17691132 1.2775273 0.010995016 100
0.20694003 1.2366781 0.030354854 65
0.18535492 1.2660412 0.053862248 100
0.18786618 1.262625 0.075071514 90
0.20718864 1.2363398 0.091670595 81
0.20464107 1.2398055 0.11334054 13
0.21181121 1.2300515 0.13182132 23
0.19071335 1.2587519 0.16253836 70
0.19173747 1.2611206 0.010611063 94
0.20276749 1.2460001 0.030878214 63
0.19422057 1.2577165 0.05281638 100
0.19903329 1.2511191 0.073121607 93
0.20424351 1.2439767 0.092922069 100
0.20752233 1.2394819 0.11295892 13
0.2456567 1.1872059 0.11922406 17
0.19592267 1.2553833 0.16098544 72
0.20518246 1.2461717 0.010262015 98
0.20911685 1.2407386 0.030459527 65
0.18307099 1.2767063 0.054733805 75
0.19955057 1.253949 0.073365346 100
0.20937586 1.2403809 0.091983467 93
0.21261767 1.2359042 0.11181407 14
0.2333993 1.207206 0.12462288 16
0.19195384 1.2644397 0.16357364 69
0.20442846 1.2505596 0.010331824 84
0.21067974 1.2418665 0.030459527 65
0.19289577 1.2665973 0.053513627 100
0.21158785 1.2406037 0.071171694 97
0.2051712 1.2495267 0.093547814 100
0.20957971 1.2433962 0.11334054 13
0.22006047 1.2288214 0.13047162 16
0.19697902 1.260919 0.16202073 78
0.20378444 1.2550181 0.010401634 83
0.21697044 1.2365457 0.03004084 66
0.19000116 1.2743273 0.054210871 100
0.20631275 1.2514762 0.072634131 78
0.21488085 1.239473 0.09135773 94
0.20781237 1.2493753 0.1144854 20
0.23864698 1.2061787 0.12372308 16
0.1930829 1.27001 0.16460891 69
0.19614357 1.2692149 0.010680873 93
0.21389946 1.2441652 0.030459527 97
0.20089293 1.2625146 0.05281638 100
0.20791125 1.2526133 0.072634131 78
0.21872419 1.2373586 0.090731993 100
0.20145667 1.2617192 0.11715672 26
0.22995275 1.2215174 0.1277722 16
0.20032874 1.2633106 0.16202073 70
0.20479247 1.2606344 0.010471444 96
0.22015381 1.2388017 0.03004084 99
0.20261425 1.2637303 0.05281638 100
0.20959798 1.2538044 0.072634131 78
0.2203576 1.238512 0.090731993 100
0.19639689 1.2725668 0.11944643 76
0.22592396 1.2306007 0.13002171 40
0.20649946 1.2582083 0.15995017 72
0.21337706 1.2519996 0.010262015 98
0.21950507 1.2432251 0.030250182 98
0.2020582 1.2682067 0.053165004 100
0.21924514 1.2435973 0.070927955 65
0.21973291 1.2428989 0.09135773 94
0.20827031 1.2593118 0.11601187 100
0.21525991 1.2493036 0.13497064 83
0.20599347 1.2625721 0.16098544 72
0.21734008 1.2498848 0.010192205 99
0.22457254 1.2394515 0.029936166 99
0.20152923 1.2726932 0.053513627 100
0.21185291 1.2578006 0.072877869 100
0.21913487 1.2472959 0.091983467 100
0.21669134 1.2508208 0.11372216 96
0.22692698 1.2360551 0.13092151 88
0.20551378 1.2669451 0.16202073 70
0.20768219 1.2675172 0.010541254 95
0.22960958 1.2356484 0.029622151 100
0.20102736 1.2771893 0.053862248 100
0.22255951 1.2458949 0.070927955 65
0.22752124 1.2386836 0.090106249 100
0.21837175 1.2519813 0.11372216 89
0.23628813 1.225942 0.1277722 97
0.2039654 1.2729192 0.16357364 69
0.21393192 1.2621037 0.010401634 83
0.23461607 1.2318159 0.029308135 68
0.21178889 1.2652417 0.052467756 100
0.21638611 1.25851 0.072634131 63
0.23138729 1.2365439 0.089480512 100
0.21230584 1.2644848 0.11639348 100
0.23018852 1.2382991 0.13092151 96
0.21552837 1.259766 0.15891489 73
0.22350556 1.2516868 0.0101573 42
0.22390333 1.2510999 0.030459527 65
0.21240181 1.2680686 0.05264207 79
0.22032094 1.2563852 0.072146654 79
0.22525945 1.2490993 0.091670595 100
0.22945535 1.242909 0.11105084 84
0.23510528 1.2345734 0.12957181 96
0.21724001 1.2609305 0.15891489 73
0.2207242 1.2594603 0.010296919 42
0.21666604 1.2654927 0.031296901 31
0.22192723 1.2576721 0.051421888 55
0.22756094 1.2492976 0.070927955 97
0.23575473 1.2371178 0.089167647 100
0.23439562 1.2391381 0.10990598 85
0.23346561 1.2405205 0.13092151 96
0.2189557 1.2620891 0.15891489 73
0.22030017 1.2639904 0.010366729 41
0.22513685 1.2567436 0.03066887 32
0.22150475 1.2621856 0.051770512 54
0.23152381 1.247174 0.070440479 98
0.23417911 1.2431955 0.090106249 96
0.23393747 1.2435576 0.11066922 85
0.24060136 1.2335731 0.128672 97
0.21861663 1.2665129 0.15995017 80
0.21540079 1.275141 0.010576159 40
0.24227908 1.2345632 0.029203463 34
0.21442276 1.2766175 0.053165004 52
0.23428762 1.2466278 0.07019674 99
0.23801452 1.2410014 0.089480512 97
0.2334241 1.2479315 0.11143246 98
0.24114528 1.2362748 0.1291219 96
0.21821818 1.2708876 0.16098544 72
0.22375688 1.2662801 0.010366729 27
0.21098888 1.2857027 0.032343622 30
0.23260996 1.2528129 0.05055033 56
0.2337724 1.2510445 0.070684217 81
0.24834135 1.2288823 0.086977564 100
0.231859 1.2539551 0.1125773 89
0.23849288 1.2438637 0.13092151 96
0.22739697 1.2607428 0.15736198 74
0.22330597 1.2707655 0.010436539 41
0.21279109 1.286883 0.032343622 30
0.23429722 1.2539177 0.05055033 56
0.23328421 1.2554705 0.071171694 97
0.24238965 1.2415135 0.089167647 100
0.24213192 1.2419086 0.10952436 85
0.24547276 1.2367876 0.128672 89
0.23122305 1.2586299 0.1563267 74
0.22931659 1.2651324 0.010296919 42
0.23405024 1.2578237 0.030459527 32
0.22940513 1.2649957 0.051596198 54
0.2392123 1.2498535 0.07019674 66
0.24395493 1.2425309 0.089167647 84
0.24690029 1.2379833 0.10837951 94
0.24702236 1.2377949 0.128672 97
0.22759426 1.2677917 0.15891489 73
0.23753408 1.2561556 0.010087491 71
0.24331418 1.2471626 0.029726824 67
0.23436669 1.2610836 0.051073264 55
0.24840233 1.239246 0.068490572 50
0.24987844 1.2369494 0.087916173 84
0.24535123 1.2439932 0.10952436 85
0.25497898 1.2290136 0.12597258 99
0.23037836 1.2672889 0.15839726 73
0.23914793 1.257189 0.010087491 43
0.25349259 1.2347071 0.028889447 69
0.23385355 1.2654868 0.051421888 55
0.24355349 1.2502844 0.069953002 49
0.25142854 1.2379421 0.087916173 70
0.24586871 1.2466558 0.10990598 71
0.25650275 1.2299894 0.12597258 90
0.22891182 1.2732319 0.15995017 72
0.238711 1.2616502 0.0101573 85
0.24977443 1.2441766 0.029412808 100
0.23771667 1.2632207 0.051073264 83
0.24098423 1.2580599 0.070927955 48
0.25940406 1.2289677 0.086038955 58
0.24228325 1.2560081 0.11181407 84
0.25602528 1.2343041 0.12687239 90
0.23273724 1.2710853 0.15891489 65
0.24476916 1.2560141 0.010017681 72
0.25470108 1.2401997 0.029098792 100
0.24376506 1.2576129 0.05037602 84
0.24488664 1.2558271 0.070440479 65
0.25898704 1.2333753 0.086664692 71
0.24093419 1.2621205 0.11295892 82
0.25876543 1.2337282 0.12642249 90
0.23971313 1.2640648 0.1563267 74
0.25281316 1.2468939 0.0098082526 74
0.24789366 1.2547882 0.029936166 99
0.24230781 1.2637517 0.050898954 83
0.25288364 1.2467808 0.068978049 50
0.25642732 1.2410942 0.087916173 56
0.26134387 1.2332046 0.1060898 88
0.25729397 1.2397035 0.1277722 81
0.23633102 1.2733426 0.15891489 65
0.24606624 1.2615348 0.010087491 71
0.25799087 1.2422498 0.029098792 100
0.23355487 1.2817688 0.05264207 79
0.25663772 1.2444382 0.068490572 50
0.25599575 1.2454764 0.08854191 56
0.24850738 1.257587 0.11143246 84
0.26713431 1.2274626 0.12417299 83
0.23808992 1.2744344 0.15891489 65
0.25092107 1.2574793 0.0099827768 87
0.25755218 1.2466711 0.029308135 100
0.23951086 1.2760773 0.051944822 81
0.25621942 1.2488434 0.068978049 50
0.26385534 1.2363973 0.086664692 57
0.25637126 1.2485958 0.10914274 71
0.26669472 1.2317693 0.12507279 92
0.23581162 1.2821068 0.16098544 64
0.25253925 1.2584684 0.0099827768 87
0.26121211 1.2442265 0.029098792 100
0.24948096 1.2634906 0.05055033 100
0.25471151 1.2549013 0.069709264 49
0.26540354 1.2373437 0.086664692 57
0.25081214 1.2613046 0.11181407 84
0.26620042 1.2360351 0.12597258 90
0.25253925 1.2584684 -0.0099827768 86
0.24354029 1.2732459 0.15787962 65
0.25631434 1.2560806 0.0099129668 87
0.26080352 1.2486506 0.029308135 100
0.25532669 1.2577153 0.049853086 85
0.24922004 1.2678225 0.071415432 48
0.26805815 1.2366434 0.086351827 58
0.25658998 1.2556245 0.1102876 85
0.27185994 1.2303511 0.12417299 83
0.25129291 1.2643917 0.15477379 67
0.26418161 1.246812 0.0097035384 90
0.25836861 1.2565094 0.029726824 100
0.2549822 1.2621588 0.050201707 85
0.26116577 1.2518431 0.068978049 67
0.26664189 1.2427077 0.087290429 71
0.26434323 1.2465423 0.10799789 87
0.26946086 1.2380049 0.12597258 90
0.2530205 1.2654314 0.15477379 67
0.26278135 1.2529629 0.0098082526 89
0.26211038 1.2540911 0.029517479 100
0.25262836 1.2700354 0.050898954 100
0.26792282 1.2443175 0.067759357 85
0.27334216 1.2352047 0.08572609 58
0.26199439 1.2542863 0.10952436 78
0.28105706 1.2222321 0.12147357 86
0.24685207 1.2797483 0.15891489 65
0.26235163 1.257357 0.0098780617 73
0.26980841 1.2447231 0.028889447 100
0.25428817 1.2710187 0.050898954 83
0.26142523 1.2589266 0.069709264 66
0.27589044 1.2344184 0.085413218 58
0.26160613 1.25862 0.1102876 78
0.28156766 1.2247996 0.12192347 93
0.25345382 1.2724323 0.1563267 74
0.26203376 1.2618093 0.0099478718 73
0.2755039 1.2388041 0.02847076 100
0.26107243 1.2634512 0.050027397 85
0.26112759 1.263357 0.07019674 66
0.2854982 1.2217351 0.082910269 60
0.26529747 1.2562354 0.10952436 85
0.28315684 1.2257339 0.12192347 85
0.26304418 1.2600837 -0.0099129668 87
0.2542333 1.2751316 0.15684435 66
0.2668505 1.2576735 0.0098431576 88
0.27020404 1.2518977 0.029203463 100
0.267885 1.2558918 0.049155839 87
0.26891825 1.2541122 0.068734311 33
0.28120446 1.2329514 0.084787481 59
0.27201042 1.2487864 0.10761628 79
0.28385049 1.2283942 0.12237337 93
0.26283419 1.2645909 -0.0099827768 86
0.26287678 1.2645175 0.15322088 68
0.27554077 1.2465291 0.0095988233 76
0.27487832 1.2476792 0.028889447 100
0.26560527 1.2637796 0.049853086 85
0.27358207 1.2499299 0.068003096 51
0.27887851 1.2407339 0.086038955 72
0.27466324 1.2480527 0.10723466 81
0.278644 1.2411411 0.12552269 90
0.25978383 1.2738869 0.15580906 67
0.27720582 1.2474842 0.0095988233 76
0.27654743 1.2486367 0.028889447 100
0.25942376 1.278609 0.051247578 82
0.28116742 1.24055 0.066540658 52
0.28052333 1.2416774 0.086038955 58
0.26951632 1.2609435 0.10990598 85
0.28802386 1.228549 0.12192347 85
0.2615445 1.274897 0.15580906 67
0.27295876 1.258872 0.0098082526 89
0.27821985 1.2495883 0.028889447 100
0.26611248 1.2709532 0.05037602 84
0.27302447 1.2587562 0.068978049 50
0.28801498 1.2323036 0.084161744 59
0.27123174 1.2619196 0.10990598 78
0.29154766 1.2260698 0.12102367 77
0.26235622 1.2775815 0.1563267 66
0.27662659 1.2563498 0.0097384425 90
0.28576741 1.2400876 0.028261416 100
0.27469662 1.2597834 0.049155839 87
0.27862296 1.2527981 0.068003096 51
0.2886624 1.2349373 0.084474608 59
0.27776045 1.2543325 0.10799789 79
0.29218635 1.228668 0.12147357 86
0.27368709 1.2615794 -0.0098431576 87
0.26791611 1.2718463 0.15425615 67
0.28124717 1.2520612 0.0096337283 90
0.28157461 1.2514739 0.028889447 100
0.28319925 1.2485598 0.047935657 89
0.27644336 1.2606778 0.068978049 50
0.29028693 1.2358468 0.084474608 59
0.27754074 1.2587094 0.10876112 87
0.29284003 1.2312672 0.12192347 85
0.27345723 1.2660341 -0.0099129668 87
0.27343243 1.2660785 0.1521856 69
0.28583443 1.2477465 0.0095290141 76
0.28325689 1.252408 0.028889447 100
0.28005084 1.2582061 0.048807215 88
0.28200009 1.2546809 0.068003096 51
0.28522351 1.2488513 0.086664692 57
0.28589836 1.2476308 0.1060898 81
0.29162279 1.2372782 0.12327318 76
0.27422276 1.2687464 -0.0099478718 75
0.27516577 1.267041 0.1521856 69
0.28269607 1.2574325 0.0097035384 90
0.2859028 1.251585 0.028784776 100
0.28079864 1.2608924 0.048981529 87
0.2894206 1.2451701 0.066540658 52
0.28689662 1.2497727 0.086664692 57
0.28379121 1.2554355 0.10761628 79
0.29981464 1.2262166 0.12012386 77
0.27504462 1.271385 0.15322088 68
0.28622532 1.2548032 0.0096337283 90
0.29513755 1.2384229 0.0279474 100
0.2710014 1.2827839 0.051073264 83
0.28910029 1.2495191 0.067028143 51
0.29037723 1.2471721 0.086038955 58
0.28258756 1.2614892 0.10876112 87
0.27857968 1.2688553 -0.0099129668 87
0.27578551 1.2739909 0.15373851 76
0.27842352 1.2733195 0.0099827768 87
0.29487738 1.2428252 0.028156744 100
0.28320014 1.2644669 0.049155839 87
0.28889045 1.2539209 0.067515619 51
0.29673454 1.2393832 0.084474608 59
0.2843048 1.2624196 0.10876112 79
0.27937308 1.2715597 -0.0099478718 96
0.28213319 1.2664443 0.15115032 77
0.28961629 1.2566328 0.0096337283 90
0.28899124 1.2578009 0.028994121 100
0.28774768 1.260125 0.048632905 88
0.29432738 1.2478282 0.066540658 52
0.29250887 1.2512268 0.1060898 73
0.29900938 1.2390779 0.12282328 85
0.28206894 1.2707381 -0.0099129668 97
0.28660199 1.2622663 0.14959741 78
0.29600284 1.2487066 0.009459204 77
0.29912063 1.2428304 0.028052073 100
0.28759247 1.2645575 0.048981529 87
0.29320562 1.2539785 0.067271881 86
0.29816589 1.2446299 0.085100345 58
0.29695079 1.2469199 0.10494494 67
0.28379461 1.2717153 0.1521856 69
0.29953754 1.2460508 0.0093893949 93
0.29612288 1.2525411 0.028575432 100
0.29117578 1.2619439 0.048632905 88
0.29397228 1.2566286 0.067515619 51
0.29953119 1.2460629 0.10456333 82
0.28370908 1.2761358 -0.0099827768 86
0.28734654 1.2692221 0.15115032 69
0.29657629 1.2557869 0.0095639192 91
0.28920847 1.2699103 0.049330149 87
0.29750881 1.2539994 0.067028143 51
0.29102686 1.2664247 -0.0097733475 88
0.28730372 1.2735615 0.1521856 69
0.29827353 1.2566686 0.0095639192 91
0.29919323 1.2548904 0.047761347 60
0.2973758 1.2584041 0.067515619 51
0.29925296 1.254775 0.1060898 66
0.29092386 1.2708778 -0.0098431576 100
0.29083815 1.2710435 0.15115032 69
0.29814887 1.261103 0.0096337283 90
0.29997817 1.2575359 0.047935657 59
0.28993633 1.2771173 -0.0099478718 100
0.29875952 1.2599123 0.14752686 79
0.29449397 1.2725425 0.069221787 67
0.296969 1.2676744 0.14959741 78
0.29615483 1.278024 -0.0099129668 100
0.29526857 1.2797976 0.15270324 76
0.29970765 1.2797837 -0.0099129668 100
0.29973859 1.2842505 -0.0099827768 100
