# .PCD v0.7 - Point Cloud Data file format
VERSION 0.7
FIELDS x y z intensity
SIZE 4 4 4 4
TYPE F F F F
COUNT 1 1 1 1
WIDTH 734
HEIGHT 1
VIEWPOINT 0 0 0 1 0 0 0
POINTS 734
DATA ascii
-1.1821128 0.16676635 0.020838173 26
-1.1162132 0.16144541 0.019686315 5
-1.0365192 0.15361443 0.018290121 6
-1.0300455 0.15633145 0.018185407 4
-1.0986236 0.17086136 0.019407077 48
0.062532634 0.00068771839 0.047730394 48
0.061514467 0.016647279 0.015672261 53
0.049787641 0.004137516 0.047939736 38
0.053705305 0.015898407 0.047311705 20
0.045556962 0.0093128085 0.047835063 100
0.038466275 0.0044355989 0.048253752 70
0.042103589 0.0212484 0.047416378 19
0.045127809 0.031270623 0.046893016 21
0.034623325 0.021522403 0.047625721 9
0.029736936 0.02004385 0.047835063 9
0.019914567 0.017162025 0.048253752 8
-1.019537 1.1277425 0.084365562 5
-1.0429063 1.133069 0.14293543 6
-1.0357769 1.1372716 0.028412517 8
-0.98714668 1.1260087 0.082690813 11
-1.0241601 1.1345812 0.14136662 17
-1.0054147 1.1353921 0.027888946 20
-1.0035195 1.1349468 0.083632857 75
-1.0152485 1.1377022 0.14066938 65
-0.98856896 1.1371064 0.027609708 37
-1.0100071 1.1422216 0.084051549 100
-1.0120175 1.1427013 0.14049506 100
-0.98138303 1.1413294 0.027504992 43
-0.98339933 1.1418183 0.082690813 100
-1.0087047 1.1479543 0.14032075 81
-0.98396093 1.1476287 0.027574802 31
-0.98209208 1.1471686 0.082690813 100
-1.0112453 1.1543455 0.14066938 87
-0.97882003 1.1517445 0.027504992 23
-0.97889513 1.1517632 0.082586139 66
-1.0060961 1.1585553 0.14032075 81
-0.97553974 1.1565876 0.027470088 31
-0.98723346 1.1595509 0.083109498 35
-0.99314219 1.1610482 0.13927488 77
-0.96449751 1.1594204 0.027295563 53
-0.98393005 1.164417 0.083004825 39
-0.97247154 1.1614708 0.13753176 87
-0.9534542 1.1621809 0.027121039 63
-0.9728809 1.1672485 0.082481466 90
-0.97495157 1.1677886 0.13788038 89
-0.95980877 1.1694726 0.027260659 74
-0.96376175 1.1705184 0.082062781 96
-0.97355372 1.1731093 0.13788038 98
-0.94874829 1.1721492 0.027086135 81
-0.94885129 1.1721768 0.081330076 98
-0.97406167 1.1789412 0.1380547 100
-0.95891267 1.1805282 0.027295563 92
-0.94551104 1.176882 0.081225403 100
-0.96108979 1.1811204 0.13700883 100
-0.9459042 1.1826025 0.027086135 92
-0.94600707 1.1826309 0.081330076 100
-0.96540755 1.187982 0.13753176 94
-0.93682402 1.1854085 0.026946515 92
-0.95040125 1.1892018 0.081644088 90
-0.9544186 1.1903243 0.1366602 92
-0.93921298 1.1916856 0.027016325 88
-0.93739861 1.1911718 0.081016064 80
-0.95677632 1.1966587 0.13700883 100
-0.96072191 1.2037632 0.027435184 50
-0.92048734 1.192211 0.080178685 56
-0.9552024 1.2021785 0.13700883 100
-0.96303874 1.2101512 0.027504992 40
-0.9247579 1.199015 0.080492698 22
-0.94411927 1.2046473 0.13613728 89
-0.92504853 1.20469 0.026841801 64
-0.92708296 1.2052895 0.080702044 26
-0.94259292 1.2098602 0.13613728 84
-0.91202527 1.2064044 0.026632372 75
-0.92364079 1.2098715 0.080597371 30
-0.93723017 1.2139279 0.13578865 89
-0.91623551 1.2132411 0.026737086 78
-0.92018455 1.2144349 0.080492698 58
-0.93567151 1.2191166 0.13578865 98
-0.92232782 1.2206978 0.026876707 83
-0.90716547 1.2160565 0.079864666 100
-0.93218952 1.2237166 0.13561434 99
-0.91700476 1.2243944 0.026806897 92
-0.90186268 1.2197043 0.079655327 93
-0.91735452 1.2245028 0.13439415 85
-0.9115935 1.2283158 0.026737086 85
-0.91362435 1.2289526 0.080388032 74
-0.91005582 1.2278336 0.13387123 57
-0.89473695 1.2285751 0.026457848 81
-0.91582066 1.2352673 0.080597371 64
-0.90844876 1.2329273 0.13387123 43
-0.89693516 1.2348386 0.026527658 81
-0.89897531 1.235494 0.07976 85
-0.91061777 1.2392342 0.13421984 43
-0.89530379 1.2398865 0.026527658 89
-0.89164346 1.2386966 0.07944598 100
-0.91654998 1.246794 0.1349171 52
-0.89365476 1.2449287 0.026527658 100
-0.88999861 1.243726 0.07944598 100
-0.90162843 1.2475519 0.13369691 77
-0.88439876 1.247439 0.026388038 100
-0.89402133 1.2506418 0.07976 100
-0.90184313 1.2532454 0.13387123 85
-0.87135261 1.2486142 0.02617861 93
-0.89612049 1.2569543 0.079969339 100
-0.89448279 1.2564029 0.13334829 80
-0.87354368 1.2546138 0.02624842 93
-0.87559062 1.2553107 0.078922622 100
-0.89852017 1.2631165 0.13387123 85
-0.87562484 1.260882 0.02631823 96
-0.87577635 1.2609341 0.079027295 100
-0.9005577 1.2694671 0.13421984 99
-0.88136953 1.2687356 0.026457848 81
-0.86642319 1.263528 0.07860861 100
-0.89683586 1.2741246 0.13404553 77
-0.8683036 1.2697418 0.02624842 79
-0.86280817 1.2678055 0.078503937 68
-0.89130908 1.2778478 0.13369691 40
-0.85901564 1.2720051 0.0261088 89
-0.86106187 1.272734 0.078503937 31
-0.89515799 1.2848818 0.13421984 38
-0.84981734 1.2739652 0.025969181 100
-0.85374945 1.2753808 0.078189917 23
-0.88219506 1.2856219 0.13317397 26
-0.85932428 1.2829521 0.02617861 96
-0.85009998 1.2795947 0.078085244 68
-0.8841309 1.291981 0.1335226 18
-0.86136907 1.2890031 0.02624842 100
-0.85215145 1.2856134 0.07829459 100
-0.86182255 1.2891698 0.13160518 13
-0.8369661 1.2858081 0.025829561 100
-0.85025221 1.2907491 0.07829459 100
-0.8617776 1.2950354 0.13177948 1
-0.83150405 1.2889981 0.025759751 100
-0.83916932 1.2918777 0.077771232 48
-0.87121946 1.3039181 0.13282534 1
-0.83333129 1.2954782 0.025829561 89
-0.83538002 1.2962565 0.077666558 51
-0.85249013 1.3027561 0.13125655 7
-0.83344811 1.3007789 0.025864467 71
-0.83176261 1.3001323 0.077561885 57
-0.8618769 1.311686 0.13230242 37
-0.84267956 1.3101847 0.026073895 72
-0.83912069 1.3088044 0.078085244 68
-0.84502155 1.3110932 0.13090792 86
-0.82598501 1.3089656 0.025794657 88
-0.82988757 1.3104942 0.077666558 65
-0.84321958 1.3157163 0.13090792 97
-0.8111735 1.3083771 0.025550323 99
-0.83923131 1.3194747 0.07829459 80
-0.8321386 1.3166693 0.13003637 99
-0.816809 1.3158545 0.025689943 100
-0.82441777 1.3188933 0.077561885 91
-0.83401877 1.3227276 0.130385 97
-0.81850785 1.3223574 0.025759751 100
-0.81869262 1.322432 0.077352546 95
-0.83567876 1.329288 0.13073361 100
-0.80926114 1.3238741 0.025620133 100
-0.81685311 1.3269677 0.077352546 100
-0.83197135 1.3331282 0.1305593 100
-0.79749662 1.3190804 0.17866045 22
-0.80731958 1.3286154 0.025620133 100
-0.81305367 1.3309754 0.077247873 100
-0.80604535 1.3280911 0.12829325 100
-0.79924315 1.3252916 0.17914793 15
-0.79807287 1.3300447 0.025480513 100
-0.8130303 1.3362586 0.077352546 97
-0.80786711 1.3341136 0.12864187 100
-0.78272885 1.3236701 0.17719802 20
-0.79601115 1.3349819 0.025480513 100
-0.79621285 1.3350666 0.076515168 100
-0.8131389 1.3421712 0.12933913 100
-0.78069061 1.3285511 0.17719802 24
-0.79781276 1.3410025 0.025550323 100
-0.79800969 1.3410859 0.076724514 85
-0.80573028 1.3443568 0.12881619 100
-0.77700323 1.3321865 0.17695428 18
-0.81041819 1.3522329 0.025829561 63
-0.79590756 1.3460227 0.076724514 42
-0.79812104 1.3469701 0.12829325 50
-0.77310878 1.3362653 0.17671055 11
-0.79746526 1.3519838 0.025620133 71
-0.81599253 1.3599858 0.077980578 72
-0.82180744 1.3624973 0.13073361 30
-0.79855937 1.3524563 0.18036664 8
-0.7970534 1.3579533 0.025655037 100
-0.81371707 1.3652265 0.077980578 100
-0.80856603 1.3629782 0.12968774 93
-0.77084225 1.3465128 0.17695428 20
-0.79509622 1.362417 0.025655037 100
-0.8062523 1.3673304 0.077666558 100
-0.82847279 1.3771169 0.13177948 100
-0.77800661 1.3548903 0.17817298 36
-0.79119283 1.3662963 0.025620133 100
-0.80050892 1.3704382 0.077457212 100
-0.8136012 1.3762591 0.1305593 100
-0.75237626 1.3490384 0.17500438 30
-0.80927795 1.3797435 0.026004085 100
-0.81126648 1.3806355 0.078189917 100
-0.80431181 1.3775158 0.12986206 100
-0.77037233 1.3622912 0.1776855 22
-0.79064029 1.3772953 0.025689943 100
-0.80901927 1.3856206 0.078189917 100
-0.79481655 1.379187 0.12916481 100
-0.78085011 1.3728604 0.17939167 17
-0.79033095 1.3828027 0.025724847 100
-0.81412774 1.3936827 0.07860861 100
-0.79992992 1.3871913 0.12986206 100
-0.76610011 1.3717244 0.1776855 15
-0.79544657 1.3908288 0.025864467 100
-0.80468839 1.3950933 0.078189917 100
-0.8086217 1.3969083 0.13090792 100
-0.76759666 1.3779781 0.17817298 12
-0.8041479 1.4005866 0.026073895 100
-0.80249816 1.3998183 0.078189917 100
-0.81364983 1.4050113 0.13160518 100
-0.79065996 1.3943056 0.18158533 12
-0.80204946 1.4050736 0.026073895 100
-0.80944103 1.4085455 0.078713275 100
-0.80432302 1.4061415 0.13090792 100
-0.7706148 1.3903084 0.17914793 7
-0.79440337 1.4072199 0.025969181 100
-0.805399 1.4124315 0.07860861 100
-0.8038947 1.4117185 0.13108224 100
-0.76485389 1.393214 0.17866045 3
-0.79025501 1.4112799 0.025934275 100
-0.80844015 1.4199811 0.078922622 100
-0.79973632 1.4158165 0.13090792 100
-0.79160994 1.4176931 0.026004085 100
-0.80436438 1.4238507 0.078817949 100
-0.80465072 1.4239888 0.13160518 100
-0.80204028 1.428266 0.02624842 100
-0.79321009 1.4239669 0.07829459 100
-0.81680542 1.4354547 0.13299966 100
-0.80332392 1.4347448 0.02631823 100
-0.80346781 1.4348154 0.079027295 100
-0.80732101 1.4367081 0.13230242 100
-0.79024464 1.4341373 0.0261088 100
-0.80113894 1.4395359 0.079027295 100
-0.80141503 1.4396727 0.13195379 100
-0.78791827 1.4388117 0.0261088 100
-0.80951244 1.4496064 0.079655327 100
-0.8061977 1.4479494 0.13265105 100
-0.79271764 1.4470793 0.02624842 100
-0.79821509 1.4498515 0.079131968 100
-0.81271797 1.4571648 0.1335226 100
-0.79391068 1.4535754 0.02631823 100
-0.79405361 1.453648 0.079027295 100
-0.81031102 1.4619173 0.1335226 100
-0.79863328 1.4619136 0.026457848 100
-0.80232126 1.4638057 0.079655327 100
-0.80966026 1.4675709 0.13369691 100
-0.78555375 1.4611028 0.02624842 100
-0.80698651 1.4721935 0.080074012 100
-0.80721694 1.4723127 0.13369691 100
-0.78325468 1.4655279 0.02624842 100
-0.80642122 1.4776134 0.080178685 100
-0.80311412 1.475888 0.1335226 100
-0.78435808 1.4720397 0.02631823 96
-0.79333764 1.4767642 0.079550654 100
-0.80416828 1.4824624 0.13387123 100
-0.78543228 1.4785678 0.026388038 45
-0.78556949 1.4786406 0.079236634 44
-0.80695301 1.4899864 0.13439415 75
0.17817727 1.2331159 0.010366729 13
0.13736698 1.2839463 0.03454173 27
0.098457694 1.3324089 0.063100755 19
0.14070499 1.2797887 0.12707879 17
0.19741207 1.2091584 0.13002171 8
0.1351572 1.2866986 0.17754987 6
0.16217569 1.2561671 0.010855397 39
0.15143865 1.2696267 0.033495013 28
0.15489537 1.2652936 0.055431053 49
0.13653573 1.2883086 0.081408724 13
0.15826908 1.2610643 0.099492319 12
0.15210295 1.2687941 0.12402584 61
0.19271725 1.217881 0.13227122 15
0.15244383 1.2683667 0.17082056 14
0.1638751 1.2575178 0.010855397 100
0.1717858 1.2475299 0.031924933 91
0.14920452 1.2760408 0.056476921 96
0.16546234 1.2555139 0.076046467 14
0.16734436 1.2531376 0.097615108 24
0.16116008 1.2609458 0.12173614 100
0.18097368 1.2359294 0.13722014 37
0.15178698 1.2727802 0.17185585 36
0.15701389 1.2699347 0.011099731 100
0.17724147 1.2442023 0.031610917 100
0.15844968 1.2681081 0.055431053 100
0.16601762 1.2584805 0.076290213 29
0.17155927 1.2514309 0.096989371 25
0.16296211 1.2623677 0.12173614 100
0.194727 1.2219582 0.13272113 39
0.15005082 1.2787926 0.17340876 42
0.16245231 1.2665741 0.010995016 100
0.18258545 1.240777 0.031296901 94
0.15773916 1.2726133 0.055779677 100
0.1640611 1.2645128 0.077021427 29
0.18053418 1.2434053 0.095112152 25
0.16589102 1.262168 0.12135452 100
0.18911305 1.2324131 0.13542053 38
0.15301785 1.2786627 0.17289113 35
0.17259172 1.2567272 0.010750682 92
0.17060381 1.2592909 0.032448292 59
0.15932009 1.2738431 0.055779677 73
0.16318378 1.2688602 0.077508904 29
0.18202326 1.2445638 0.095112152 25
0.1890935 1.2354455 0.1144854 54
0.1893734 1.2350845 0.13587044 30
0.15225023 1.2829607 0.1739264 35
0.18283179 1.2469498 0.010506349 81
0.16500401 1.270108 0.033076324 29
0.17201957 1.2609949 0.054210871 51
0.19520047 1.2308829 0.071415432 64
0.18609202 1.2427148 0.094486415 39
0.17395404 1.258482 0.11982805 12
0.19218782 1.2347964 0.13542053 22
0.14815101 1.2920001 0.1765146 55
0.17487028 1.2610044 0.010785587 52
0.17168972 1.2651675 0.032657638 29
0.16777381 1.270293 0.055082429 50
0.1896612 1.2416447 0.072877869 47
0.18422931 1.2487545 0.095425025 51
0.1888577 1.2426964 0.11563025 13
0.19625992 1.2330077 0.13452072 31
0.16531366 1.2735131 0.16978529 66
0.17416957 1.2654973 0.010855397 52
0.15893665 1.2855805 0.033913698 27
0.16109419 1.2827361 0.056302611 48
0.19130972 1.2428997 0.072877869 94
0.18948397 1.2453067 0.094486415 52
0.1964421 1.2361331 0.11372216 13
0.21201026 1.2156079 0.1291219 40
0.17174342 1.2686961 0.16771474 67
0.18071303 1.2604165 0.010715778 39
0.17035013 1.2741785 0.033076324 29
0.17726827 1.264991 0.054210871 51
0.18699211 1.2520778 0.07409656 61
0.20183966 1.2323601 0.091670595 54
0.19689041 1.2389327 0.11410378 13
0.2112233 1.2198985 0.13002171 32
0.18045899 1.2607539 0.16460891 69
0.18242717 1.2617025 0.010715778 53
0.18407083 1.2595037 0.032029606 30
0.17899838 1.2662892 0.054210871 51
0.19105422 1.2501621 0.073609084 62
0.19399375 1.2462299 0.094173551 65
0.20088041 1.2370176 0.11334054 13
0.20346144 1.233565 0.13362093 31
0.18448764 1.2589462 0.16357364 69
0.18772087 1.2581651 0.010611063 81
0.19054276 1.2543627 0.031610917 30
0.18548241 1.2611815 0.053513627 52
0.1974645 1.2450358 0.072634131 78
0.19330385 1.2506422 0.094799288 64
0.20953268 1.2287741 0.11105084 14
0.20972705 1.2285122 0.13182132 31
0.18849918 1.2571164 0.16253836 70
0.19654366 1.2497671 0.010401634 83
0.20526686 1.2379265 0.030459527 65
0.18365389 1.2672631 0.054036561 77
0.20265713 1.2414689 0.071902916 96
0.20435715 1.2391614 0.092296332 80
0.20414928 1.2394435 0.11334054 13
0.21132964 1.2296972 0.13182132 31
0.18218073 1.2692627 0.16616182 68
0.18877679 1.2639105 0.010680873 93
0.21161845 1.2326785 0.03004084 66
0.17715883 1.2797961 0.055256739 74
0.19258651 1.2587014 0.074340299 100
0.20599693 1.240365 0.092296332 100
0.20463109 1.2422326 0.11372216 13
0.22328982 1.2167199 0.1277722 16
0.18848741 1.2643063 0.16409127 69
0.19285271 1.2619321 0.010611063 94
0.21088877 1.2370894 0.030250182 65
0.1883049 1.2681962 0.053862248 100
0.19779333 1.255127 0.073609084 77
0.21460414 1.2319719 0.090419121 96
0.20858845 1.2402577 0.11295892 13
0.24087963 1.1957802 0.12147357 17
0.19135004 1.2640018 0.16357364 69
0.19924873 1.2566867 0.010471444 96
0.20901802 1.2431312 0.030564198 64
0.19470572 1.2629902 0.053165004 100
0.19484633 1.2627952 0.074584037 61
0.21275389 1.2379475 0.09135773 100
0.20678842 1.2462249 0.11410378 13
0.24692526 1.1905328 0.11967396 8
0.20098314 1.2542801 0.15995017 72
0.20327672 1.2546552 0.010401634 83
0.21183375 1.2426941 0.030459527 97
0.19179174 1.2707092 0.053862248 100
0.20696372 1.2495015 0.072390392 63
0.21324006 1.2407284 0.091670595 100
0.20959514 1.2458233 0.11372216 13
0.23365498 1.2121921 0.12552269 16
0.19368351 1.2680649 0.16409127 69
0.20943457 1.2492222 0.010262015 98
0.20753554 1.2518944 0.030982886 63
0.19336653 1.271832 0.053862248 100
0.21652129 1.2392502 0.070684217 81
0.21700916 1.2385637 0.091044858 100
0.21109167 1.2468903 0.11372216 20
0.23730344 1.2100068 0.12462288 16
0.2019645 1.2597336 0.16098544 72
0.20419329 1.2602122 0.010471444 82
0.21497616 1.2449266 0.030459527 97
0.19626889 1.2714458 0.053687938 100
0.21816131 1.2404113 0.070684217 98
0.21636942 1.2429515 0.091670595 100
0.19917819 1.2673216 0.11830158 52
0.23996457 1.2095032 0.12417299 33
0.19588104 1.2719957 0.16460891 69
0.20820051 1.2581402 0.010401634 83
0.22694623 1.2313685 0.029517479 67
0.20144978 1.2677813 0.053165004 100
0.20386496 1.2643321 0.07409656 92
0.22482055 1.2344043 0.089793384 100
0.19979024 1.2701514 0.1186832 97
0.22920534 1.2281423 0.1291219 56
0.20539191 1.2621514 0.16098544 72
0.20990652 1.2593304 0.010401634 97
0.21146074 1.2570941 0.031087559 94
0.21001199 1.2591786 0.052119136 100
0.20785844 1.2622771 0.073609084 93
0.22193411 1.2420249 0.091044858 100
0.21946552 1.2455769 0.1125773 82
0.22190914 1.2420609 0.13272113 86
0.20711195 1.2633512 0.16098544 72
0.21161669 1.2605145 0.010401634 97
0.21543133 1.2549849 0.030878214 95
0.20493343 1.2702024 0.053165004 100
0.21634224 1.2536645 0.072146654 63
0.22694889 1.2382892 0.090106249 96
0.22558689 1.2402636 0.11105084 84
0.22134578 1.2464114 0.13362093 93
0.20554519 1.2693157 0.16253836 70
0.22010952 1.2517929 0.010192205 85
0.23179531 1.2347262 0.029517479 67
0.20555592 1.2730479 0.053339314 78
0.22476164 1.2449987 0.070684217 65
0.22635344 1.2426739 0.090731993 100
0.2227937 1.2478727 0.1125773 100
0.22961661 1.2379081 0.13092151 96
0.2127474 1.262545 0.15995017 72
0.21392533 1.2645189 0.010436539 68
0.23005158 1.2407899 0.029831495 66
0.20283443 1.2808386 0.054036561 77
0.22642168 1.2461311 0.070684217 65
0.22911569 1.242167 0.090419121 100
0.22115323 1.2538834 0.11372216 96
0.23891935 1.2277412 0.1277722 97
0.21229702 1.2669148 0.16098544 72
0.20894429 1.275636 0.010645968 40
0.22387892 1.2534944 0.030564198 32
0.21353275 1.2688332 0.05264207 53
0.21587509 1.2653606 0.073365346 93
0.23407966 1.2383711 0.089480512 97
0.22394216 1.2534006 0.11334054 100
0.22962186 1.2449801 0.13227122 94
0.22051531 1.2584811 0.15787962 81
0.21961075 1.2635295 0.010366729 41
0.22112435 1.2612686 0.030982886 31
0.21527606 1.2700047 0.05264207 53
0.21981487 1.2632246 0.072877869 94
0.23791429 1.2361881 0.088854775 98
0.22890797 1.2496415 0.11219569 98
0.23561808 1.2396181 0.13047162 100
0.22007307 1.262839 0.15891489 73
0.2213355 1.2646799 0.010366729 27
0.22505173 1.2590865 0.030773543 32
0.22363886 1.2612131 0.051596198 54
0.23362243 1.2461865 0.07019674 99
0.23845035 1.23892 0.089167647 98
0.24144867 1.2344071 0.10837951 87
0.23294562 1.2472053 0.13227122 94
0.22393355 1.2607695 0.15787962 73
0.229669 1.2558074 0.0101573 42
0.20916969 1.2868962 0.032448292 29
0.22754905 1.2590225 0.051247578 55
0.2363793 1.2456307 0.069953002 99
0.229215 1.256496 0.092296332 100
0.2387487 1.2420373 0.10990598 92
0.2421225 1.2369207 0.1291219 96
0.2224583 1.2667431 0.15943253 89
0.22589195 1.2652891 0.010331824 28
0.22191232 1.2713705 0.031401575 31
0.22707611 1.2634795 0.051596198 54
0.23695451 1.2483836 0.07019674 82
0.24497652 1.2361248 0.088229038 98
0.23179826 1.2562633 0.11295892 100
0.24908954 1.2298393 0.12687239 99
0.21890518 1.2759659 0.16202073 70
0.23289803 1.2579212 0.0101573 42
0.22348905 1.2723987 0.031401575 31
0.22645658 1.2678326 0.051944822 54
0.23845893 1.2493647 0.07019674 66
0.24751884 1.2354244 0.087916173 98
0.23332748 1.2572604 0.11295892 82
0.24734986 1.2356844 0.12822211 89
0.22576001 1.2689044 0.15943253 73
0.22810009 1.2691082 0.010366729 69
0.24689507 1.2399664 0.029308135 34
0.23575544 1.2572385 0.05072464 56
0.2379823 1.2537857 0.070684217 65
0.24486268 1.2431177 0.089167647 84
0.24567112 1.2418642 0.10914274 85
0.2468648 1.2400134 0.1291219 96
0.23169175 1.2635393 0.15736198 74
0.24070829 1.25344 0.010017681 43
0.24969599 1.2393918 0.029203463 68
0.23110098 1.2684568 0.051770512 81
0.24296695 1.2499096 0.069953002 49
0.24446967 1.2475609 0.089793384 83
0.24846068 1.2413226 0.10876112 87
0.24858952 1.2411213 0.1291219 96
0.23037946 1.2695845 0.15891489 73
0.24346948 1.2528285 0.0099827768 87
0.25240678 1.2387511 0.029098792 68
0.22857139 1.2762952 0.052467756 80
0.24038818 1.257682 0.070927955 97
0.24825603 1.2452891 0.089167647 70
0.24063745 1.2572894 0.11219569 98
0.25441378 1.2355897 0.1273223 89
0.23108986 1.2723281 0.15943253 65
0.24400613 1.2555342 0.010017681 72
0.26035213 1.2295971 0.02847076 70
0.22812751 1.2807294 0.05281638 79
0.24835747 1.2486296 0.069465525 49
0.25615308 1.2362599 0.087290429 71
0.25272259 1.2417033 0.10837951 72
0.26011541 1.2299728 0.12552269 90
0.23378742 1.2717485 0.15891489 65
0.2457028 1.2565992 0.010017681 87
0.25878128 1.2356856 0.028784776 100
0.23941982 1.2666464 0.051247578 82
0.24792498 1.2530458 0.069953002 49
0.26197192 1.2305834 0.086038955 72
0.23979768 1.2660421 0.11372216 100
0.26275602 1.2293296 0.12507279 92
0.24578375 1.2564698 0.15373851 68
0.25170451 1.2509139 0.0098780617 73
0.24785689 1.257117 0.03004084 100
0.23809162 1.2728608 0.051770512 81
0.25388286 1.247402 0.068978049 50
0.26157951 1.2349933 0.086664692 57
0.25817528 1.2404817 0.10761628 79
0.26033273 1.2370034 0.12687239 90
0.24756879 1.2575816 0.15373851 68
0.25443316 1.2502493 0.0098431576 88
0.25584009 1.2479632 0.029412808 100
0.24507022 1.2654625 0.050898954 83
0.25138929 1.255195 0.069953002 49
0.25906295 1.2427266 0.087916173 56
0.2536453 1.2515293 0.10990598 85
0.26094323 1.2396713 0.1273223 97
0.24319729 1.2685057 0.15684435 66
0.25715348 1.2495713 0.0098082526 74
0.25751027 1.2489871 0.029412808 100
0.2478399 1.2648234 0.05072464 84
0.26239568 1.2409866 0.067759357 34
0.26071486 1.2437391 0.087916173 56
0.25635111 1.2508854 0.10952436 78
0.26563126 1.235688 0.12597258 82
0.24091208 1.2761686 0.15891489 65
0.2577931 1.252301 0.0098431576 88
0.26539364 1.2397559 0.028784776 100
0.2382125 1.2846196 0.05264207 79
0.24758345 1.2691524 0.071659178 64
0.26441747 1.2413671 0.087290429 57
0.25803152 1.2519075 0.10952436 85
0.26826835 1.2350111 0.12552269 90
0.24468291 1.27394 0.15787962 65
0.2510632 1.2669249 0.010122396 85
0.25863433 1.2543392 0.029622151 100
0.24702013 1.2736456 0.051421888 82
0.25836268 1.2547909 0.069465525 49
0.26997283 1.2354913 0.086038955 72
0.25448674 1.2612338 0.11143246 77
0.27274427 1.2308843 0.12417299 83
0.256226 1.2583426 0.15270324 68
0.26099825 1.2542284 0.0098431576 88
0.25930318 1.2570684 0.029726824 100
0.25592762 1.2627243 0.050201707 85
0.26005667 1.255806 0.069465525 49
0.27362415 1.2330734 0.085413218 58
0.25922173 1.2572049 0.1102876 85
0.27235731 1.235196 0.12507279 92
0.2539722 1.2660006 0.15477379 67
0.26472792 1.2517928 0.0097733475 89
0.2640579 1.2529244 0.029412808 100
0.25967956 1.260319 0.049853086 85
0.26175424 1.2568151 0.069465525 49
0.27423581 1.2357351 0.08572609 58
0.26692575 1.248081 0.10799789 79
0.27398282 1.2361623 0.12507279 83
0.25373685 1.2703555 0.15580906 67
0.26843706 1.2493372 0.0097035384 90
0.26979169 1.2470311 0.028994121 100
0.26038373 1.2630473 0.050027397 85
0.27149865 1.2441251 0.067515619 51
0.27186123 1.2435079 0.086977564 57
0.26461884 1.2558374 0.10952436 85
0.27659872 1.2354426 0.12462288 100
0.25548521 1.2713866 0.15580906 67
0.26205766 1.2641392 0.0099827768 100
0.27447525 1.2428293 0.028680105 100
0.26411277 1.2606124 0.049678773 86
0.27115646 1.2485247 0.068003096 51
0.28047758 1.2325287 0.084787481 59
0.26433957 1.2602232 0.1102876 78
0.28313076 1.2279755 0.12237337 85
0.26205766 1.2641392 -0.0099827768 86
0.25918245 1.2690734 0.15477379 67
0.26178277 1.2686038 0.010052586 86
0.27312881 1.2489756 0.028994121 100
0.2638329 1.2650572 0.050027397 85
0.26885474 1.2563696 0.068978049 50
0.28703669 1.2249155 0.083223134 60
0.26310498 1.2663164 0.11143246 77
0.28570628 1.2272171 0.12192347 85
0.26478502 1.26341 -0.0099478718 86
0.26479352 1.2633953 0.15270324 68
0.27347201 1.2522594 0.0097035384 90
0.27082846 1.2568697 0.029412808 100
0.27547342 1.248769 0.048284281 88
0.27450398 1.2504597 0.068003096 51
0.2846958 1.2326853 0.084474608 59
0.27558154 1.2485805 0.10723466 88
0.28633451 1.2298274 0.12237337 68
0.2675038 1.2626679 -0.0099129668 87
0.2645956 1.2677397 0.15373851 76
0.27120253 1.2601745 0.0098431576 88
0.27252963 1.2578412 0.029412808 100
0.27025107 1.2618474 0.049504463 86
0.27618277 1.2514184 0.068003096 51
0.27947617 1.2456281 0.086664692 71
0.27725378 1.2495354 0.10723466 81
0.28505087 1.2358267 0.12372308 83
0.27015519 1.2620159 0.15166797 69
0.27684554 1.2541782 0.0097035384 90
0.28012246 1.2483697 0.028784776 100
0.2641378 1.2767031 0.050898954 83
0.2759141 1.2558291 0.068490572 50
0.28113806 1.2465694 0.086664692 57
0.27507067 1.2573242 0.10876112 94
0.29242373 1.2265651 0.12102367 86
0.26997587 1.2663549 0.15270324 68
0.2717019 1.2673441 0.0099478718 73
0.28569511 1.242337 0.028366089 100
0.27077284 1.2690045 0.050027397 85
0.28051969 1.251586 0.067759357 51
0.28955549 1.2354381 0.084474608 59
0.28348425 1.2462881 0.1060898 59
0.2949706 1.2257608 0.12057377 94
0.27267841 1.265599 -0.0099129668 97
0.26982349 1.2707011 0.15373851 76
0.28525093 1.2474234 0.0095290141 76
0.2836363 1.2503351 0.028784776 100
0.2765559 1.2631032 0.049330149 87
0.27659467 1.2630333 0.069221787 83
0.29421851 1.2312522 0.083536007 75
0.27674609 1.2627603 0.10952436 92
0.29766753 1.2250324 0.12012386 77
0.2745834 1.2666602 -0.0099129668 87
0.2717481 1.2717731 0.15373851 68
0.28306442 1.2553533 0.0096686333 90
0.28627712 1.249512 0.028680105 100
0.28211939 1.2570716 0.048632905 88
0.28214386 1.2570271 0.068246834 34
0.28821456 1.2459891 0.086038955 58
0.28509054 1.2516694 0.10685304 81
0.29550099 1.2327406 0.12192347 76
0.27535507 1.2693708 -0.0099478718 96
0.28094909 1.2591995 0.14959741 70
0.28659108 1.2527251 0.0095988233 76
0.28786868 1.2503839 0.028680105 100
0.27800995 1.268451 0.049678773 86
0.27995697 1.2648829 0.069221787 33
0.29452544 1.2381846 0.084474608 59
0.28762966 1.2508218 0.10647142 73
0.29423657 1.238714 0.12327318 76
0.27605471 1.2720342 -0.0099827768 86
0.2844235 1.2566974 0.14856213 79
0.29208457 1.2466068 0.009459204 93
0.28954712 1.2512959 0.028680105 100
0.27880326 1.2711496 0.049853086 85
0.29396805 1.2431264 0.066053182 52
0.29428098 1.2425481 0.085100345 58
0.29024401 1.2500081 0.1060898 73
0.2824463 1.2644176 0.15063268 70
0.27947828 1.2738872 0.0099827768 87
0.29114458 1.252157 0.028680105 100
0.28235149 1.2685354 0.049504463 57
0.28990456 1.2544667 0.067515619 51
0.29958692 1.2364318 0.083848871 59
0.29276586 1.2491372 0.10570818 73
0.28408733 1.2653022 0.15063268 70
0.28969634 1.2589422 0.0096686333 75
0.29470637 1.2495316 0.02847076 100
0.28877479 1.2606733 0.048632905 88
0.29439583 1.2501149 0.066784397 34
0.29259473 1.2534981 0.10647142 73
0.2849977 1.2677679 -0.0098431576 87
0.28581786 1.2662274 0.15063268 70
0.29055691 1.2616615 0.0097035384 90
0.29646567 1.2504641 0.02847076 100
0.29708382 1.2492926 0.047412723 60
0.29986298 1.2440259 0.065809444 35
0.29924342 1.2452 0.085100345 58
0.29528481 1.2527019 0.1060898 81
0.2868239 1.2687359 -0.0098431576 87
0.29124475 1.2603581 0.14856213 79
0.29876417 1.2501615 0.009459204 93
0.29629245 1.2548854 0.028680105 100
0.29783472 1.2519379 0.047587037 90
0.29788148 1.2518485 0.10570818 66
0.28485814 1.2767386 -0.0099827768 86
0.29474923 1.2578349 0.14752686 71
0.2920917 1.2669187 0.048981529 87
0.29760858 1.256289 0.067271881 69
0.29102874 1.2689666 0.15063268 70
0.29738876 1.2606854 0.048284281 59
0.28741059 1.2800676 0.070440479 49
0.29658964 1.2622377 0.10761628 72
0.29003206 1.2749754 0.1521856 77
0.29909217 1.2615856 0.0096337283 100
0.29819736 1.2633388 0.048458595 59
0.29272857 1.2740533 -0.0098780617 100
0.29794404 1.2638351 0.14856213 79
0.29985434 1.2641323 0.068003096 100
0.29349831 1.2766879 -0.0099129668 100
0.29454941 1.2794566 -0.0099478718 100
0.29996854 1.2776836 -0.0098780617 100
