# .PCD v0.7 - Point Cloud Data file format
VERSION 0.7
FIELDS x y z intensity
SIZE 4 4 4 4
TYPE F F F F
COUNT 1 1 1 1
WIDTH 728
HEIGHT 1
VIEWPOINT 0 0 0 1 0 0 0
POINTS 728
DATA ascii
-1.08622 0.14975944 0.057464879 26
-1.1682522 0.16481097 0.020593839 25
-1.1529851 0.16265717 0.061023723 31
-1.0904849 0.15772414 0.019232552 5
-1.0246507 0.1518555 0.018080693 6
-1.0023668 0.1521306 0.01769674 4
-1.084792 0.16871023 0.019162742 1
0.042512834 0.004142046 0.048149079 100
0.04551965 0.014135301 0.047625721 77
0.038027883 0.0095394254 0.04804441 36
0.03102535 0.0046290755 0.048463095 25
0.029616475 0.0080035925 0.048358422 17
0.036147177 0.022898257 0.047521047 19
0.025447309 0.013296545 0.048253752 8
-1.0388725 1.1327331 0.028447423 3
-1.0252535 1.129624 0.084679574 5
-1.0252976 1.129634 0.14136662 6
-1.010325 1.1319509 0.027958754 10
-1.0064783 1.1310586 0.08373753 15
-1.0143285 1.1328795 0.14049506 24
-0.99153453 1.1332672 0.027644612 23
-0.99937648 1.1351151 0.083423518 84
-1.0208094 1.1401658 0.1411923 78
-0.99414665 1.1395768 0.027714422 38
-0.99615008 1.1400564 0.083318844 100
-1.0214453 1.1461105 0.14136662 95
-0.98896092 1.1440202 0.027644612 42
-0.98126358 1.1421494 0.082586139 100
-0.99689049 1.1459473 0.13927488 89
-0.98570448 1.1489108 0.027609708 27
-0.98577255 1.1489277 0.082900152 100
-0.98976558 1.1499128 0.13875194 91
-0.96303481 1.1489253 0.027225753 26
-0.99412757 1.1567122 0.083423518 58
-0.99809355 1.1577054 0.13962349 79
-0.96751708 1.1556822 0.027330469 38
-0.9792183 1.1586561 0.082690813 35
-1.0005927 1.1640885 0.13997212 73
-0.96809798 1.1614763 0.027365373 61
-0.98172027 1.1649891 0.082900152 50
-0.9876321 1.1665137 0.13892625 91
-0.96865684 1.1672791 0.027400278 67
-0.96680659 1.1667951 0.082167454 100
-0.97660094 1.1693573 0.1380547 92
-0.95759672 1.1700137 0.027225753 78
-0.96927315 1.1731118 0.082376793 90
-0.96942037 1.1731508 0.13753176 98
-0.9426741 1.1716366 0.026981421 88
-0.95821351 1.1758178 0.081853434 100
-0.96415597 1.1774168 0.13718314 100
-0.95090896 1.1794761 0.027155945 89
-0.94715351 1.1784517 0.081330076 100
-0.96849102 1.1842729 0.13770607 99
-0.94947046 1.1847129 0.027155945 92
-0.93609363 1.1810131 0.080806717 100
-0.97087628 1.1906331 0.1380547 92
-0.95193809 1.1907618 0.027225753 93
-0.94049221 1.1875553 0.081120729 92
-0.95220631 1.190837 0.13648589 98
-0.93891829 1.1927251 0.027016325 77
-0.93518287 1.1916646 0.08091139 82
-0.94306165 1.1939014 0.13578865 100
-0.95273215 1.202605 0.027295563 55
-0.94514328 1.2004204 0.081539422 50
-0.94724184 1.2010245 0.13631158 100
-0.94161433 1.2050483 0.027121039 42
-0.92254072 1.1994853 0.080388032 22
-0.959117 1.2101532 0.13753176 87
-0.93440992 1.2082936 0.027016325 66
-0.91919285 1.2038004 0.080283359 26
-0.95382744 1.2140268 0.13718314 84
-0.93478686 1.2140454 0.027051231 72
-0.92149669 1.2100708 0.080492698 28
-0.94081515 1.2158482 0.13613728 94
-0.91026169 1.2122698 0.026632372 75
-0.92377466 1.2163625 0.080702044 70
-0.92590183 1.2170068 0.1349171 100
-0.90679711 1.216778 0.026597468 81
-0.91838855 1.220333 0.080492698 100
-0.92433256 1.2221559 0.1349171 100
-0.90530759 1.2216065 0.026597468 93
-0.90734953 1.2222402 0.079969339 88
-0.92282504 1.2270424 0.1349171 82
-0.90753788 1.2278824 0.026667276 88
-0.89432937 1.2237329 0.079341307 74
-0.93262547 1.2357635 0.13596296 52
-0.90974194 1.2341793 0.026737086 83
-0.90415686 1.2324033 0.079969339 76
-0.90440875 1.2324834 0.1335226 46
-0.89288443 1.2343709 0.026457848 88
-0.90633637 1.2387002 0.080178685 84
-0.89709574 1.2357262 0.13299966 48
-0.88745195 1.2381661 0.026388038 92
-0.9046914 1.2437809 0.080178685 100
-0.90872234 1.2450938 0.13421984 59
-0.885809 1.243181 0.026388038 100
-0.89544111 1.2463553 0.07976 100
-0.90894741 1.2508063 0.13439415 77
-0.88423198 1.2479397 0.026388038 100
-0.88437933 1.2479888 0.079236634 100
-0.91679591 1.2587912 0.13526571 85
-0.88634473 1.2542207 0.026457848 96
-0.88459474 1.2536309 0.079341307 100
-0.89808887 1.2581799 0.13369691 75
-0.87320501 1.2556075 0.02624842 93
-0.88848335 1.2608205 0.079655327 100
-0.89063293 1.261554 0.13317397 95
-0.86394006 1.2579629 0.0261088 93
-0.88487321 1.2651873 0.079550654 100
-0.88514155 1.2652798 0.13282534 100
-0.8622281 1.2628956 0.0261088 81
-0.8718217 1.2662439 0.078922622 100
-0.90973943 1.2794781 0.13526571 66
-0.86427039 1.2691532 0.02617861 81
-0.84936351 1.2638921 0.077771232 65
-0.9023158 1.2825811 0.13474278 36
-0.8626073 1.2738404 0.02617861 88
-0.85900515 1.2725556 0.078399263 25
-0.88747185 1.2827089 0.1335226 39
-0.85707778 1.2774115 0.0261088 99
-0.85724229 1.2774708 0.078399263 38
-0.87067944 1.2823164 0.1321281 31
-0.84393686 1.2784538 0.025899371 96
-0.86663085 1.2867317 0.079027295 78
-0.86504859 1.2861546 0.13177948 16
-0.84590596 1.2847002 0.025969181 99
-0.85544878 1.2882187 0.078503937 100
-0.88193184 1.2979836 0.1335226 13
-0.84410077 1.2895696 0.025969181 100
-0.82930177 1.284054 0.0771432 93
-0.89874965 1.3099368 0.13526571 1
-0.84602135 1.2958425 0.026038991 100
-0.83123702 1.2902737 0.077352546 48
-0.88939804 1.3121812 0.13456847 1
-0.83670181 1.2978667 0.025899371 85
-0.8331458 1.2965131 0.077561885 51
-0.83163542 1.295938 0.12933913 9
-0.82551891 1.2991142 0.025724847 71
-0.84248406 1.3056402 0.078189917 57
-0.86140364 1.3129179 0.13230242 46
-0.82739133 1.3053615 0.025794657 74
-0.82943636 1.3061563 0.077561885 68
-0.85392874 1.315676 0.13177948 100
-0.83295935 1.3130898 0.025934275 90
-0.82012016 1.308048 0.0771432 61
-0.8501609 1.319845 0.13160518 100
-0.829292 1.3169359 0.025899371 99
-0.82389826 1.3147972 0.077457212 85
-0.83166105 1.3178753 0.13003637 97
-0.81623656 1.3172855 0.025689943 99
-0.82940429 1.3225603 0.077875905 95
-0.82049257 1.3189905 0.12916481 100
-0.81431788 1.3220513 0.025689943 100
-0.82746714 1.3273721 0.077875905 95
-0.82226175 1.3252656 0.12951343 100
-0.80497831 1.3237841 0.025550323 100
-0.80887395 1.3253763 0.076933853 100
-0.83506948 1.3360826 0.13090792 100
-0.77487034 1.311479 0.17573559 16
-0.81052858 1.3313251 0.025689943 100
-0.79594702 1.325309 0.076305822 99
-0.82029217 1.3353534 0.12968774 100
-0.77673751 1.3173836 0.17622307 15
-0.8122527 1.3376091 0.025759751 100
-0.81059295 1.3369175 0.077247873 100
-0.81463212 1.3386004 0.12933913 100
-0.78947788 1.3281195 0.17817298 21
-0.79920405 1.3377074 0.025550323 100
-0.80124205 1.3385649 0.07682918 100
-0.80162042 1.3387241 0.12829325 100
-0.80581862 1.3404906 0.18061037 26
-0.78985232 1.3392856 0.025410704 96
-0.79741091 1.3424971 0.076724514 76
-0.80146068 1.3442178 0.12846756 100
-0.77275974 1.3320231 0.17646681 16
-0.80623406 1.3518431 0.025759751 61
-0.79723984 1.3479846 0.07682918 45
-0.81592709 1.3560016 0.13003637 37
-0.77261418 1.3374197 0.17671055 7
-0.81336957 1.3605478 0.025934275 83
-0.80254501 1.355859 0.077247873 82
-0.82667094 1.3663094 0.13125655 45
-0.78701943 1.3491342 0.17890419 15
-0.80763561 1.3637009 0.025864467 100
-0.80598146 1.3629775 0.077561885 100
-0.81545371 1.3671198 0.130385 100
-0.7813521 1.3522069 0.17841671 24
-0.78909069 1.3611678 0.025550323 100
-0.813039 1.3717402 0.078085244 100
-0.8115384 1.3710778 0.13021068 100
-0.79383975 1.3632643 0.18036664 33
-0.79249853 1.3682804 0.025655037 100
-0.81275457 1.3773074 0.078189917 100
-0.80579215 1.3742046 0.12986206 100
-0.77000242 1.3582551 0.17744176 33
-0.79769665 1.3762444 0.025794657 100
-0.8015191 1.3779639 0.077666558 100
-0.81094295 1.3822031 0.1305593 100
-0.76069957 1.3596017 0.17646681 20
-0.80114168 1.3831894 0.025899371 100
-0.80131429 1.3832676 0.077771232 100
-0.81616241 1.3900063 0.13125655 100
-0.7533142 1.3614838 0.17573559 16
-0.80081111 1.3887348 0.025934275 100
-0.80824453 1.3921397 0.07829459 100
-0.79587585 1.3864741 0.12951343 100
-0.77650839 1.3776031 0.17914793 15
-0.78775233 1.3884118 0.025724847 100
-0.80969042 1.3985531 0.078503937 100
-0.80094975 1.3945125 0.13021068 100
-0.77437943 1.3822297 0.17914793 12
-0.79283422 1.3964592 0.025864467 100
-0.8092981 1.40414 0.07860861 100
-0.80598384 1.4025939 0.13090792 100
-0.77223426 1.3868489 0.17914793 10
-0.79617757 1.4034631 0.025969181 100
-0.80176622 1.4060929 0.07829459 100
-0.80748421 1.4087836 0.13125655 100
-0.75940448 1.3861589 0.1776855 5
-0.79937738 1.4107316 0.026073895 100
-0.80314595 1.4125209 0.078503937 100
-0.81244534 1.4169366 0.13195379 100
-0.77697092 1.4000921 0.18036664 3
-0.7970199 1.4156729 0.026073895 100
-0.79898089 1.4166129 0.078399263 100
-0.79928511 1.4167587 0.13090792 100
-0.79295772 1.4195004 0.026038991 100
-0.80210954 1.4239265 0.078713275 100
-0.7970193 1.4214647 0.13090792 100
-0.78720182 1.4221969 0.025969181 100
-0.80711418 1.4319088 0.079131968 100
-0.79843301 1.4276748 0.13125655 100
-0.78850561 1.4286263 0.026038991 100
-0.80300337 1.4357601 0.079027295 100
-0.81400603 1.4411741 0.13299966 100
-0.78966457 1.4353068 0.0261088 100
-0.79518765 1.4380496 0.078713275 100
-0.81510574 1.4479413 0.13334829 100
-0.80163711 1.4471445 0.026388038 100
-0.8053475 1.4490033 0.07944598 100
-0.80560559 1.4491327 0.13265105 100
-0.79581445 1.4498198 0.02631823 100
-0.8066538 1.4552951 0.079655327 100
-0.79978925 1.4518276 0.13230242 100
-0.78274268 1.4490664 0.0261088 100
-0.80959207 1.4627469 0.079969339 100
-0.80450195 1.4601532 0.13299966 100
-0.79103559 1.4591987 0.02631823 100
-0.80183655 1.4647496 0.079655327 100
-0.81094497 1.4694307 0.13387123 100
-0.79572314 1.4675566 0.026457848 100
-0.79585677 1.4676259 0.07944598 100
-0.81203288 1.4760108 0.13421984 100
-0.79327995 1.4722497 0.026457848 100
-0.79695338 1.4741702 0.079655327 100
-0.80249757 1.4770687 0.1335226 100
-0.79082054 1.4769344 0.026457848 96
-0.79978734 1.481662 0.079969339 100
-0.79473394 1.4789977 0.13299966 100
-0.78329509 1.4783287 0.026353134 31
-0.80107254 1.4877732 0.080178685 28
-0.79425937 1.4841535 0.13317397 65
0.13320619 1.2863538 0.12898688 5
0.15607134 1.2615275 0.010995016 12
0.13781562 1.2843063 0.03454173 27
0.1413126 1.2799428 0.057174169 23
0.1003294 1.33108 0.11388429 9
0.14360556 1.2770817 0.12631555 17
0.16976535 1.2444407 0.14036946 7
0.13077572 1.2930903 0.17962041 6
0.15280902 1.2691586 0.011134636 50
0.16572893 1.2529219 0.032343622 60
0.15426019 1.2673349 0.055605363 49
0.14334938 1.2810467 0.080190025 27
0.17362899 1.2429937 0.095737889 12
0.14904535 1.2738886 0.12517071 78
0.18719777 1.2259415 0.13452072 15
0.15064725 1.2718754 0.17185585 14
0.164471 1.2579893 0.010855397 100
0.16494069 1.2573948 0.032552965 100
0.1609391 1.2624598 0.054908119 100
0.1648252 1.2575409 0.076290213 29
0.1728332 1.2474047 0.096363634 37
0.16541132 1.256799 0.12059128 100
0.18758345 1.2287343 0.13497064 38
0.15120396 1.2747822 0.17237349 42
0.16856021 1.2561187 0.010785587 100
0.16409323 1.2618115 0.032762308 100
0.15642467 1.2715845 0.055779677 100
0.17257115 1.251007 0.075071514 30
0.17197955 1.251761 0.096989371 25
0.17793518 1.2441709 0.11715672 100
0.18309179 1.2375991 0.13722014 45
0.15526518 1.2730622 0.1713382 43
0.16534367 1.2637571 0.010925206 100
0.17931411 1.2458242 0.031610917 92
0.15083125 1.2823858 0.056825545 100
0.17425248 1.2523215 0.075071514 30
0.17609149 1.2499609 0.096363634 25
0.18321222 1.2408205 0.11601187 100
0.18352863 1.2404144 0.13767004 30
0.14752567 1.286629 0.17547931 42
0.15850562 1.2761693 0.01116954 75
0.17608958 1.2534347 0.032029606 60
0.15993595 1.2743199 0.055779677 49
0.16986597 1.2614813 0.076290213 29
0.17293498 1.2575133 0.097615108 24
0.17524892 1.2545216 0.11906482 26
0.1923264 1.2324419 0.13497064 22
0.14578575 1.2926149 0.17703223 34
0.16880009 1.2664305 0.010925206 65
0.17413014 1.2594893 0.032343622 60
0.17383316 1.259876 0.054036561 51
0.17521086 1.2580819 0.07555899 75
0.19629446 1.230625 0.091983467 40
0.18052959 1.2511554 0.11791996 13
0.19869021 1.2275051 0.13317102 23
0.15114221 1.2894261 0.17547931 56
0.17780936 1.2582164 0.010715778 39
0.17584106 1.2607983 0.032343622 30
0.17433751 1.2627707 0.054210871 51
0.17932385 1.2562299 0.075071514 75
0.19431168 1.2365696 0.092922069 53
0.19411394 1.236829 0.11410378 13
0.19556352 1.2349277 0.13497064 38
0.17872453 1.2570159 0.16409127 69
0.17468867 1.2658906 0.010855397 52
0.17273527 1.2684716 0.032762308 29
0.17245275 1.268845 0.054733805 50
0.18461728 1.2527722 0.074340299 61
0.19594249 1.2378085 0.092922069 53
0.19811523 1.2349377 0.11334054 13
0.19601256 1.2377158 0.13542053 45
0.17343172 1.2675514 0.16719711 67
0.17633516 1.2671325 0.010855397 52
0.16959023 1.2761061 0.033180997 28
0.17650327 1.2669089 0.054385185 51
0.19337654 1.2444602 0.072877869 47
0.18444002 1.2563496 0.096363634 50
0.20201814 1.2329632 0.1125773 13
0.20810342 1.2248673 0.13137141 31
0.17856592 1.2641647 0.16564418 68
0.1851629 1.258754 0.010645968 40
0.18321794 1.2613597 0.032134276 30
0.17815313 1.2681447 0.054385185 51
0.19613934 1.2440494 0.072634131 63
0.20377943 1.2338144 0.091670595 54
0.19885775 1.2404077 0.11410378 20
0.20728227 1.2291218 0.13227122 31
0.17789546 1.2684898 0.16667947 67
0.18091825 1.2680578 0.010820492 91
0.20871803 1.2305434 0.03004084 33
0.17989424 1.2694397 0.054385185 76
0.18834111 1.258041 0.074584037 76
0.20775276 1.2318459 0.091044858 81
0.1934886 1.2510947 0.11639348 13
0.21352798 1.2240525 0.13047162 32
0.18538874 1.2620251 0.16409127 69
0.19442442 1.2531732 0.010471444 82
0.19722524 1.2493672 0.03119223 63
0.17919064 1.2738736 0.054733805 75
0.19937426 1.2464471 0.072634131 78
0.20109034 1.2441152 0.093234941 92
0.20090419 1.2443682 0.1144854 13
0.21965572 1.2188877 0.128672 24
0.18931246 1.2601196 0.163056 70
0.19392416 1.2577652 0.010541254 81
0.20613423 1.2410394 0.030564198 64
0.18465236 1.2704661 0.054210871 100
0.20588806 1.2413766 0.071659178 80
0.20524281 1.2422605 0.092609204 93
0.21777663 1.2250912 0.10952436 14
0.22942486 1.2091351 0.12552269 16
0.19233608 1.2599406 0.16253836 70
0.19319624 1.2621813 0.010611063 81
0.21355948 1.2340919 0.03004084 66
0.18631396 1.2716749 0.054210871 100
0.2074531 1.2425151 0.071659178 80
0.20681077 1.2434012 0.092609204 93
0.20891681 1.240496 0.11295892 13
0.24346453 1.1928403 0.12057377 8
0.19396275 1.2611239 0.16253836 70
0.19725251 1.2601776 0.010541254 95
0.21751472 1.2320212 0.029831495 99
0.18573982 1.2761756 0.054559495 100
0.20678556 1.2469305 0.072146654 63
0.21538833 1.2349761 0.090731993 95
0.216295 1.2337161 0.11105084 14
0.23697448 1.20498 0.12372308 16
0.19229403 1.2670679 0.16409127 69
0.19422933 1.2678525 0.010680873 80
0.21672621 1.2363713 0.03004084 99
0.19205397 1.2708967 0.053862248 100
0.20606068 1.2512962 0.072634131 78
0.2157836 1.2376902 0.091044858 100
0.20527849 1.2523907 0.11524864 20
0.24068469 1.2028446 0.12282328 17
0.19843715 1.2619643 0.16202073 70
0.20530987 1.2561034 0.010401634 83
0.20572981 1.2555112 0.03119223 94
0.20080695 1.2624537 0.05281638 100
0.21012348 1.2493149 0.072146654 79
0.21864262 1.2373008 0.090731993 95
0.21159127 1.247245 0.11372216 27
0.22874674 1.2230513 0.12822211 16
0.20247751 1.2600977 0.16098544 72
0.20922628 1.2539737 0.010331824 98
0.21539074 1.2452188 0.030459527 97
0.19555956 1.2733834 0.053862248 100
0.21171483 1.2504394 0.072146654 63
0.21223322 1.2497032 0.092922069 100
0.21091515 1.251575 0.1144854 67
0.2302509 1.2241141 0.12822211 32
0.19965583 1.2675657 0.163056 70
0.21320882 1.2518821 0.010262015 98
0.22506067 1.2349244 0.029726824 100
0.20416704 1.2648191 0.05281638 100
0.22135422 1.2402277 0.070440479 49
0.21730462 1.2460219 0.091983467 93
0.20809954 1.2591925 0.11601187 100
0.23072165 1.2268248 0.128672 73
0.20582154 1.2624519 0.16098544 72
0.20796803 1.2628534 0.010471444 96
0.22546551 1.2376403 0.029831495 66
0.19899419 1.2757843 0.053862248 100
0.22065178 1.2445766 0.070927955 65
0.22451618 1.2390082 0.090419121 100
0.21979761 1.2458074 0.1125773 89
0.22890511 1.2326839 0.13002171 96
0.2041522 1.2683518 0.16253836 70
0.20750856 1.2673976 0.010541254 95
0.22491628 1.2421166 0.03004084 99
0.20762995 1.2672215 0.05281638 100
0.21901602 1.2506855 0.071659178 80
0.22847795 1.236944 0.089793384 100
0.21597672 1.2550995 0.1144854 81
0.22949791 1.2354627 0.13047162 96
0.20926785 1.2648426 0.16098544 72
0.21367431 1.2619276 0.010401634 83
0.22648364 1.243192 0.03004084 66
0.2070317 1.2716435 0.053165004 100
0.21725073 1.2566966 0.072390392 47
0.22668353 1.2428997 0.090731993 100
0.22645152 1.243239 0.11143246 100
0.22334424 1.2477839 0.13362093 93
0.21963325 1.2532117 0.15684435 74
0.22333744 1.2515728 0.0101573 71
0.21925068 1.2575976 0.030878214 63
0.20775416 1.274546 0.053339314 78
0.2246086 1.2496989 0.071171694 81
0.22841895 1.2440815 0.090731993 95
0.22818822 1.2444217 0.11143246 91
0.23275524 1.2376889 0.13047162 96
0.21815312 1.2592156 0.15839726 73
0.21823385 1.2626051 0.010366729 41
0.23425779 1.2388127 0.029622151 33
0.21388108 1.269068 0.05264207 53
0.23063672 1.2441893 0.07019674 82
0.22778589 1.2484221 0.09135773 100
0.22866651 1.2471147 0.11181407 98
0.23648509 1.2355057 0.12957181 100
0.21761894 1.2635181 0.15943253 73
0.22012776 1.2638752 0.010366729 41
0.20056173 1.293169 0.032971654 29
0.21469322 1.2720118 0.05281638 53
0.22584441 1.2553165 0.071659178 80
0.2318196 1.2463706 0.090731993 100
0.23268175 1.2450798 0.11105084 91
0.24043956 1.233465 0.128672 100
0.22058934 1.2631842 0.15891489 73
0.21734667 1.2716327 0.010506349 27
0.22437483 1.2610344 0.030878214 31
0.22406766 1.2614976 0.051596198 54
0.23074684 1.2514256 0.070927955 97
0.24541 1.2293139 0.087290429 99
0.22883382 1.2543104 0.11295892 89
0.23767018 1.2409854 0.13047162 96
0.21902362 1.2691039 0.1604678 72
0.23229176 1.252746 0.010087491 28
0.18875894 1.3188925 0.03443706 27
0.22688061 1.260968 0.051421888 55
0.23133793 1.2541952 0.071171694 65
0.24049935 1.2402749 0.089167647 100
0.23700213 1.2455888 0.11066922 92
0.23931614 1.2420727 0.13047162 96
0.23032618 1.2557325 0.15580906 75
0.23608193 1.2504488 0.010017681 43
0.20587555 1.2966795 0.032971654 29
0.22742069 1.2637048 0.051596198 54
0.2448892 1.2369694 0.068490572 100
0.23989955 1.244606 0.089793384 100
0.24717185 1.2334758 0.10761628 87
0.23448777 1.2528887 0.13317102 93
0.22771198 1.2632589 0.15787962 73
0.24002028 1.2482401 0.0099478718 43
0.24039793 1.2476574 0.029831495 33
0.22381401 1.2732433 0.052467756 53
0.24336365 1.2430819 0.069221787 67
0.24593884 1.2391088 0.08854191 84
0.23819432 1.2510571 0.11143246 84
0.25003889 1.2327833 0.1273223 97
0.23267424 1.2595736 0.1563267 74
0.22645879 1.2728083 0.010436539 68
0.25387195 1.230206 0.028680105 69
0.23626587 1.2575673 0.05072464 56
0.24385995 1.2457654 0.069465525 49
0.25177181 1.2334698 0.087290429 85
0.24616542 1.2421826 0.10914274 85
0.24841166 1.2386918 0.128672 97
0.22802728 1.2703707 0.15943253 73
0.2347593 1.2638772 0.01022711 70
0.2480385 1.2430731 0.029412808 67
0.23055115 1.2704699 0.051944822 81
0.23919749 1.256924 0.070927955 48
0.25559816 1.2312295 0.086664692 71
0.24261662 1.2515674 0.11105084 70
0.25118002 1.2381513 0.12822211 89
0.23298162 1.2666622 0.15787962 65
0.24924251 1.2446501 0.0098082526 74
0.24960893 1.2440718 0.029412808 67
0.24500933 1.2513309 0.049853086 57
0.24400139 1.2529216 0.07019674 66
0.2507855 1.2422149 0.08854191 70
0.24631685 1.2492673 0.1102876 99
0.25273412 1.2391397 0.12822211 89
0.23669836 1.2644471 0.15684435 66
0.24762404 1.2507229 0.0099129668 87
0.24373883 1.2568997 0.030145511 98
0.23918146 1.264145 0.051073264 83
0.25088912 1.245532 0.068978049 50
0.25445658 1.2398604 0.087916173 84
0.25627023 1.236977 0.10723466 88
0.25740421 1.2351742 0.12687239 90
0.23833972 1.2654833 0.15684435 66
0.24295118 1.2619538 0.010122396 85
0.2443828 1.2596601 0.030250182 98
0.23563364 1.2736781 0.051944822 54
0.25465298 1.2432052 0.068490572 50
0.25609851 1.2408892 0.087916173 56
0.24646765 1.2563198 0.11143246 91
0.26006156 1.2345395 0.12642249 99
0.23597971 1.2731235 0.15891489 65
0.24686149 1.2596754 0.010052586 86
0.25353852 1.2488897 0.029517479 100
0.23853055 1.2731328 0.051770512 81
0.25220984 1.2510359 0.069465525 49
0.26198542 1.2352449 0.086664692 57
0.25961936 1.239067 0.10723466 81
0.26586908 1.2289714 0.12462288 92
0.23782584 1.274271 0.15891489 65
0.24961925 1.2590266 0.010017681 72
0.25834799 1.2448161 0.029203463 100
0.24654549 1.2640307 0.05072464 84
0.25389078 1.2520725 0.069465525 49
0.26361117 1.2362474 0.086664692 71
0.24995542 1.2584794 0.11143246 91
0.26543301 1.2332814 0.12552269 82
0.24767691 1.2621888 0.15477379 67
0.25653145 1.2515343 0.0098431576 88
0.26000717 1.2458311 0.029203463 100
0.24723497 1.2667882 0.050898954 83
0.25454226 1.2547982 0.069709264 49
0.26729646 1.2338706 0.086038955 58
0.2608577 1.2444355 0.10799789 79
0.26908022 1.2309438 0.12462288 100
0.25542897 1.2533432 0.15166797 69
0.26338759 1.2439998 0.0096686333 90
0.25753614 1.2536769 0.029622151 100
0.24897093 1.2678421 0.050898954 100
0.25623631 1.2558266 0.069709264 83
0.26687315 1.2382355 0.086664692 57
0.26657894 1.238722 0.10647142 81
0.26564923 1.2402595 0.12687239 82
0.25311956 1.2609811 0.15373851 68
0.25475669 1.2621453 0.010017681 87
0.26539108 1.2444186 0.028994121 100
0.2466107 1.2757239 0.051596198 82
0.26099759 1.2517422 0.068978049 50
0.27054176 1.2358329 0.086038955 58
0.25609711 1.2599109 0.11105084 98
0.27230504 1.2328937 0.12462288 83
0.24887228 1.2719541 0.15684435 66
0.26159006 1.254581 0.0098431576 88
0.26807034 1.243693 0.028889447 100
0.24430189 1.2836282 0.052293446 80
0.26471147 1.2493365 0.068490572 50
0.2721695 1.2368057 0.086038955 58
0.26784992 1.2440634 0.10723466 73
0.27491918 1.2321856 0.12417299 92
0.242722 1.2862828 0.16098544 64
0.26023313 1.2607507 0.0099478718 87
0.26667911 1.2498337 0.029203463 100
0.25622675 1.2675358 0.05055033 84
0.26234919 1.2571669 0.069465525 49
0.27982682 1.2275667 0.084161744 59
0.26351723 1.2551887 0.10952436 78
0.2814883 1.2247528 0.12192347 68
0.26226658 1.2573068 -0.0098780617 87
0.25631282 1.26739 0.15477379 67
0.26295865 1.2600336 0.0099129668 87
0.26330838 1.2594366 0.029726824 100
0.25796527 1.2685583 0.05055033 100
0.2640515 1.258168 0.069465525 49
0.27743202 1.2353249 0.085413218 58
0.27017406 1.2477156 0.10761628 79
0.27815253 1.2340949 0.12417299 92
0.26000366 1.2650783 0.15373851 68
0.2656756 1.2593036 0.0098780617 73
0.26401511 1.2621613 0.029831495 99
0.26170936 1.2661293 0.050201707 85
0.2667546 1.2574468 0.069221787 50
0.27905795 1.2362735 0.085413218 58
0.26987058 1.2520844 0.10837951 79
0.27977419 1.2350409 0.12417299 83
0.25591001 1.2761096 0.15684435 66
0.27537444 1.2464333 0.0095988233 76
0.27969873 1.2389313 0.028366089 100
0.255483 1.2809418 0.051596198 82
0.26845783 1.2584325 0.069221787 67
0.27575475 1.2457736 0.086977564 57
0.2725355 1.2513584 0.10799789 79
0.28529188 1.229228 0.12237337 85
0.26346701 1.2670908 0.15373851 68
0.26810592 1.2630126 0.0099129668 87
0.27935448 1.2433397 0.028575432 100
0.26221311 1.2733188 0.05072464 84
0.28100318 1.2404562 0.066540658 52
0.27839768 1.245013 0.086664692 71
0.26934496 1.2608457 0.10990598 85
0.2868965 1.2301493 0.12237337 85
0.26328611 1.2714422 0.15477379 67
0.27476117 1.2552965 0.0097384425 75
0.27312586 1.2581799 0.029412808 100
0.26495469 1.2725871 0.05055033 84
0.27481252 1.255206 0.068490572 50
0.28590459 1.2356486 0.084787481 59
0.27880839 1.2481606 0.10685304 81
0.29042709 1.2276746 0.12147357 86
0.2767342 1.2518177 -0.0096686333 100
0.26694432 1.2690791 0.15373851 76
0.27939817 1.2510258 0.0096337283 90
0.28070709 1.2486989 0.028784776 100
0.28038684 1.2492683 0.048109971 100
0.27066818 1.2665443 0.069953002 49
0.29237419 1.2279594 0.083223134 60
0.28144169 1.2473931 0.10647142 73
0.28820443 1.2353716 0.12327318 85
0.2705825 1.2666967 0.15270324 68
0.27913019 1.25546 0.0097035384 90
0.27848706 1.2566127 0.029203463 100
0.26749954 1.2763047 0.05072464 84
0.28014103 1.2536483 0.068003096 51
0.2833868 1.2478311 0.086664692 71
0.28310975 1.2483277 0.10647142 81
0.28888094 1.2379844 0.12372308 83
0.27420059 1.264295 0.15166797 69
0.27783588 1.261604 0.0098082526 89
0.2878412 1.2435315 0.028366089 100
0.27304015 1.2702664 0.050027397 85
0.29328415 1.2337 0.065078229 71
0.28497282 1.2487127 0.086664692 71
0.28184468 1.2543629 0.10761628 79
0.29515365 1.2303233 0.12147357 86
0.27209845 1.2719673 0.15373851 68
0.28340331 1.2555397 0.0096686333 90
0.28949574 1.2444438 0.028366089 100
0.2690345 1.2817087 0.051073264 83
0.28343934 1.255474 0.068003096 51
0.2904484 1.2427087 0.085413218 58
0.28164726 1.2587378 0.10837951 94
0.27385235 1.2729343 0.15373851 68
0.2765806 1.2723207 0.0099827768 87
0.28932673 1.2489038 0.028575432 100
0.28329465 1.2599858 0.048807215 88
0.28047535 1.2651653 0.069221787 33
0.29879341 1.2315118 0.083223134 60
0.28719473 1.2528207 0.10685304 66
0.29845417 1.2321351 0.12147357 86
0.28136066 1.263539 -0.0098082526 88
0.27939186 1.2671559 0.15166797 77
0.28213519 1.2662333 0.0098431576 88
0.28910255 1.2533259 0.028784776 100
0.28784588 1.255654 0.048284281 88
0.28786308 1.2556221 0.067759357 68
0.29759094 1.2376008 0.084161744 74
0.28981426 1.2520075 0.10647142 81
0.29914317 1.2347252 0.12192347 76
0.27928555 1.2715124 -0.0099478718 86
0.2829642 1.2646976 0.15063268 70
0.29786059 1.2406324 0.0093195848 78
0.29062226 1.2541431 0.028784776 100
0.28937289 1.2564752 0.048284281 88
0.29032743 1.2546935 0.067515619 51
0.29318407 1.2493614 0.10570818 81
0.2818068 1.2705977 -0.0099129668 97
0.28451967 1.265534 0.15063268 70
0.29762858 1.2450416 0.0093893949 62
0.29606199 1.2479904 0.028366089 100
0.28920308 1.260901 0.048632905 88
0.29015824 1.2591031 0.068003096 51
0.29513708 1.2497313 0.086038955 72
0.29485893 1.2502549 0.10570818 73
0.28443831 1.2698698 0.15166797 69
0.2920033 1.2601634 0.0096686333 75
0.29975972 1.2454271 0.028156744 100
0.29572988 1.2530833 0.047761347 60
0.29573655 1.2530707 0.067028143 51
0.29579043 1.2529683 0.1060898 66
0.28641492 1.2707807 -0.0098780617 97
0.28276044 1.2777238 0.15373851 76
0.29371586 1.2610611 0.0096686333 90
0.29772446 1.2533803 0.028575432 100
0.29926139 1.2504354 0.047412723 90
0.29375049 1.2609947 0.068003096 51
0.29566115 1.2573338 0.10685304 73
0.28723937 1.2734705 -0.0099129668 97
0.29168493 1.2649524 0.14959741 70
0.29941329 1.2542579 0.028575432 100
0.2917833 1.2690028 0.049155839 87
0.29911518 1.2548339 0.067028143 51
0.29341421 1.2658511 0.14959741 70
0.29919651 1.2586399 0.028784776 100
0.29980803 1.2574486 0.047935657 59
0.2978102 1.2653778 0.048632905 59
0.29670843 1.2675419 0.14959741 70
0.29945433 1.2662113 0.048632905 59
0.29487684 1.2752771 0.15166797 69
0.29874855 1.2726136 -0.0098082526 100
