# .PCD v0.7 - Point Cloud Data file format
VERSION 0.7
FIELDS x y z intensity
SIZE 4 4 4 4
TYPE F F F F
COUNT 1 1 1 1
WIDTH 732
HEIGHT 1
VIEWPOINT 0 0 0 1 0 0 0
POINTS 732
DATA ascii
-1.0803622 0.14837542 0.057150863 27
-1.0905124 0.15753381 0.019232552 5
-1.0207208 0.15109104 0.018010883 6
-1.0221643 0.15495281 0.018045789 4
-1.0532055 0.16360955 0.018604266 1
0.055959046 0.0025162101 0.047835063 61
0.054587156 0.0068395138 0.015881689 100
0.053015769 0.0044188499 0.047835063 52
0.047547579 0.0018796325 0.016021309 34
0.044653475 0.0027278662 0.048149079 100
0.043082654 0.0061606169 0.04804441 100
0.04597044 0.016236126 0.047521047 78
0.038878441 0.011374593 0.047939736 36
0.038477004 0.016468287 0.047730394 19
0.029084623 0.0083671212 0.048358422 17
0.028827786 0.013388336 0.048149079 8
0.021635056 0.0086488128 0.048567768 8
0.030425012 0.026866376 0.047521047 9
0.018633008 0.015621722 0.048358422 8
-1.0505695 1.1354035 0.028656852 3
-1.0096762 1.1260678 0.083842203 5
-1.0291824 1.1305209 0.14171524 6
-1.0161054 1.1335799 0.028063469 10
-1.0005786 1.1299752 0.083423518 16
-1.0200875 1.1345043 0.14101799 32
-0.99153453 1.1332672 0.027644612 26
-0.99937648 1.1351151 0.083423518 84
-1.0208094 1.1401658 0.1411923 81
-0.98234993 1.137319 0.027504992 36
-0.99213642 1.1396649 0.083109498 100
-1.0213139 1.146659 0.14136662 95
-0.9888956 1.1442888 0.027644612 41
-0.98119861 1.1424167 0.082586139 100
-1.0045686 1.1481007 0.13997212 87
-0.98563832 1.1491789 0.027609708 25
-0.97988933 1.1477593 0.082586139 100
-0.98583072 1.1492263 0.13840333 91
-0.96691436 1.1498969 0.027295563 26
-0.98444051 1.1542861 0.082900152 52
-0.99809355 1.1577054 0.13962349 78
-0.96744984 1.155947 0.027330469 38
-0.97915047 1.1589229 0.082690813 33
-0.99473125 1.1628858 0.13944919 78
-0.9700343 1.1619756 0.027400278 59
-0.97785228 1.1639917 0.082690813 54
-0.98377353 1.1655186 0.13857763 91
-0.97052199 1.1680506 0.027435184 61
-0.96866947 1.1675657 0.08227212 100
-0.98038608 1.170633 0.13840333 92
-0.95179826 1.1684752 0.027121039 74
-0.9654122 1.1720873 0.082167454 90
-0.96749467 1.1726398 0.13735744 100
-0.94639546 1.1731982 0.027051231 83
-0.95807177 1.1763443 0.081853434 96
-0.96786124 1.178982 0.13753176 100
-0.95083743 1.1797382 0.027155945 93
-0.941302 1.1771349 0.081016064 98
-0.96841866 1.1845379 0.13770607 99
-0.9531799 1.1863036 0.027225753 89
-0.94172448 1.1831311 0.081120729 100
-0.96880919 1.1906322 0.13788038 89
-0.95179123 1.1912861 0.027225753 93
-0.94611543 1.1896939 0.081434749 86
-0.94630426 1.1897469 0.13596296 100
-0.94076806 1.1935315 0.027051231 75
-0.94087297 1.1935613 0.081225403 76
-0.94298762 1.194162 0.13578865 100
-0.95280761 1.2023427 0.027295563 57
-0.943299 1.1996073 0.081434749 46
-0.95114642 1.2018648 0.1366602 99
-0.93777496 1.2039286 0.027051231 42
-0.93021017 1.2017221 0.080806717 22
-0.959117 1.2101532 0.13753176 85
-0.93249208 1.2077273 0.026981421 71
-0.92110842 1.2043661 0.080388032 26
-0.9480949 1.2123343 0.1366602 84
-0.93080038 1.2134163 0.026981421 75
-0.9156031 1.2088656 0.080178685 30
-0.93302482 1.2140825 0.13544002 98
-0.91018444 1.2125247 0.026632372 75
-0.9217853 1.2160404 0.080597371 80
-0.92201036 1.2161086 0.13456847 99
-0.90488535 1.2161918 0.026562562 83
-0.92029804 1.2209187 0.080597371 100
-0.92433256 1.2221559 0.1349171 100
-0.9091273 1.2227919 0.026667276 85
-0.90734953 1.2222402 0.079969339 90
-0.92282504 1.2270424 0.1349171 80
-0.9073779 1.2283912 0.026667276 85
-0.9094128 1.2290312 0.080178685 74
-0.93626398 1.2374767 0.13631158 54
-0.91347212 1.2356467 0.026806897 83
-0.90407604 1.2326571 0.079969339 72
-0.90432805 1.2327373 0.1335226 46
-0.8965289 1.2361012 0.026527658 85
-0.9004696 1.2373708 0.079864666 89
-0.90072578 1.2374535 0.13334829 48
-0.88356763 1.2371778 0.02631823 99
-0.90460867 1.2440348 0.080178685 100
-0.91242808 1.246583 0.13456847 59
-0.88572639 1.2434316 0.026388038 100
-0.89346117 1.2459821 0.079655327 100
-0.90886337 1.251061 0.13439415 78
-0.88794261 1.249455 0.026457848 100
-0.88998002 1.2501345 0.079550654 100
-0.91482049 1.258417 0.13509139 82
-0.88988012 1.2562524 0.026527658 99
-0.88244909 1.2537429 0.079236634 100
-0.89783305 1.2589381 0.13369691 78
-0.87312013 1.2558558 0.02624842 93
-0.88272721 1.2591357 0.079341307 100
-0.89243263 1.2624491 0.13334829 97
-0.86763519 1.2595152 0.02617861 93
-0.88478678 1.2654376 0.079550654 100
-0.88693839 1.2661806 0.13299966 100
-0.86978012 1.2655314 0.02624842 81
-0.86427897 1.2636113 0.078503937 97
-0.90221506 1.2768519 0.13456847 63
-0.86975247 1.2716455 0.026283324 75
-0.86237317 1.2690382 0.078503937 63
-0.90589386 1.2844155 0.13509139 35
-0.87561411 1.2790406 0.026422944 83
-0.8475439 1.2690177 0.077771232 23
-0.89479822 1.2858906 0.13421984 36
-0.85313874 1.2765446 0.026038991 93
-0.86270088 1.2799966 0.078713275 42
-0.87424845 1.2841654 0.13247673 30
-0.8476941 1.2798243 0.025969181 93
-0.8647545 1.2860473 0.078922622 85
-0.86879212 1.2875202 0.1321281 16
-0.84206384 1.2835594 0.025899371 100
-0.85348457 1.2877728 0.078399263 100
-0.87062424 1.294096 0.13247673 9
-0.84784836 1.2909663 0.026038991 100
-0.82743019 1.2833567 0.077038527 96
-0.87261242 1.3001957 0.13282534 1
-0.84218711 1.2946757 0.025969181 100
-0.83114618 1.2905147 0.077352546 46
-0.87065953 1.3054062 0.13282534 1
-0.83670181 1.2978667 0.025899371 88
-0.84621185 1.3014867 0.07829459 53
-0.83163542 1.295938 0.12933913 11
-0.82915908 1.3007909 0.025794657 71
-0.84425455 1.3066006 0.07829459 63
-0.85944945 1.3124486 0.1321281 48
-0.82739133 1.3053615 0.025794657 75
-0.82757467 1.3054328 0.077457212 72
-0.85578579 1.3163977 0.13195379 99
-0.82746989 1.3106567 0.025829561 93
-0.81649572 1.3063493 0.076933853 69
-0.84654754 1.3181447 0.13125655 100
-0.82557422 1.3154616 0.025829561 100
-0.82018501 1.3133247 0.077247873 85
-0.83166105 1.3178753 0.13003637 99
-0.81623656 1.3172855 0.025689943 100
-0.82569629 1.321075 0.077666558 95
-0.82419163 1.3204722 0.12951343 100
-0.80690306 1.319051 0.025550323 100
-0.8256157 1.3266228 0.077771232 97
-0.82964939 1.3282549 0.13021068 100
-0.80507499 1.3235476 0.025550323 100
-0.81451768 1.327405 0.077247873 100
-0.82225722 1.3305666 0.12968774 100
-0.80683154 1.3297998 0.025620133 100
-0.79594702 1.325309 0.076305822 100
-0.82397574 1.3368731 0.13003637 100
-0.78040761 1.3188978 0.17671055 16
-0.81205446 1.3380845 0.025759751 100
-0.79564816 1.3312418 0.076410495 100
-0.81259471 1.3383098 0.12916481 100
-0.78745085 1.3278229 0.17792924 18
-0.79531997 1.3366259 0.025480513 100
-0.79368085 1.3359356 0.076410495 100
-0.803258 1.3399693 0.12846756 100
-0.79464275 1.3363407 0.17914793 26
-0.78617138 1.3377216 0.025340894 96
-0.80292565 1.3448403 0.077038527 72
-0.80329436 1.3449969 0.12864187 99
-0.76545173 1.3289181 0.17549185 16
-0.81726044 1.3565736 0.025969181 61
-0.81743008 1.3566463 0.077980578 40
-0.80677205 1.3520739 0.12916481 35
-0.76714128 1.3350718 0.17597933 7
-0.81336957 1.3605478 0.025934275 90
-0.79704684 1.3534775 0.076933853 90
-0.83946866 1.3718526 0.13247673 46
-0.77973324 1.345978 0.17792924 7
-0.80030686 1.360496 0.025724847 100
-0.81147128 1.3653781 0.077875905 100
-0.81545371 1.3671198 0.130385 100
-0.79590243 1.3585699 0.18036664 35
-0.79457873 1.3635906 0.025655037 100
-0.80573052 1.3685138 0.077666558 100
-0.80789298 1.3694685 0.12986206 100
-0.79928774 1.3656695 0.18109785 42
-0.79249853 1.3682804 0.025655037 100
-0.81457883 1.3781204 0.07829459 100
-0.80215245 1.3725827 0.12951343 100
-0.7718156 1.3590631 0.1776855 37
-0.790402 1.372963 0.025655037 100
-0.81062633 1.3820606 0.078189917 100
-0.81094295 1.3822031 0.1305593 100
-0.75164777 1.3555299 0.17524812 22
-0.79739302 1.3817718 0.025829561 100
-0.79938859 1.3826778 0.077666558 100
-0.81242591 1.3885972 0.13090792 100
-0.76767093 1.3682767 0.1776855 16
-0.80059499 1.3892063 0.025934275 100
-0.81347388 1.3951108 0.07860861 100
-0.81014949 1.3935866 0.13090792 100
-0.77990514 1.3797207 0.17963541 14
-0.79842538 1.393917 0.025934275 100
-0.80403298 1.3965116 0.078189917 100
-0.79349881 1.3916374 0.12951343 100
-0.76515764 1.3785241 0.17792924 11
-0.78355604 1.3926976 0.025689943 100
-0.81631535 1.4079945 0.079027295 100
-0.79854184 1.3996952 0.13021068 100
-0.76482421 1.3839509 0.17817298 5
-0.79403681 1.4033155 0.025934275 100
-0.80685312 1.4093546 0.07860861 100
-0.80714947 1.4094942 0.13125655 100
-0.76446885 1.3893828 0.17841671 3
-0.80265361 1.4131553 0.026143705 100
-0.80100554 1.4123716 0.078399263 100
-0.81210643 1.4176499 0.13195379 100
-0.78022629 1.4024916 0.18085411 1
-0.80040032 1.417873 0.026143705 100
-0.80595797 1.4205394 0.078817949 100
-0.7954666 1.4155059 0.1305593 100
-0.79284424 1.4197347 0.026038991 100
-0.81098479 1.4285119 0.079236634 100
-0.80407947 1.4251708 0.13160518 100
-0.78697413 1.4226637 0.025969181 100
-0.81226748 1.4350109 0.07944598 100
-0.80536515 1.4316416 0.13195379 100
-0.7918635 1.4308605 0.0261088 100
-0.79918736 1.4344676 0.078817949 100
-0.81019682 1.4398897 0.13265105 100
-0.79682857 1.4388645 0.02624842 100
-0.79876536 1.4398263 0.078922622 100
-0.81153685 1.4461689 0.13299966 100
-0.80521291 1.448936 0.026457848 100
-0.79999036 1.4463196 0.079131968 100
-0.8020429 1.4473479 0.13230242 100
-0.78867477 1.4462132 0.02617861 100
-0.8066538 1.4552951 0.079655327 100
-0.8033461 1.4536242 0.13265105 100
-0.78975052 1.4529315 0.02624842 100
-0.80769175 1.462077 0.079864666 100
-0.80083138 1.45858 0.13265105 100
-0.78747851 1.4573705 0.02624842 100
-0.79828376 1.4629238 0.07944598 100
-0.80740076 1.4676092 0.1335226 100
-0.79192942 1.4661846 0.026388038 100
-0.79561311 1.4680955 0.07944598 100
-0.81532353 1.4783213 0.13456847 100
-0.80024534 1.4761913 0.026597468 100
-0.79683048 1.4744053 0.079655327 100
-0.80943614 1.4809982 0.13421984 100
-0.78715962 1.4753026 0.026388038 96
-0.79613 1.4800341 0.07976 100
-0.79637235 1.4801619 0.13317397 100
-0.79540724 1.4853656 0.026597468 26
-0.79553145 1.4854318 0.079864666 23
-0.79752833 1.4864936 0.1335226 56
0.129325 1.2907901 0.13013174 5
0.15598556 1.2614588 0.010995016 12
0.13897517 1.282676 0.03443706 27
0.1287609 1.2954164 0.05891728 22
0.1274153 1.2970948 0.10700117 10
0.14228904 1.2785425 0.12669717 23
0.1928429 1.2154862 0.13182132 7
0.15243566 1.2658865 0.17030293 7
0.15263483 1.26902 0.011134636 63
0.17053694 1.2465382 0.031924933 61
0.14788109 1.2749898 0.056476921 48
0.15677321 1.2638229 0.077508904 29
0.17346388 1.2428623 0.095737889 25
0.14764655 1.2752843 0.12555231 78
0.20039174 1.2090458 0.12957181 16
0.15167546 1.2702247 0.1713382 14
0.16818991 1.253282 0.010750682 100
0.16617882 1.2558275 0.032448292 89
0.15476352 1.2702767 0.055779677 100
0.15621108 1.2684444 0.077996381 14
0.18018061 1.2381046 0.094486415 26
0.15932608 1.2645016 0.12249938 100
0.18879151 1.2272052 0.13452072 46
0.15479672 1.2702346 0.17082056 36
0.1722635 1.251399 0.010680873 100
0.16902494 1.2555263 0.032343622 100
0.15396482 1.2747195 0.056128297 100
0.16154239 1.2650623 0.077265166 29
0.17441839 1.2486528 0.096363634 37
0.17308742 1.250349 0.1186832 100
0.18429476 1.2360661 0.13677025 45
0.15407261 1.2745821 0.17185585 29
0.16034067 1.2699991 0.011064826 100
0.18045878 1.2441841 0.031506244 93
0.15564072 1.2760299 0.056128297 100
0.17904922 1.2459929 0.07409656 30
0.17600772 1.2498956 0.096363634 25
0.17709601 1.2484992 0.11791996 100
0.19422752 1.2265165 0.13362093 31
0.14981052 1.2835112 0.17444403 42
0.17424059 1.255475 0.010715778 79
0.16736349 1.2643601 0.032762308 58
0.15732095 1.2773349 0.056128297 48
0.17090946 1.2597787 0.076046467 29
0.17034665 1.2605059 0.098240845 24
0.18228981 1.2450756 0.1167751 26
0.19097221 1.2338581 0.13542053 22
0.14087358 1.2985847 0.17910278 26
0.16645151 1.2696695 0.010995016 64
0.17786399 1.2548019 0.032029606 30
0.16906598 1.2662635 0.054733805 50
0.17650476 1.2565726 0.075315252 45
0.1843468 1.2463564 0.095112152 51
0.17822272 1.2543344 0.1186832 19
0.19995666 1.2260206 0.13272113 23
0.15593809 1.283366 0.17340876 57
0.17295998 1.2645775 0.010855397 39
0.1504128 1.2941535 0.03454173 27
0.18400085 1.2500948 0.05281638 53
0.18293434 1.2514938 0.074340299 46
0.19670689 1.2334278 0.092296332 53
0.19054317 1.241513 0.11524864 13
0.19910789 1.2302784 0.13362093 38
0.17403966 1.2631613 0.16616182 76
0.17718825 1.2627667 0.010785587 39
0.1523366 1.2956145 0.03454173 27
0.17855033 1.2609663 0.053862248 51
0.18829465 1.2480867 0.073609084 62
0.18768129 1.2488974 0.095112152 51
0.19464281 1.239696 0.1144854 13
0.1996215 1.2331154 0.13407083 46
0.17235297 1.2691578 0.16771474 67
0.18362921 1.2576054 0.010645968 40
0.16847882 1.2777693 0.03328567 28
0.17778683 1.2653811 0.054210871 51
0.19107449 1.2476965 0.073365346 46
0.20113742 1.2343037 0.091983467 53
0.20681626 1.2267456 0.11105084 14
0.22105947 1.2077893 0.12642249 33
0.17981264 1.2626851 0.16512655 68
0.17815974 1.2684987 0.010855397 52
0.18458363 1.2598867 0.032029606 30
0.17475325 1.2730656 0.054908119 50
0.18562275 1.2584937 0.074827775 61
0.19685483 1.2434356 0.093547814 65
0.19080511 1.251546 0.1167751 13
0.21093804 1.2245553 0.13092151 32
0.18037963 1.2655227 0.16564418 68
0.18338579 1.2649086 0.010750682 79
0.18858787 1.2578859 0.03182026 61
0.1776095 1.2727062 0.054733805 50
0.19197112 1.2533188 0.073852822 93
0.20783338 1.2319057 0.091044858 68
0.19357255 1.2511569 0.11639348 13
0.21708715 1.2194135 0.1291219 32
0.18202487 1.2667457 0.16564418 68
0.18748495 1.2629633 0.010680873 93
0.19857585 1.2478814 0.031087559 63
0.18762907 1.2627673 0.053513627 78
0.19130832 1.2577641 0.074340299 92
0.20710725 1.23628 0.091670595 100
0.21153769 1.2302554 0.11105084 14
0.21865794 1.2205729 0.1291219 24
0.19062805 1.2586892 0.16253836 70
0.18912169 1.2641627 0.010680873 93
0.19898459 1.2506571 0.03119223 63
0.18574005 1.2687932 0.054036561 77
0.20346433 1.2445228 0.072146654 79
0.20399538 1.2437956 0.092922069 100
0.21422365 1.2297897 0.11066922 14
0.22475106 1.2153742 0.1273223 16
0.18769327 1.2661186 0.16460891 69
0.19571432 1.2590669 0.010541254 95
0.20786297 1.2422966 0.030564198 64
0.18648911 1.2718017 0.054210871 100
0.21227631 1.2362043 0.070684217 65
0.20813492 1.2419212 0.092296332 100
0.21599159 1.2310755 0.11066922 14
0.24932835 1.1850564 0.11832426 8
0.19300088 1.2628126 0.163056 70
0.19733807 1.2602391 0.010541254 95
0.21176371 1.2401859 0.030354854 65
0.18815514 1.2730044 0.054210871 100
0.19643575 1.2614934 0.074340299 100
0.20970175 1.2430522 0.092296332 100
0.21064356 1.241743 0.11295892 13
0.25298238 1.1828874 0.11742445 17
0.1867401 1.2749715 0.16667947 67
0.20137563 1.2582124 0.010471444 96
0.21456769 1.2397382 0.030250182 98
0.19917583 1.2612929 0.05281638 100
0.20392153 1.2546471 0.073121607 78
0.21479893 1.2394145 0.09135773 94
0.2054469 1.252511 0.11524864 20
0.22837862 1.2203975 0.1277722 16
0.1963636 1.2652313 0.163056 70
0.20530987 1.2561034 0.010401634 97
0.21497199 1.2424773 0.030354854 65
0.19619715 1.2689548 0.053513627 100
0.21241996 1.2460763 0.071659178 80
0.21978521 1.2356894 0.090419121 100
0.21045566 1.2488465 0.11410378 27
0.23438278 1.2151029 0.12597258 16
0.20136008 1.2616736 0.16150309 70
0.21169662 1.2508217 0.010262015 84
0.2098102 1.2535028 0.030982886 95
0.20490721 1.2604713 0.052467756 100
0.21188256 1.2505574 0.072146654 63
0.2135374 1.2482054 0.092609204 100
0.20317522 1.2629329 0.11715672 66
0.23040944 1.2242256 0.12822211 32
0.19649458 1.2724279 0.16460891 85
0.20642138 1.2617764 0.010471444 96
0.22742957 1.2317066 0.029517479 100
0.19740695 1.2746791 0.053862248 100
0.2077935 1.2598124 0.073365346 93
0.21851903 1.2444606 0.091670595 100
0.20481175 1.2640803 0.11715672 100
0.23191744 1.2252829 0.12822211 73
0.19373703 1.279932 0.16667947 75
0.21041915 1.2596862 0.010401634 97
0.22449061 1.2393948 0.029936166 99
0.2014415 1.2726324 0.053513627 100
0.2242111 1.2397978 0.07019674 66
0.22467992 1.2391217 0.090419121 100
0.21660742 1.2507626 0.11372216 89
0.2357296 1.2231877 0.1273223 81
0.19662005 1.2795849 0.16616182 91
0.2052404 1.2706916 0.010611063 94
0.22944707 1.2355366 0.029622151 100
0.2098898 1.2639394 0.052467756 100
0.21901602 1.2506855 0.071659178 64
0.23407939 1.2288091 0.088229038 100
0.21820351 1.2518655 0.11372216 96
0.22728756 1.2386729 0.13137141 94
0.20707667 1.2680249 0.16202073 70
0.21610212 1.2587427 0.010331824 84
0.22552219 1.2449541 0.030145511 98
0.21395028 1.2618924 0.052119136 100
0.21630087 1.2584518 0.072634131 63
0.23353449 1.2332261 0.088854775 100
0.22329432 1.2482152 0.1125773 89
0.22790819 1.2414615 0.13182132 94
0.21653265 1.2581124 0.15839726 81
0.22333744 1.2515728 0.0101573 57
0.23606846 1.2328045 0.029308135 68
0.21222797 1.2679507 0.05264207 79
0.2246086 1.2496989 0.071171694 81
0.23285455 1.2375425 0.089480512 100
0.23259658 1.2379228 0.10990598 92
0.22837946 1.2441398 0.13227122 94
0.21381527 1.2656106 0.1604678 72
0.21617284 1.2660388 0.010436539 41
0.22215515 1.2571496 0.030773543 32
0.2140553 1.2691853 0.05264207 53
0.23080227 1.2443007 0.07019674 82
0.2279529 1.2485347 0.09135773 94
0.22554469 1.2521131 0.11295892 100
0.23773563 1.2339983 0.1291219 100
0.21779123 1.2636341 0.15943253 81
0.22004154 1.2638177 0.010366729 41
0.22377241 1.258234 0.030773543 32
0.21681944 1.2686399 0.052467756 53
0.23347971 1.2437061 0.069953002 99
0.24051616 1.2331753 0.088229038 98
0.22932667 1.2499216 0.11219569 91
0.23927602 1.2350314 0.1291219 100
0.2086972 1.2807958 0.16460891 93
0.21955699 1.2682996 0.010436539 27
0.22327101 1.2626989 0.030982886 31
0.22847214 1.2548558 0.050898954 55
0.22964972 1.25308 0.071171694 65
0.24213484 1.2342528 0.088229038 100
0.22557876 1.2592189 0.11410378 89
0.24090117 1.2361131 0.1291219 96
0.22009128 1.2674938 0.15995017 72
0.22780898 1.2593714 0.01022711 28
0.22929981 1.257107 0.030564198 32
0.23008174 1.2559193 0.050898954 55
0.23125345 1.2541397 0.071171694 81
0.2447623 1.2336212 0.087916173 100
0.23799872 1.2438943 0.1102876 85
0.24459177 1.2338803 0.12822211 97
0.23130372 1.2540632 0.15529142 75
0.23507228 1.2521778 0.010052586 28
0.21142831 1.2883785 0.032448292 29
0.2340439 1.2537524 0.05055033 56
0.23520106 1.2519807 0.070684217 81
0.24538341 1.2363908 0.088229038 98
0.23973775 1.2450347 0.1102876 92
0.24309713 1.2398912 0.12957181 88
0.22568527 1.2665501 0.15891489 73
0.23123327 1.2616087 0.01022711 42
0.25009412 1.2325212 0.028889447 34
0.23131394 1.2614844 0.051247578 55
0.23788109 1.2513564 0.070440479 98
0.24263284 1.2440281 0.089480512 97
0.24451905 1.2411191 0.10914274 85
0.25101835 1.2310958 0.12687239 99
0.22418058 1.2724855 0.1604678 72
0.23312327 1.2628291 0.01022711 42
0.24971193 1.2370292 0.029098792 68
0.23320344 1.2627044 0.051247578 55
0.23973167 1.2525512 0.070440479 49
0.24979693 1.236897 0.087916173 84
0.2388978 1.2538481 0.11181407 100
0.25384495 1.2306013 0.12642249 99
0.22924677 1.2688581 0.15891489 73
0.2347593 1.2638772 0.01022711 42
0.24266553 1.2514907 0.029936166 66
0.23376709 1.2654316 0.051421888 82
0.24133357 1.2535775 0.070440479 49
0.25772381 1.2278994 0.086038955 58
0.24472922 1.2482576 0.1102876 71
0.25432551 1.2332234 0.12687239 90
0.23298162 1.2666622 0.15787962 73
0.24076521 1.2582172 0.010087491 71
0.24862298 1.2458115 0.029517479 100
0.23869672 1.261483 0.050898954 83
0.24621007 1.2496209 0.069709264 66
0.2508679 1.2422671 0.08854191 84
0.24534997 1.2509788 0.11066922 92
0.25385875 1.2375453 0.1277722 97
0.23678464 1.2645018 0.15684435 66
0.24770796 1.2507757 0.0099129668 100
0.24913937 1.2484992 0.029622151 100
0.23714668 1.2675726 0.051421888 82
0.24357569 1.2573478 0.070684217 65
0.25664151 1.2365674 0.087290429 57
0.25739676 1.2353662 0.10685304 73
0.25541082 1.2385248 0.1277722 97
0.23019981 1.2786212 0.16098544 64
0.24629754 1.2569706 0.010017681 72
0.24666753 1.2563773 0.03004084 99
0.23580948 1.2737877 0.051944822 81
0.25481817 1.2433083 0.068490572 50
0.25417224 1.244344 0.08854191 70
0.24975416 1.2514281 0.1102876 99
0.2591925 1.2362943 0.12687239 99
0.23615536 1.2732332 0.15891489 65
0.25107175 1.2528744 0.0099129668 87
0.25669235 1.243795 0.029203463 100
0.23957926 1.2714387 0.051596198 82
0.25847909 1.2409089 0.068003096 51
0.26198542 1.2352449 0.086664692 57
0.2554858 1.245744 0.10876112 79
0.26689485 1.2273145 0.12417299 92
0.23579216 1.2775562 0.15995017 64
0.24229288 1.2709541 0.010262015 84
0.25103056 1.2567289 0.029936166 100
0.2538451 1.2521468 0.049504463 100
0.24765691 1.2622213 0.070927955 48
0.26774675 1.2295146 0.085413218 73
0.25098297 1.2568064 0.11105084 84
0.26951283 1.2266394 0.12372308 83
0.23958799 1.2753577 0.15891489 65
0.25228354 1.2583127 0.0099827768 100
0.25576535 1.2526017 0.029622151 100
0.25544557 1.2531263 0.049504463 86
0.25549102 1.2530518 0.069465525 49
0.26721549 1.2338213 0.086038955 72
0.25566491 1.2527665 0.10990598 78
0.26291311 1.2408781 0.1273223 89
0.25534463 1.2532918 0.15166797 69
0.25821409 1.2525557 0.0098431576 88
0.25546926 1.2570951 0.029831495 100
0.25515646 1.2576125 0.049853086 85
0.26137206 1.2473332 0.068490572 50
0.26789528 1.2365451 0.086351827 58
0.26353139 1.243762 0.10761628 87
0.26665756 1.2385919 0.12642249 99
0.25112036 1.2642874 0.15477379 67
0.26804808 1.2398038 0.0095639192 91
0.25811392 1.2563567 0.029726824 100
0.25062349 1.2688377 0.050898954 83
0.26295653 1.2482877 0.068490572 50
0.26842743 1.2391717 0.086664692 57
0.25904241 1.2548096 0.10990598 85
0.27322704 1.2311743 0.12417299 92
0.25077289 1.2685887 0.15580906 67
0.2564764 1.2631729 0.010017681 72
0.26500589 1.2488418 0.029203463 100
0.25143483 1.2716436 0.051073264 83
0.26065043 1.2561598 0.069465525 49
0.2721695 1.2368057 0.086038955 58
0.26082128 1.2558727 0.10990598 85
0.2808992 1.2221382 0.12147357 86
0.25260234 1.269682 0.15580906 67
0.25709641 1.2658653 0.010052586 86
0.26862693 1.2463449 0.028994121 100
0.25411332 1.2709155 0.050898954 83
0.26630259 1.2502799 0.068490572 50
0.27773765 1.2309211 0.084787481 59
0.2604371 1.2602098 0.11066922 92
0.27744448 1.2314174 0.12372308 92
0.25426099 1.2706654 0.15580906 67
0.26295865 1.2600336 0.0099129668 87
0.27239367 1.2439263 0.028784776 100
0.26702842 1.2530859 0.048981529 87
0.2640515 1.258168 0.069465525 49
0.27743202 1.2353249 0.085413218 58
0.26918179 1.2494096 0.10799789 72
0.28209236 1.2273688 0.12237337 85
0.26195651 1.2617445 0.15270324 68
0.27061513 1.2506099 0.0097035384 90
0.26995176 1.2517511 0.029203463 100
0.26062146 1.2678015 0.05037602 100
0.27165774 1.2488164 0.068003096 68
0.27500555 1.2430574 0.086664692 57
0.27274644 1.2469436 0.10723466 81
0.27969301 1.2349937 0.12417299 83
0.26358879 1.262697 0.15270324 68
0.27529129 1.2463853 0.0095988233 76
0.27363053 1.2492653 0.028994121 100
0.26136559 1.2705345 0.05055033 84
0.27531409 1.2463458 0.067515619 51
0.27172452 1.2525706 0.088229038 56
0.27343222 1.2496092 0.10761628 87
0.28715873 1.2258055 0.12147357 86
0.25952005 1.273735 0.15580906 67
0.26992023 1.2594429 0.0098431576 88
0.28117323 1.2397782 0.028366089 100
0.26599568 1.2663012 0.050027397 85
0.27689523 1.247254 0.067515619 51
0.28215635 1.2380602 0.085413218 58
0.27112383 1.2573396 0.10914274 92
0.28673589 1.2300574 0.12237337 93
0.26311108 1.271342 0.15477379 67
0.27180159 1.2605147 0.0098431576 88
0.27903777 1.2477561 0.028784776 100
0.26495469 1.2725871 0.05055033 100
0.27677113 1.2517526 0.068003096 51
0.28493005 1.2373669 0.085100345 58
0.27880839 1.2481606 0.10685304 66
0.28562018 1.23615 0.12372308 92
0.27081507 1.2622542 -0.0098780617 87
0.26885042 1.2657182 0.15270324 68
0.27735272 1.2544639 0.0097035384 90
0.28258264 1.2451708 0.028575432 100
0.26955441 1.2683207 0.050027397 85
0.27642301 1.2561159 0.068490572 50
0.28357491 1.2434077 0.086038955 58
0.28039551 1.2490573 0.10685304 81
0.29194623 1.2285329 0.12147357 86
0.26860088 1.270015 0.15373851 68
0.28010455 1.2537137 0.0096686333 90
0.28043339 1.2531244 0.028994121 100
0.27041191 1.271085 0.050201707 85
0.28400999 1.2467144 0.067028143 51
0.28819934 1.2392061 0.085100345 58
0.28406635 1.2466133 0.1060898 81
0.29078001 1.2345809 0.12282328 76
0.27231801 1.267669 0.15270324 68
0.28364721 1.2511071 0.0095988233 91
0.28203696 1.2540157 0.028994121 100
0.27014509 1.2754956 0.05055033 84
0.28751525 1.2441204 0.066540658 52
0.28879994 1.2417998 0.085413218 73
0.28374651 1.2509277 0.10685304 88
0.29704142 1.2269135 0.12057377 77
0.27022707 1.2753476 0.15477379 67
0.28147843 1.2590454 0.0097384425 75
0.29141828 1.2409424 0.028156744 100
0.27958271 1.2624979 0.049155839 87
0.28535017 1.2519939 0.067515619 51
0.29520211 1.234051 0.083848871 59
0.29015139 1.2432497 0.10494494 82
0.27570379 1.2695624 -0.0099478718 86
0.27292255 1.2746277 0.15425615 75
0.27831852 1.2687132 0.0099129668 87
0.28533775 1.2558284 0.028994121 100
0.27931112 1.2668911 0.049504463 86
0.28505072 1.2563553 0.068003096 51
0.29674235 1.2348934 0.083848871 59
0.28796542 1.2510049 0.10647142 81
0.28310165 1.259933 -0.0097384425 88
0.28014252 1.265365 0.15115032 77
0.28593469 1.2591946 0.0097035384 90
0.29479486 1.2427807 0.028156744 100
0.28689948 1.2574073 0.048458595 88
0.28503424 1.2608627 0.068490572 50
0.29074684 1.2502799 0.1060898 81
0.29914317 1.2347252 0.12192347 68
0.2811853 1.267993 -0.0098780617 87
0.29030541 1.2510976 0.14649157 72
0.29133451 1.2530162 0.0095639192 91
0.2944783 1.2471457 0.028366089 100
0.29416072 1.2477387 0.047412723 90
0.28572634 1.2634885 0.068734311 33
0.29821041 1.2401766 0.084474608 59
0.2951214 1.2459447 0.10494494 75
0.28095013 1.2724073 -0.0099478718 86
0.28460616 1.2655803 0.15063268 70
0.29779443 1.2451296 0.0093893949 77
0.29435599 1.2516073 0.028575432 100
0.28563789 1.2680314 0.049330149 87
0.29405186 1.2521802 0.067028143 51
0.29808304 1.2445859 0.085100345 58
0.29594707 1.2486099 0.10532656 75
0.2846128 1.2699624 0.15166797 69
0.29191774 1.2601184 0.0096686333 90
0.29781562 1.2489179 0.028366089 100
0.28543428 1.2724311 0.049678773 86
0.29380244 1.2565392 0.067515619 51
0.29936504 1.2459755 0.10456333 75
0.29005435 1.2636571 -0.0097384425 88
0.28447202 1.2742584 0.15270324 68
0.29186544 1.2646066 0.0097384425 75
0.29280853 1.2627995 0.048632905 88
0.29558742 1.257475 0.067515619 51
0.2965695 1.2555933 0.10647142 81
0.29556629 1.2575154 -0.0095988233 90
0.29168493 1.2649524 0.14959741 78
0.29810801 1.2565722 0.047935657 89
0.29538012 1.2618418 0.068003096 51
0.28799105 1.2761149 -0.0099478718 96
0.29807413 1.2610376 0.048284281 59
0.28893501 1.278851 -0.0099827768 100
0.29691032 1.2633061 0.14856213 71
0.29699308 1.2671975 0.048807215 58
0.29504302 1.2710297 0.15063268 70
0.29789603 1.269948 0.0097733475 100
0.29429454 1.2770901 -0.0099129668 100
0.29253197 1.2805855 0.15322088 76
0.29687196 1.2761469 -0.0098780617 100
0.29846925 1.2814033 -0.0099478718 100
