# .PCD v0.7 - Point Cloud Data file format
VERSION 0.7
FIELDS x y z intensity
SIZE 4 4 4 4
TYPE F F F F
COUNT 1 1 1 1
WIDTH 732
HEIGHT 1
VIEWPOINT 0 0 0 1 0 0 0
POINTS 732
DATA ascii
-1.0902817 0.14954388 0.057674225 26
-1.1841512 0.16663235 0.020873077 24
-1.143153 0.16086315 0.060500365 30
-1.1083248 0.16010696 0.019546695 5
-1.0444586 0.15460478 0.018429741 6
-1.0162599 0.15387629 0.017941074 5
-1.1105695 0.17212373 0.019616505 48
0.077234358 0.00092893839 0.047311705 70
0.058118284 0.011699617 0.015776975 43
0.052196115 0.0025697947 0.047939736 49
0.048082232 0.0076441765 0.047835063 100
0.045424163 0.0094008446 0.047835063 100
0.043882191 0.012827218 0.047730394 76
0.032182515 0.0014362335 0.048567768 33
0.037108243 0.019817472 0.047625721 19
0.028827786 0.013388336 0.048149079 8
0.030744791 0.021775544 0.047730394 9
0.016691804 0.0072240233 0.048777111 8
0.016332746 0.012355983 0.048567768 8
-1.0216718 1.1273636 0.084470235 5
-1.0411534 1.1317933 0.14276111 4
-1.032136 1.1352649 0.028342709 7
-0.99323303 1.1262834 0.083004825 11
-1.0263555 1.1339303 0.14154093 13
-0.99963802 1.1337497 0.02778423 13
-1.0055277 1.1351322 0.08373753 65
-1.0230715 1.1392503 0.14136662 53
-1.0042591 1.1402767 0.027888946 41
-0.99847966 1.1388999 0.083423518 100
-1.0160239 1.1430795 0.14084367 100
-0.97963363 1.1400573 0.027470088 38
-0.99524134 1.1438332 0.083318844 100
-0.99921983 1.1447957 0.13944919 92
-0.9861663 1.1470343 0.027609708 32
-0.98429471 1.146575 0.082795486 100
-0.99796849 1.1499311 0.13944919 92
-0.96731132 1.1483082 0.027295563 26
-0.97515243 1.1502632 0.082376793 68
-0.99849874 1.1560841 0.13962349 82
-0.98149031 1.1575266 0.027574802 28
-0.98156065 1.1575444 0.082795486 37
-1.0048676 1.163442 0.14032075 66
-0.97625452 1.1618755 0.027504992 48
-0.97052604 1.1604047 0.08227212 40
-0.98032731 1.1629212 0.13822901 87
-0.96326667 1.1641765 0.027295563 61
-0.9710868 1.1662134 0.082376793 88
-0.9770183 1.1677585 0.1380547 91
-0.94834799 1.1658806 0.027051231 72
-0.97741848 1.1735613 0.082795486 91
-0.97369426 1.1725774 0.13788038 94
-0.95082015 1.1721435 0.027121039 83
-0.95092076 1.1721705 0.081434749 92
-0.97035533 1.1773779 0.13770607 100
-0.95519644 1.1789528 0.027225753 89
-0.93601614 1.1737416 0.080702044 100
-0.96892399 1.1826825 0.13770607 100
-0.95761555 1.1852665 0.027295563 89
-0.94037431 1.1805174 0.081016064 100
-0.96555334 1.1874529 0.13753176 94
-0.94852573 1.1881139 0.027155945 93
-0.93900484 1.1854575 0.081016064 94
-0.95648438 1.1903346 0.13683452 98
-0.93166322 1.1889892 0.026876707 89
-0.94715506 1.19337 0.081539422 80
-0.95309073 1.1950485 0.1366602 99
-0.95333463 1.2005064 0.027295563 57
-0.92846209 1.1933837 0.080597371 60
-0.94975752 1.1994821 0.13648589 100
-0.95950466 1.2079803 0.027435184 40
-0.92697519 1.1985419 0.080597371 22
-0.96164352 1.2086009 0.13770607 91
-0.93686289 1.2070436 0.027051231 59
-0.92547029 1.2036949 0.080597371 26
-0.94098812 1.2082562 0.13596296 84
-0.91999573 1.2076662 0.026771991 74
-0.92777592 1.2099825 0.080806717 26
-0.93372053 1.2117524 0.13544002 89
-0.91463 1.2116401 0.026702182 75
-0.93579215 1.2180213 0.081330076 50
-0.93407708 1.217504 0.13561434 99
-0.91499203 1.2173338 0.026737086 81
-0.90938669 1.2156223 0.079969339 98
-0.9286949 1.221518 0.13526571 99
-0.91732162 1.2233701 0.026806897 85
-0.90599269 1.2198697 0.079864666 95
-0.92528588 1.2258309 0.13509139 89
-0.91191322 1.2272953 0.026737086 88
-0.90822583 1.2261419 0.080074012 80
-0.91798121 1.2291934 0.13456847 59
-0.90268236 1.2299809 0.026597468 79
-0.90662473 1.2312293 0.080074012 68
-0.90687209 1.2313076 0.13369691 45
-0.88964218 1.2313871 0.026388038 78
-0.90880984 1.2375301 0.080283359 80
-0.90145832 1.2351741 0.13334829 48
-0.88976187 1.2375292 0.026422944 88
-0.89180702 1.2381933 0.07944598 100
-0.91103142 1.244436 0.13439415 49
-0.89382046 1.2444248 0.026527658 96
-0.89206129 1.2438468 0.079550654 100
-0.91693765 1.2520208 0.13509139 71
-0.89232284 1.2489583 0.026527658 100
-0.89056557 1.2483747 0.079550654 100
-0.90785271 1.2541153 0.13439415 82
-0.8830598 1.2514427 0.026388038 99
-0.89078027 1.2540364 0.079655327 100
-0.89104468 1.2541252 0.13299966 84
-0.87001044 1.2525815 0.02617861 96
-0.89097291 1.2597054 0.07976 100
-0.89500529 1.2610757 0.1335226 86
-0.87209946 1.2588353 0.02624842 96
-0.877922 1.2608368 0.079131968 100
-0.89139813 1.2654691 0.13334829 100
-0.87407571 1.2653583 0.02631823 85
-0.8666814 1.2627863 0.07860861 100
-0.90650862 1.2766399 0.1349171 84
-0.8836562 1.2743076 0.026527658 79
-0.85930043 1.2657402 0.07829459 74
-0.90285176 1.2810599 0.13474278 42
-0.86690253 1.2737005 0.02624842 78
-0.86894006 1.2744248 0.078922622 38
-0.88237602 1.2792013 0.13299966 35
-0.85008103 1.2732322 0.025969181 92
-0.86153203 1.277348 0.07860861 19
-0.87871498 1.2835242 0.13282534 30
-0.85198587 1.279727 0.026038991 100
-0.84840065 1.2784235 0.077980578 59
-0.88618547 1.2921611 0.13369691 17
-0.85019809 1.2846177 0.026038991 96
-0.84286815 1.2819238 0.077771232 100
-0.88061398 1.2957965 0.13334829 13
-0.85232395 1.2904055 0.0261088 100
-0.85623282 1.2918561 0.07860861 100
-0.86774749 1.2961292 0.13230242 3
-0.83552021 1.2896792 0.025829561 100
-0.84318238 1.2925531 0.077980578 53
-0.87149876 1.303174 0.13282534 1
-0.82995802 1.2930948 0.025759751 89
-0.84508508 1.2988288 0.078189917 48
-0.84540969 1.2989519 0.1305593 5
-0.83372587 1.3000546 0.025864467 71
-0.83577019 1.3008376 0.077771232 55
-0.85099691 1.3066704 0.13125655 24
-0.83932668 1.3077687 0.026004085 74
-0.83204621 1.3049507 0.077666558 68
-0.83982486 1.3079616 0.130385 60
-0.83744103 1.3126152 0.026004085 83
-0.82645029 1.3083167 0.077457212 63
-0.85278279 1.3186152 0.13177948 100
-0.82633442 1.3135405 0.025829561 96
-0.82651526 1.3136119 0.077561885 72
-0.82871836 1.314482 0.12968774 97
-0.80957001 1.3124135 0.025550323 100
-0.83202964 1.3213739 0.077980578 91
-0.82680947 1.3192912 0.12968774 97
-0.81137794 1.318651 0.025620133 100
-0.81898171 1.3217154 0.077352546 95
-0.83227545 1.3270729 0.130385 100
-0.81686288 1.3264154 0.025759751 100
-0.8207472 1.3279966 0.077561885 100
-0.83401316 1.3333969 0.13073361 100
-0.78297943 1.3126223 0.17671055 15
-0.81481439 1.3314215 0.025759751 100
-0.80391616 1.3269384 0.076724514 100
-0.82272607 1.334676 0.12986206 100
-0.77363843 1.3144836 0.17573559 15
-0.80176634 1.3315791 0.025550323 100
-0.80565268 1.3331935 0.076933853 100
-0.81522685 1.3371711 0.12933913 100
-0.79556113 1.3290012 0.17890419 19
-0.79252011 1.3329654 0.025410704 100
-0.80377752 1.3376861 0.076933853 100
-0.81701332 1.3432362 0.12968774 100
-0.78637749 1.3303895 0.17792924 20
-0.79054683 1.3376482 0.025410704 100
-0.78707439 1.3361778 0.076096483 96
-0.80216116 1.3425663 0.12846756 100
-0.77344543 1.3304067 0.17646681 20
-0.80510527 1.3493996 0.025724847 68
-0.79243571 1.3439825 0.076515168 42
-0.80931407 1.3511992 0.12933913 69
-0.7806074 1.3389251 0.1776855 15
-0.82694155 1.3644297 0.02617861 68
-0.81976289 1.3613307 0.078189917 65
-0.83654445 1.3685753 0.1321281 18
-0.79683858 1.3514342 0.18012288 5
-0.80306619 1.3591726 0.025759751 100
-0.80324894 1.359252 0.077352546 100
-0.81273645 1.3633833 0.13003637 86
-0.78772515 1.3524925 0.17914793 21
-0.78269511 1.3558447 0.025410704 100
-0.80849737 1.3671873 0.077771232 100
-0.81612867 1.3705418 0.1305593 100
-0.78204912 1.3555608 0.17866045 33
-0.79343659 1.3661709 0.025655037 100
-0.80275339 1.3703053 0.077561885 100
-0.81584519 1.3761151 0.13073361 100
-0.78725487 1.3634276 0.17963541 40
-0.79864722 1.3741267 0.025794657 100
-0.81158608 1.3799226 0.078189917 100
-0.81190282 1.3800645 0.1305593 100
-0.76162404 1.3575422 0.17646681 20
-0.80017442 1.3804784 0.025864467 100
-0.80762893 1.3838489 0.078085244 100
-0.80250329 1.3815314 0.12986206 100
-0.80116731 1.3809273 0.1820728 26
-0.78893918 1.3810366 0.025689943 100
-0.81274587 1.391901 0.078503937 100
-0.79311019 1.3829401 0.12916481 100
-0.77735549 1.3757503 0.17914793 14
-0.78861445 1.3865433 0.025724847 100
-0.81238085 1.3974895 0.07860861 100
-0.80182046 1.3926257 0.13021068 100
-0.76802081 1.3770581 0.17817298 12
-0.79370767 1.3945837 0.025864467 100
-0.80474871 1.3997158 0.07829459 100
-0.81047922 1.4023795 0.13125655 100
-0.77309424 1.3850021 0.17914793 14
-0.79695052 1.4018179 0.025969181 100
-0.8007341 1.4035927 0.078189917 100
-0.81547874 1.4105091 0.13195379 100
-0.76554781 1.3870878 0.17841671 8
-0.80015916 1.4090824 0.026073895 100
-0.80212468 1.4100127 0.078399263 100
-0.80242962 1.4101572 0.13090792 100
-0.7777397 1.3984704 0.18036664 3
-0.79431123 1.4120678 0.026004085 100
-0.80889362 1.4190326 0.078922622 100
-0.79299539 1.4114394 0.13021068 100
-0.78305465 1.4124157 0.025829561 100
-0.8120175 1.4263732 0.079236634 100
-0.80151731 1.421313 0.13125655 100
-0.79507703 1.4242952 0.0261088 100
-0.8006224 1.4269927 0.078713275 100
-0.81703764 1.4349775 0.13299966 100
-0.79637522 1.4307483 0.02617861 100
-0.78935593 1.4273036 0.078189917 100
-0.81113082 1.4379898 0.13265105 100
-0.80146235 1.4385214 0.02631823 100
-0.801606 1.4385924 0.079027295 100
-0.80545396 1.4404958 0.13230242 100
-0.7919634 1.4396632 0.02617861 100
-0.8064124 1.4468735 0.07944598 100
-0.80310518 1.4452232 0.13230242 100
-0.78961772 1.4443436 0.02617861 100
-0.81117731 1.4551963 0.079864666 100
-0.80429929 1.4517339 0.13265105 100
-0.79082161 1.4508262 0.02624842 100
-0.80165392 1.4563265 0.07944598 100
-0.80901724 1.4600654 0.13334829 100
-0.79199654 1.4573256 0.02631823 100
-0.7974723 1.46013 0.079341307 100
-0.82078689 1.4720709 0.13474278 100
-0.80024904 1.4675125 0.026527658 99
-0.79682952 1.465746 0.07944598 100
-0.80239648 1.4686217 0.13317397 100
-0.7907123 1.4685256 0.026388038 100
-0.79793519 1.4722888 0.079655327 100
-0.79641575 1.4714971 0.13282534 100
-0.78826588 1.4732013 0.026388038 96
-0.80431575 1.4816349 0.080178685 100
-0.80101365 1.4798996 0.1335226 100
-0.77873534 1.4741231 0.02624842 61
-0.78594035 1.4779413 0.079236634 65
-0.80556935 1.488343 0.13421984 91
0.13762051 1.2823471 0.12784202 11
0.17976946 1.2299805 0.13632034 7
0.16175157 1.2558285 0.010855397 26
0.14850906 1.2723992 0.033704355 28
0.16690153 1.2493842 0.053687938 26
0.13112649 1.2941506 0.082383677 13
0.13810942 1.2854127 0.10449822 11
0.1516678 1.2684467 0.12402584 49
0.20084256 1.2069125 0.1291219 16
0.1568332 1.261983 0.16875002 7
0.15972102 1.2618802 0.010960111 100
0.1589551 1.2628455 0.032971654 87
0.154955 1.267887 0.055605363 98
0.15886953 1.2629534 0.077265166 29
0.16937852 1.2497087 0.096989371 25
0.17171428 1.2467648 0.11830158 100
0.18298972 1.232554 0.13632034 30
0.15014762 1.2739458 0.17237349 28
0.16144037 1.2632396 0.010960111 100
0.17180133 1.2500873 0.032029606 100
0.1505307 1.2770884 0.056476921 96
0.16059265 1.2643156 0.077265166 29
0.17594495 1.2448274 0.095737889 25
0.16001689 1.2650466 0.12249938 100
0.19184208 1.2246475 0.13362093 31
0.15190917 1.2753385 0.17237349 35
0.16439644 1.2630178 0.010925206 100
0.18578404 1.2356724 0.030982886 100
0.15966797 1.2690634 0.055431053 100
0.17699608 1.2469083 0.074340299 30
0.18003863 1.2430183 0.095112152 25
0.1726329 1.2524869 0.11906482 100
0.19583243 1.2228249 0.13272113 39
0.1489149 1.2828119 0.17444403 35
0.16366681 1.2675196 0.010995016 100
0.18128696 1.2448285 0.031506244 62
0.16263437 1.2688491 0.055256739 99
0.17014056 1.2591827 0.076046467 29
0.17684588 1.2505476 0.096363634 25
0.17672759 1.2507 0.11830158 78
0.19382963 1.228676 0.13407083 31
0.15426192 1.2796313 0.17289113 42
0.18005705 1.2498608 0.010576159 54
0.17806888 1.2524396 0.031924933 61
0.17532629 1.2559972 0.053687938 52
0.16579038 1.2683663 0.077265166 43
0.17852557 1.2518473 0.096363634 37
0.17960653 1.2504451 0.11791996 13
0.17520589 1.2561533 0.14171916 21
0.15014571 1.2886593 0.17547931 49
0.17695782 1.2575661 0.010715778 66
0.17619869 1.2585583 0.032238949 30
0.17589939 1.2589495 0.053862248 51
0.18933201 1.2413931 0.072877869 47
0.18629584 1.2453613 0.094799288 51
0.19568565 1.2330889 0.11334054 13
0.1983051 1.2296653 0.13362093 31
0.16261443 1.2763128 0.17082056 58
0.17382374 1.2652348 0.010855397 52
0.1634092 1.2789456 0.033495013 28
0.18001872 1.2570791 0.053513627 52
0.19097969 1.2426491 0.072877869 47
0.18556768 1.249774 0.095425025 51
0.19492924 1.2374495 0.11410378 13
0.19991177 1.23089 0.13362093 46
0.17256391 1.2668934 0.16719711 67
0.18260878 1.2568371 0.010645968 40
0.1626038 1.2833461 0.033704355 28
0.16714883 1.2773234 0.055605363 49
0.19605362 1.2390211 0.072146654 79
0.19540611 1.2398791 0.093234941 53
0.19994736 1.2338614 0.11295892 13
0.20723075 1.22421 0.13137141 31
0.1706357 1.2727028 0.16875002 66
0.17711651 1.2677188 0.010855397 52
0.18355843 1.2591202 0.032029606 30
0.16533825 1.2834404 0.056128297 48
0.19055161 1.2497859 0.073609084 77
0.19467965 1.2442758 0.093860678 52
0.19686013 1.2413654 0.1144854 13
0.21115518 1.2222846 0.13047162 32
0.18281752 1.2601092 0.16409127 69
0.18601647 1.2593901 0.010645968 80
0.19003573 1.253986 0.031610917 30
0.18853533 1.2560034 0.05299069 52
0.1945979 1.2478521 0.073121607 62
0.19987395 1.2407582 0.092922069 79
0.20085093 1.2394445 0.11372216 13
0.21041006 1.2265919 0.13137141 31
0.18568346 1.2598379 0.16357364 69
0.19129032 1.2558315 0.010541254 95
0.19528636 1.2504194 0.031296901 62
0.18905059 1.258865 0.053165004 79
0.19862628 1.2458957 0.072634131 63
0.20151934 1.2419775 0.092922069 79
0.20832241 1.2327635 0.11181407 14
0.20621836 1.2356131 0.13362093 31
0.1896905 1.2579982 0.16253836 70
0.18598214 1.2668213 0.010750682 92
0.21121481 1.232383 0.03004084 66
0.17553651 1.2810777 0.055431053 99
0.20389262 1.2423766 0.071902916 48
0.20558658 1.2400646 0.092296332 80
0.21234152 1.2308453 0.11105084 14
0.2171413 1.2242944 0.13002171 16
0.18919796 1.2624322 0.16357364 69
0.19007108 1.2648546 0.010680873 80
0.2128309 1.2335628 0.03004084 66
0.18201056 1.2759367 0.054733805 75
0.20437598 1.2451872 0.072146654 63
0.20722952 1.241264 0.092296332 100
0.20124936 1.249486 0.11524864 13
0.24738577 1.1860545 0.11877415 8
0.18751007 1.2683756 0.16512655 68
0.1940558 1.2628033 0.010611063 81
0.21320054 1.2362975 0.030145511 65
0.19185647 1.2658483 0.053513627 100
0.20014209 1.2543769 0.073365346 93
0.21226406 1.237594 0.09135773 94
0.20284131 1.2506398 0.11524864 13
0.24192092 1.1965342 0.12147357 8
0.19368932 1.2633107 0.163056 70
0.20509979 1.2510417 0.010331824 98
0.21250269 1.2407166 0.030354854 97
0.19591138 1.263857 0.053165004 100
0.20646179 1.2491421 0.072390392 95
0.21735141 1.233954 0.090419121 100
0.20680913 1.2486576 0.1144854 13
0.24341169 1.197607 0.12147357 17
0.19879049 1.2598414 0.16150309 70
0.2091001 1.2489842 0.010262015 98
0.21067354 1.2467735 0.03066887 96
0.19301626 1.271583 0.053862248 100
0.20813638 1.2503383 0.072390392 95
0.21553668 1.2399404 0.09135773 94
0.21189722 1.2450541 0.11334054 20
0.22569656 1.2256652 0.1291219 16
0.1926612 1.2720819 0.16512655 68
0.19692817 1.2697701 0.010680873 93
0.21233985 1.2479551 0.03066887 96
0.19936776 1.2663169 0.053165004 100
0.20866975 1.25315 0.072634131 63
0.21603933 1.2427185 0.091670595 100
0.21015912 1.2510419 0.1144854 47
0.2261647 1.2283862 0.12957181 32
0.19776002 1.2685926 0.16357364 69
0.20318103 1.26439 0.010541254 95
0.21507367 1.247437 0.030564198 64
0.1987271 1.2707391 0.053513627 100
0.21483392 1.2477789 0.071659178 64
0.22101209 1.2389719 0.090731993 95
0.20273635 1.2650239 0.11753834 99
0.23552054 1.2182901 0.12642249 49
0.20274368 1.2650135 0.16202073 70
0.20490891 1.2655976 0.010541254 95
0.22130746 1.2420471 0.030145511 65
0.19820014 1.2752323 0.053862248 100
0.20402595 1.2668656 0.074340299 100
0.2328102 1.2255275 0.087916173 100
0.21680689 1.2485105 0.11334054 89
0.22706518 1.2337782 0.13047162 88
0.20778546 1.2614665 0.1604678 72
0.20891485 1.2635092 0.010471444 96
0.21614382 1.2530497 0.030773543 64
0.21355942 1.256789 0.051770512 100
0.21592027 1.2533731 0.072146654 63
0.23440221 1.226632 0.087916173 84
0.22517663 1.2399802 0.11105084 91
0.229794 1.2332995 0.13002171 96
0.21060148 1.2610688 0.15995017 80
0.21742681 1.2548028 0.010262015 98
0.22235128 1.2476242 0.030354854 97
0.2107524 1.2645323 0.052467756 100
0.22434723 1.2447146 0.070684217 65
0.22817597 1.2391334 0.090106249 100
0.22904032 1.2378733 0.1102876 85
0.22590128 1.2424493 0.13227122 94
0.2035751 1.2749949 0.16409127 77
0.21687025 1.2592666 0.010331824 84
0.23413712 1.2339067 0.029412808 67
0.20351011 1.2788886 0.053862248 100
0.22824073 1.2425668 0.07019674 82
0.22425675 1.2484181 0.091670595 100
0.22736067 1.2438593 0.11143246 91
0.23084268 1.2387453 0.13092151 96
0.21403801 1.2634263 0.15995017 72
0.21522114 1.265397 0.010436539 41
0.22122049 1.2565193 0.030773543 32
0.21086642 1.271841 0.05299069 79
0.21766591 1.2617793 0.072877869 100
0.23256502 1.239732 0.089793384 100
0.22901672 1.2449827 0.11143246 91
0.23575425 1.2350127 0.12957181 96
0.21143574 1.2709985 0.16202073 70
0.21472469 1.2698841 0.010506349 40
0.23849598 1.2344419 0.029308135 34
0.21594965 1.2680577 0.052467756 53
0.226019 1.2530446 0.071415432 96
0.23640725 1.2375561 0.089167647 100
0.22630239 1.2526221 0.11295892 100
0.23303741 1.2425804 0.13137141 94
0.21641487 1.267364 0.1604678 72
0.2186878 1.2677221 0.010436539 41
0.2224116 1.2621279 0.030982886 31
0.21989825 1.2659036 0.052119136 54
0.22110724 1.2640874 0.072877869 100
0.23475745 1.2435811 0.090106249 96
0.23342839 1.2455777 0.11105084 91
0.23360914 1.2453061 0.13182132 100
0.22564635 1.2572684 0.15684435 74
0.22704068 1.2588646 0.01022711 42
0.21312237 1.2799329 0.032029606 30
0.22382775 1.2637281 0.051770512 54
0.23049337 1.2536384 0.071171694 81
0.2364125 1.2446785 0.090106249 100
0.24266556 1.2352133 0.10837951 87
0.23527017 1.2464076 0.13182132 94
0.22308978 1.2648451 0.15891489 73
0.22984552 1.2583168 0.010192205 28
0.2170946 1.2777652 0.03182026 30
0.22118351 1.2715285 0.052467756 53
0.23871398 1.2447901 0.069709264 66
0.23482209 1.2507262 0.091044858 81
0.23998556 1.2428505 0.10990598 85
0.24548292 1.2344657 0.12822211 97
0.22375989 1.2675989 0.15943253 73
0.23029006 1.2609959 0.01022711 28
0.22087109 1.2754611 0.031610917 30
0.2194992 1.2775679 0.05299069 52
0.23804075 1.2490927 0.07019674 82
0.25142434 1.2285388 0.086664692 86
0.23933002 1.2471126 0.11066922 85
0.25013366 1.230521 0.12687239 90
0.22532475 1.2686213 0.15943253 73
0.22549406 1.2721862 0.010436539 41
0.24106517 1.2480893 0.029831495 33
0.22343564 1.2753717 0.05264207 53
0.24294713 1.2451768 0.069465525 49
0.25517097 1.2262599 0.086038955 87
0.24099737 1.2481942 0.11066922 85
0.24857005 1.2364751 0.12822211 89
0.22811574 1.2681291 0.15891489 73
0.23588449 1.2598492 0.0101573 42
0.25028273 1.2373958 0.029098792 68
0.23810759 1.2563823 0.05055033 56
0.24032146 1.2529299 0.070440479 49
0.25036758 1.2372634 0.087916173 56
0.25432587 1.2310907 0.10647142 81
0.24704441 1.2424458 0.12957181 88
0.23924181 1.2546136 0.15425615 75
0.24833182 1.2440718 0.0098082526 74
0.25084382 1.2401242 0.029203463 68
0.23125026 1.2709155 0.051944822 54
0.24840337 1.2439594 0.068978049 50
0.24987945 1.2416396 0.08854191 84
0.24434328 1.2503397 0.11066922 85
0.2486954 1.2435005 0.12957181 96
0.23263827 1.2687342 0.15839726 73
0.24144721 1.2586485 0.010087491 71
0.24928764 1.2462318 0.029517479 100
0.2308732 1.2753944 0.052293446 53
0.25217935 1.2416523 0.068490572 50
0.25152761 1.2426844 0.08854191 70
0.24602187 1.2514038 0.11066922 92
0.2534714 1.2396061 0.12822211 97
0.23334968 1.2714725 0.15891489 65
0.2452783 1.2563336 0.010017681 87
0.26155636 1.2303538 0.02847076 100
0.2358129 1.2714403 0.051770512 81
0.24539557 1.2561463 0.070440479 49
0.25737476 1.2370276 0.087290429 57
0.25291613 1.2441436 0.10876112 79
0.26028591 1.2323815 0.12597258 90
0.24125642 1.2627524 0.15580906 67
0.23958698 1.2692819 0.010262015 84
0.25472873 1.2449273 0.029308135 100
0.23546124 1.2759179 0.052119136 81
0.2533831 1.2470917 0.068978049 50
0.25692078 1.2414014 0.087916173 56
0.24420714 1.2618506 0.1125773 82
0.2629306 1.231735 0.12552269 90
0.24297833 1.2638271 0.15580906 67
0.25393039 1.2499394 0.0098431576 88
0.25429112 1.2493547 0.029517479 100
0.24455154 1.2651429 0.050898954 83
0.25192359 1.2531925 0.069709264 49
0.26064232 1.2390592 0.087290429 57
0.26241803 1.2361807 0.10647142 81
0.26045156 1.2393684 0.1273223 89
0.24267542 1.2681842 0.15684435 66
0.25343508 1.2543294 0.0099129668 87
0.25588232 1.2503327 0.029517479 100
0.25139731 1.2576573 0.050027397 85
0.25456417 1.2524854 0.069465525 49
0.25807321 1.2467546 0.08854191 56
0.25678903 1.2488519 0.10914274 92
0.25997436 1.2436498 0.12822211 97
0.24029389 1.2757907 0.15891489 65
0.25512752 1.2553617 0.0099129668 87
0.26896802 1.2325801 0.028366089 100
0.24172199 1.2774272 0.051944822 100
0.26037297 1.2467276 0.068490572 50
0.26384181 1.2410178 0.087290429 71
0.25744295 1.2515504 0.10952436 71
0.2697241 1.2313356 0.12462288 92
0.23804909 1.2834728 0.16098544 64
0.25888816 1.2529627 0.0098431576 88
0.26336706 1.245532 0.029098792 100
0.24452364 1.2767938 0.051770512 81
0.25793973 1.2545362 0.069465525 49
0.27058649 1.2335548 0.08572609 58
0.25608516 1.2576129 0.11066922 92
0.27334818 1.2289732 0.12372308 83
0.24183792 1.2812495 0.15995017 64
0.25031251 1.2711382 0.010192205 85
0.27117917 1.2362449 0.02847076 100
0.25652033 1.2607574 0.050027397 85
0.25759518 1.2589601 0.069953002 49
0.27727553 1.2260506 0.084161744 59
0.26282716 1.2502111 0.10876112 72
0.27295163 1.233281 0.12462288 83
0.24957344 1.2723742 0.15684435 66
0.26124659 1.2567031 0.0098780617 73
0.26465568 1.250957 0.029308135 100
0.25518537 1.2669195 0.05055033 84
0.26538104 1.2497344 0.068490572 50
0.2748374 1.2337953 0.085413218 58
0.26450518 1.2512107 0.10876112 79
0.27556479 1.2325693 0.12417299 83
0.25818563 1.2618625 -0.0099827768 86
0.25921458 1.260128 0.15270324 68
0.26801887 1.2490913 0.0097035384 90
0.26633626 1.25195 0.029308135 100
0.25287926 1.2748138 0.051247578 82
0.26705736 1.2507249 0.068490572 50
0.27245009 1.2415626 0.086664692 57
0.26817831 1.2488204 0.10799789 79
0.27520418 1.2368833 0.12507279 83
0.25112817 1.2777889 0.15787962 65
0.26364315 1.2604339 0.0099129668 87
0.27003446 1.2494878 0.029098792 100
0.25765705 1.2706861 0.05072464 84
0.26673526 1.2551382 0.068978049 50
0.27310181 1.2442344 0.086977564 57
0.2688615 1.2514967 0.10837951 79
0.28076601 1.2311082 0.12327318 85
0.25485066 1.2754925 0.15684435 66
0.26535681 1.2614305 0.0099129668 87
0.27371198 1.2470056 0.028889447 100
0.26040515 1.2699795 0.05055033 84
0.27241021 1.249253 0.068003096 51
0.27574897 1.2434888 0.086664692 57
0.26660797 1.2592704 0.10990598 85
0.28628412 1.2253 0.12147357 86
0.26145828 1.2681613 0.15425615 58
0.27105886 1.2554857 0.0097733475 89
0.27836373 1.2427717 0.028575432 100
0.26810765 1.260622 0.049504463 100
0.27210692 1.2536615 0.068490572 50
0.28429213 1.2324536 0.084474608 59
0.26831755 1.2602568 0.10990598 85
0.28496251 1.2312869 0.12282328 76
0.27305129 1.2520179 -0.0097035384 89
0.26223651 1.2708405 0.15477379 67
0.27374536 1.254719 0.0097384425 90
0.27309299 1.2558637 0.029308135 100
0.26784888 1.2650651 0.049853086 85
0.28166032 1.2408314 0.066540658 52
0.28101742 1.2419593 0.086038955 58
0.27100271 1.2595313 0.10952436 99
0.28464445 1.2355953 0.12372308 75
0.26781279 1.2651284 0.15270324 68
0.28134358 1.2452357 0.0095290141 76
0.27479064 1.2568274 0.029308135 100
0.26565671 1.2729846 0.05055033 84
0.27158263 1.2625021 0.069465525 66
0.28363863 1.2411758 0.08572609 58
0.28913784 1.2314481 0.10303686 68
0.28914836 1.2314295 0.12237337 85
0.26574004 1.2728373 0.15477379 67
0.27811405 1.2548916 0.0097035384 90
0.28235257 1.2473325 0.028680105 100
0.26546532 1.2774498 0.050898954 100
0.28107041 1.2496191 0.067515619 51
0.28238663 1.2472718 0.086664692 86
0.28018814 1.2511926 0.10723466 88
0.29647914 1.2221386 0.11967396 78
0.27028999 1.2688453 -0.0099827768 86
0.26938665 1.2704563 0.15373851 68
0.28086472 1.254137 0.0096686333 90
0.29186726 1.234345 0.027842728 100
0.26635909 1.2802306 0.051073264 83
0.28861719 1.2401915 0.066053182 70
0.28893667 1.2396166 0.085100345 58
0.28958485 1.2384508 0.10418171 82
0.29624432 1.2264712 0.12057377 86
0.27212024 1.2698672 -0.0099827768 86
0.26840687 1.276547 0.15529142 75
0.2786943 1.2620783 0.0098082526 74
0.28191781 1.2562315 0.029098792 100
0.27968553 1.2602804 0.048981529 87
0.27875865 1.2619615 0.068978049 50
0.29343882 1.2353355 0.084161744 59
0.28174257 1.2565495 0.10799789 79
0.29313475 1.2358869 0.12282328 76
0.2835218 1.2533224 -0.0096337283 100
0.27670595 1.2656846 0.15166797 69
0.28128725 1.2612208 0.0097733475 89
0.28544873 1.2536135 0.028889447 100
0.28322521 1.2576783 0.048632905 88
0.28420225 1.255892 0.068003096 51
0.29593134 1.2344507 0.083848871 59
0.2852419 1.2539916 0.10723466 73
0.29561633 1.2350266 0.12237337 85
0.27744851 1.2682383 -0.0099129668 87
0.283914 1.2564191 0.14856213 79
0.29349273 1.2428212 0.0093893949 77
0.28332889 1.2615561 0.029308135 100
0.28777936 1.2533526 0.048109971 59
0.28400677 1.2603066 0.068490572 50
0.29567021 1.2388074 0.084474608 59
0.29255006 1.2445588 0.10494494 75
0.29909965 1.2324859 0.12147357 86
0.28008628 1.2675333 0.15166797 77
0.29135507 1.2507577 0.0095290141 76
0.29072392 1.2519308 0.028680105 100
0.28852421 1.2560196 0.048284281 59
0.29324386 1.2472469 0.066540658 52
0.29730821 1.2396923 0.084474608 59
0.29234782 1.2489125 0.10570818 73
0.28731629 1.2582648 0.14856213 71
0.28926975 1.2587149 0.0096686333 75
0.29616824 1.2457843 0.028261416 100
0.27896842 1.2780237 0.05037602 84
0.289305 1.2586489 0.068003096 51
0.28940055 1.2584697 0.10761628 79
0.29021102 1.2569506 -0.0096337283 89
0.27629164 1.2830412 0.15580906 67
0.28910708 1.2631571 0.0097384425 75
0.29596266 1.2501984 0.02847076 100
0.29285532 1.256072 0.048109971 59
0.29101229 1.2595558 0.068003096 51
0.28927109 1.2628472 0.10837951 72
0.29191238 1.2578545 -0.0096337283 89
0.29253814 1.2566715 0.14752686 79
0.29919043 1.2481273 0.0094242999 93
0.29733017 1.2516736 0.047587037 90
0.29272273 1.2604569 0.068003096 51
0.29920101 1.2481071 0.10494494 75
0.28804332 1.2693775 -0.0098431576 87
0.2933411 1.2592781 0.1480445 79
0.29747802 1.2555039 0.028680105 100
0.29349688 1.2631581 0.048632905 88
0.29810029 1.2543075 0.067028143 51
0.29415914 1.2618849 0.14856213 71
0.29336908 1.2676394 0.0097733475 89
0.29887265 1.2569673 0.047935657 59
0.28879416 1.2765108 0.15270324 68
0.29502073 1.2684877 0.0097733475 100
0.29413766 1.2702141 0.049155839 58
0.2904675 1.2773893 -0.0099478718 100
0.29575372 1.2670548 0.14959741 70
0.29133579 1.2800756 0.0099827768 100
0.29322472 1.2763507 0.069709264 100
0.2922402 1.2782922 -0.0099478718 100
0.2974903 1.2679392 0.14959741 70
