# .PCD v0.7 - Point Cloud Data file format
VERSION 0.7
FIELDS x y z intensity
SIZE 4 4 4 4
TYPE F F F F
COUNT 1 1 1 1
WIDTH 730
HEIGHT 1
VIEWPOINT 0 0 0 1 0 0 0
POINTS 730
DATA ascii
-1.1678753 0.16746122 0.020593839 34
-1.0446466 0.15332861 0.018429741 6
-1.0005745 0.15060823 0.017661836 4
-1.0139045 0.15605482 0.017906168 1
0.063679218 0.0010137558 0.015881689 22
0.055818081 0.00023251772 0.047939736 72
0.044149697 0.0054535866 0.04804441 100
0.04259187 0.0088858008 0.047939736 73
0.038957357 0.0089144707 0.04804441 45
0.034065425 0.0073944926 0.048253752 26
0.02704078 0.0025075078 0.048672438 16
0.041191578 0.029125273 0.047102362 10
0.036465287 0.027531326 0.047311705 10
0.029309273 0.022773802 0.047730394 9
-1.0360141 1.1274236 0.14223817 3
-1.0444026 1.1354598 0.028552137 7
-1.0210457 1.1301061 0.084470235 5
-1.0308094 1.132344 0.14188954 6
-1.0217578 1.1357595 0.028168185 10
-0.99649948 1.1298816 0.083214171 28
-1.0276585 1.1371326 0.14171524 40
-1.0028927 1.1373745 0.02785404 30
-0.985452 1.1332484 0.082690813 91
-1.0263023 1.1429126 0.14171524 86
-0.99194378 1.140188 0.027679516 38
-0.99589139 1.1411357 0.083318844 100
-1.007621 1.1439517 0.14014643 86
-0.98086303 1.1434672 0.027504992 41
-0.98481899 1.1444323 0.082795486 100
-0.99849743 1.1477693 0.13944919 91
-0.97379273 1.1471006 0.027400278 26
-0.98356885 1.1495199 0.082795486 95
-1.0030384 1.1543381 0.13997212 87
-0.96076423 1.1497581 0.027190849 27
-0.98023051 1.1546513 0.082690813 46
-1.0035515 1.1605134 0.14014643 76
-0.97112292 1.1577294 0.027400278 41
-0.97314042 1.1582437 0.082376793 36
-1.002248 1.165663 0.14014643 74
-0.97356349 1.164304 0.027470088 53
-0.98330861 1.166826 0.083004825 63
-0.97764128 1.1653594 0.1380547 94
-0.96644479 1.1678319 0.027365373 67
-0.97812051 1.1708949 0.082795486 100
-0.97246748 1.1694119 0.13770607 92
-0.95151967 1.1695235 0.027121039 83
-0.96899134 1.1741724 0.082376793 92
-0.97106403 1.1747239 0.13770607 99
-0.95590788 1.1763251 0.027225753 88
-0.95021659 1.1747894 0.081434749 98
-0.97156554 1.1805499 0.13788038 100
-0.95062274 1.1805239 0.027155945 93
-0.94301504 1.1784427 0.081120729 100
-0.97396678 1.1869102 0.13822901 94
-0.94918066 1.1857595 0.027155945 92
-0.94350487 1.1841855 0.081225403 98
-0.96674234 1.1906298 0.13770607 91
-0.94001979 1.1888256 0.027016325 92
-0.94204992 1.1893964 0.081225403 88
-0.95375651 1.1926869 0.1366602 99
-0.94816476 1.1967634 0.027190849 70
-0.95018119 1.1973379 0.081748761 76
-0.95035571 1.1973876 0.13648589 100
-0.95242971 1.2036541 0.027295563 55
-0.93332893 1.1981409 0.08091139 38
-0.9565118 1.2048323 0.13718314 98
-0.95090681 1.2088959 0.027295563 48
-0.92032355 1.1999526 0.080283359 22
-0.96072167 1.2117659 0.13770607 82
-0.93019217 1.2084529 0.026946515 68
-0.92838877 1.2079186 0.080806717 26
-0.93433589 1.2096803 0.13544002 89
-0.91524523 1.2095946 0.026702182 75
-0.92111212 1.2113547 0.080492698 28
-0.9289754 1.2137139 0.13509139 94
-0.91002983 1.2130344 0.026632372 75
-0.92545193 1.2177141 0.080806717 88
-0.92566758 1.2177795 0.1349171 99
-0.91038603 1.2187154 0.026667276 81
-0.91051596 1.2187554 0.080074012 96
-0.92790455 1.2240982 0.13526571 99
-0.9163689 1.2264423 0.026806897 83
-0.90504736 1.2229182 0.079864666 87
-0.92813271 1.2301041 0.13544002 73
-0.91095215 1.2303561 0.026737086 85
-0.90726727 1.229195 0.080074012 68
-0.91131538 1.2304705 0.13404553 47
-0.89790553 1.2318071 0.026527658 79
-0.91136402 1.2360997 0.080388032 76
-0.90400463 1.2337525 0.1335226 46
-0.89247864 1.2356299 0.026457848 85
-0.91162878 1.2418115 0.080492698 86
-0.90048093 1.2382131 0.13334829 48
-0.88704282 1.2394204 0.026388038 99
-0.8928861 1.2413292 0.079550654 100
-0.91398889 1.2482226 0.13474278 63
-0.89299017 1.246944 0.026527658 99
-0.88933581 1.2457361 0.07944598 100
-0.91609412 1.2545804 0.13509139 78
-0.89519376 1.2529942 0.026597468 100
-0.88775021 1.2505065 0.07944598 100
-0.89936191 1.2543873 0.13369691 84
-0.87455553 1.2516313 0.02624842 99
-0.8993085 1.26 0.080178685 98
-0.88445026 1.2549766 0.13247673 86
-0.86538166 1.2537656 0.0261088 93
-0.89011604 1.2622197 0.07976 100
-0.88849002 1.2616639 0.13299966 100
-0.86746424 1.26001 0.02617861 89
-0.87517554 1.2626758 0.079027295 100
-0.88676506 1.2666821 0.13299966 95
-0.87329584 1.2675946 0.02631823 79
-0.86402029 1.2643518 0.078503937 91
-0.91699558 1.2828724 0.13596296 54
-0.87909156 1.2752259 0.026457848 78
-0.86981827 1.2719475 0.078922622 53
-0.89641184 1.2813492 0.13421984 40
-0.86396176 1.2759931 0.026213514 88
-0.8678804 1.2773955 0.078922622 19
-0.8869341 1.284214 0.1335226 43
-0.85278481 1.2775241 0.026038991 93
-0.87361318 1.2850597 0.079341307 48
-0.87763625 1.2865152 0.13282534 24
-0.85476071 1.2837914 0.0261088 99
-0.85867637 1.2852236 0.07860861 85
-0.86459762 1.2873893 0.13177948 15
-0.84920746 1.2873049 0.026038991 100
-0.8512494 1.2880599 0.07829459 100
-0.86465174 1.2930149 0.13195379 7
-0.84373766 1.2905427 0.025969181 100
-0.84016865 1.2892097 0.077771232 85
-0.87224191 1.3011887 0.13282534 1
-0.83442885 1.2925799 0.025829561 100
-0.83274204 1.2919432 0.077457212 46
-0.8554669 1.3005211 0.13143086 1
-0.83259624 1.2974093 0.025829561 79
-0.84770662 1.3031733 0.078399263 53
-0.84429878 1.3018733 0.1305593 13
-0.83634442 1.30439 0.025934275 74
-0.83651894 1.3044572 0.077875905 68
-0.85544711 1.3117533 0.13177948 52
-0.83074385 1.3077743 0.025864467 75
-0.82161731 1.3042197 0.0771432 72
-0.85726053 1.3181021 0.1321281 100
-0.83816236 1.316252 0.026038991 93
-0.82531983 1.3111984 0.077457212 61
-0.8293826 1.3127971 0.12968774 99
-0.82147628 1.314945 0.025759751 99
-0.83465427 1.3201811 0.078085244 89
-0.83127815 1.3188398 0.13003637 99
-0.80471951 1.3137699 0.025480513 100
-0.83087176 1.3242671 0.077980578 91
-0.82750493 1.3229158 0.12986206 100
-0.81022578 1.321501 0.025620133 100
-0.81967407 1.3253317 0.077457212 97
-0.83110577 1.3299667 0.130385 100
-0.82309669 1.3323083 0.025899371 100
-0.81218237 1.3278387 0.0771432 100
-0.82729894 1.3340292 0.13021068 100
-0.81003827 1.3325121 0.025689943 100
-0.80284435 1.3295368 0.076724514 100
-0.81243378 1.333503 0.1289905 100
-0.78726572 1.3230934 0.1776855 18
-0.79699522 1.3326318 0.025480513 100
-0.80272597 1.3350255 0.07682918 100
-0.80678159 1.3367195 0.12864187 100
-0.78349513 1.3269929 0.17744176 16
-0.7877515 1.3339882 0.025340894 100
-0.79900438 1.3387322 0.076724514 100
-0.80673069 1.3419896 0.12881619 100
-0.78712827 1.3337253 0.17817298 19
-0.79681414 1.343354 0.025550323 89
-0.78598493 1.3387438 0.076096483 69
-0.80472583 1.346722 0.12881619 100
-0.76871413 1.3313913 0.17597933 18
-0.81695312 1.3572893 0.025969181 57
-0.81712276 1.3573623 0.077980578 51
-0.82111174 1.359076 0.1305593 26
-0.78690797 1.344381 0.17866045 5
-0.81672925 1.3628531 0.026004085 90
-0.80590266 1.3581568 0.077457212 97
-0.83366984 1.3702016 0.13195379 61
-0.79582173 1.353784 0.18012288 14
-0.79073626 1.357426 0.025550323 100
-0.81837279 1.3695346 0.07829459 100
-0.81503648 1.3680729 0.130385 100
-0.79185468 1.3579161 0.17987914 31
-0.79599279 1.3653381 0.025689943 100
-0.8144452 1.3734996 0.078189917 100
-0.81294054 1.3728341 0.130385 100
-0.77164 1.3545667 0.17744176 33
-0.79218513 1.3689833 0.025655037 100
-0.8087886 1.3763931 0.077980578 100
-0.81275338 1.3781624 0.1305593 100
-0.76063031 1.3549012 0.17622307 24
-0.80284876 1.3794138 0.025899371 100
-0.80120057 1.3786714 0.077666558 100
-0.81243879 1.3837339 0.13073361 100
-0.79296941 1.3749635 0.18085411 28
-0.80253369 1.3849602 0.025934275 100
-0.80815846 1.3875177 0.078189917 100
-0.80121952 1.3843627 0.12986206 100
-0.76374334 1.3673234 0.17719802 15
-0.79310888 1.3863416 0.025794657 100
-0.80780989 1.3930877 0.07829459 100
-0.79906672 1.3890756 0.12986206 100
-0.76525873 1.3735614 0.1776855 15
-0.7873202 1.3893454 0.025724847 100
-0.80562657 1.3978236 0.07829459 100
-0.80051345 1.3954556 0.13021068 100
-0.77575296 1.3839884 0.17939167 12
-0.78696173 1.3948565 0.025759751 100
-0.80523616 1.4033974 0.078399263 100
-0.80554181 1.4035403 0.13090792 100
-0.76101309 1.3827288 0.1776855 11
-0.79743296 1.4054906 0.026004085 100
-0.80121058 1.4072723 0.07829459 100
-0.81053025 1.4116677 0.13160518 100
-0.76784343 1.3915353 0.17890419 3
-0.80242902 1.4136274 0.026143705 100
-0.80619162 1.415418 0.078713275 100
-0.80468398 1.4147005 0.13125655 100
-0.79296356 1.4148819 0.026004085 100
-0.80573088 1.4210126 0.078817949 100
-0.80242532 1.4194254 0.13125655 100
-0.78890473 1.4186939 0.025969181 100
-0.80884236 1.4283535 0.079131968 100
-0.80373627 1.4258797 0.13160518 100
-0.79404753 1.4264071 0.0261088 100
-0.80317801 1.4308662 0.078922622 100
-0.81241077 1.4353755 0.13265105 100
-0.79892319 1.43463 0.02624842 100
-0.79907137 1.4347031 0.078817949 100
-0.81365436 1.4418882 0.13299966 100
-0.80005926 1.4413505 0.02631823 100
-0.80377942 1.4432003 0.079236634 100
-0.80761462 1.4451075 0.13265105 100
-0.79055792 1.4424725 0.02617861 100
-0.80677694 1.4506085 0.079550654 100
-0.80168802 1.4480556 0.13230242 100
-0.78463382 1.4453419 0.0261088 100
-0.80795711 1.4571438 0.07976 100
-0.80642396 1.456368 0.13299966 100
-0.79651719 1.4572693 0.026388038 100
-0.80199248 1.4600639 0.079550654 100
-0.80934364 1.4638159 0.1335226 100
-0.79766577 1.4637959 0.026457848 100
-0.79602391 1.4629507 0.079341307 100
-0.81754202 1.4740285 0.13456847 100
-0.79878527 1.4703389 0.026527658 100
-0.79714197 1.4694856 0.079550654 100
-0.80800325 1.4751253 0.13387123 100
-0.79657847 1.4745728 0.026527658 100
-0.79493779 1.4737144 0.079550654 100
-0.80225068 1.4775407 0.1335226 100
-0.77996224 1.4718029 0.02624842 88
-0.79423958 1.479337 0.079655327 100
-0.8050589 1.4850461 0.13404553 98
-0.80607241 1.4916438 0.13439415 42
0.13311607 1.2862811 0.12898688 5
0.15848723 1.2583383 0.010925206 13
0.15521628 1.2624183 0.033076324 29
0.13623852 1.2860894 0.057871412 23
0.16201288 1.2539408 0.098240845 12
0.13614881 1.2862014 0.12860526 17
0.20259464 1.2033226 0.12822211 8
0.13551804 1.2869881 0.17754987 6
0.16758272 1.2502481 0.010715778 66
0.16058379 1.2590375 0.032762308 58
0.15408662 1.2671968 0.055605363 49
0.15924633 1.260717 0.077021427 29
0.16731134 1.2505889 0.097302236 25
0.15009245 1.2722127 0.12478908 78
0.19310823 1.2181926 0.13227122 15
0.14926869 1.2732472 0.17237349 14
0.16182029 1.2609921 0.010925206 100
0.1697253 1.2509933 0.032134276 100
0.15335324 1.2717016 0.055953987 97
0.1671173 1.254292 0.075802729 30
0.17266658 1.247273 0.096363634 25
0.16524142 1.2566648 0.12059128 100
0.18621477 1.2301364 0.13542053 38
0.14743343 1.2791893 0.1739264 35
0.16353655 1.262344 0.010925206 100
0.17757261 1.2444624 0.031610917 100
0.15387675 1.2746503 0.056128297 100
0.17126152 1.2525026 0.075315252 30
0.17189547 1.2516949 0.096989371 25
0.16694257 1.2580048 0.12059128 100
0.18421343 1.2360022 0.13677025 45
0.15040612 1.2790718 0.17340876 42
0.16648671 1.2621127 0.010890301 100
0.17800337 1.247335 0.031715591 92
0.15074185 1.2823161 0.056825545 100
0.17172784 1.2553874 0.07555899 30
0.17843625 1.2467794 0.095737889 38
0.16985515 1.2577904 0.12020966 100
0.18943596 1.2326649 0.13542053 30
0.1426855 1.2926538 0.17754987 40
0.16820684 1.2634485 0.010890301 78
0.17478302 1.2549491 0.032134276 60
0.16716328 1.2647972 0.054733805 50
0.16856542 1.262985 0.076533951 29
0.17768517 1.2511982 0.096363634 25
0.16915739 1.2622199 0.1209729 25
0.18866813 1.2370032 0.13632034 22
0.15042329 1.2864327 0.17496167 35
0.17602247 1.2568491 0.010715778 66
0.17526141 1.2578397 0.032238949 30
0.17617509 1.2566503 0.053687938 52
0.17633495 1.2564422 0.075315252 45
0.19260401 1.2352629 0.092922069 53
0.18403351 1.2464201 0.1167751 13
0.18792623 1.2413526 0.13722014 22
0.16046628 1.2771003 0.1713382 58
0.18508345 1.2486748 0.010506349 54
0.16736498 1.2719166 0.033076324 29
0.17192167 1.2659395 0.054559495 50
0.18293434 1.2514938 0.074340299 61
0.18712607 1.2459953 0.094799288 51
0.20125547 1.2274613 0.11181407 14
0.19674498 1.2333778 0.13452072 46
0.1775533 1.2585523 0.16460891 69
0.17468867 1.2658906 0.010855397 39
0.18117252 1.2573237 0.032029606 30
0.16884559 1.2736109 0.055256739 49
0.1894092 1.2464408 0.073365346 62
0.19236615 1.2425338 0.093860678 52
0.19456086 1.239634 0.1144854 13
0.20777294 1.2221771 0.13092151 48
0.17459756 1.266011 0.16667947 67
0.17873815 1.2639356 0.010785587 39
0.18279058 1.2585441 0.032029606 30
0.16812351 1.2780575 0.055605363 49
0.18979838 1.2492207 0.073609084 62
0.1939351 1.2437172 0.093860678 52
0.19847935 1.2376714 0.11372216 13
0.21161604 1.220194 0.13002171 32
0.17160153 1.2734302 0.16875002 66
0.18037814 1.2651639 0.010785587 39
0.17963374 1.2661612 0.032448292 29
0.1829204 1.2617582 0.053687938 52
0.19613934 1.2440494 0.072634131 78
0.20614272 1.2306484 0.091044858 54
0.20003214 1.2388344 0.11372216 13
0.20611656 1.2306834 0.13272113 31
0.18251789 1.2622974 0.16460891 69
0.18806177 1.258418 0.010611063 81
0.20752892 1.2321479 0.030145511 32
0.18701166 1.259835 0.053339314 78
0.19306865 1.2516614 0.073609084 77
0.20069614 1.2413685 0.092922069 79
0.19933304 1.2432079 0.1144854 13
0.21120748 1.2271839 0.13137141 31
0.19113973 1.2542644 0.16150309 70
0.19323918 1.2547837 0.010506349 81
0.19604144 1.2509758 0.031296901 62
0.18391433 1.2674549 0.054036561 77
0.19584447 1.2512436 0.073365346 62
0.19991949 1.2457062 0.093547814 100
0.20323148 1.2412057 0.11372216 13
0.22081077 1.2173182 0.12822211 24
0.19045749 1.2585636 0.16253836 70
0.1868498 1.2674558 0.010750682 79
0.20613423 1.2410394 0.030564198 64
0.18347761 1.2720752 0.054385185 76
0.20354715 1.2445832 0.072146654 63
0.20407808 1.243856 0.092922069 92
0.21546149 1.2282627 0.1102876 14
0.240915 1.1933955 0.12102367 17
0.18777984 1.2661818 0.16460891 69
0.18850145 1.2686574 0.010750682 92
0.21004266 1.2389431 0.030354854 97
0.18514454 1.2732879 0.054385185 76
0.20279258 1.2489439 0.072634131 78
0.20449191 1.2465998 0.093234941 100
0.21237376 1.2357275 0.11181407 14
0.24918348 1.1849515 0.11832426 8
0.18829337 1.2689444 0.16512655 68
0.19033155 1.269979 0.010750682 92
0.21176371 1.2401859 0.030354854 65
0.1928091 1.2665349 0.053513627 100
0.20107266 1.2550477 0.073365346 62
0.21546951 1.2350345 0.090731993 100
0.21522948 1.2353681 0.11143246 14
0.2302224 1.2145263 0.12642249 8
0.19689333 1.2608573 0.16202073 70
0.20361516 1.2548972 0.010401634 97
0.21100286 1.2445554 0.030564198 64
0.19793198 1.262853 0.05299069 79
0.2049908 1.2529714 0.072877869 63
0.21586522 1.2377486 0.091044858 100
0.20764506 1.2492559 0.1144854 20
0.23509648 1.2108271 0.12507279 16
0.20301473 1.2557378 0.15995017 80
0.20770749 1.2529007 0.010331824 98
0.21389946 1.2441652 0.030459527 97
0.19858858 1.2657655 0.053165004 100
0.19872767 1.2655693 0.074584037 100
0.21415487 1.2438049 0.091983467 93
0.22075713 1.2344905 0.11066922 28
0.23896816 1.2087986 0.12417299 16
0.19362578 1.2727669 0.16512655 76
0.20700878 1.2573036 0.010401634 97
0.22122157 1.2371109 0.029936166 66
0.19564745 1.2734452 0.053862248 100
0.22093925 1.2375119 0.07019674 66
0.21800187 1.2416853 0.09135773 100
0.20195919 1.2644778 0.11753834 66
0.2359384 1.216202 0.12597258 33
0.19418305 1.2755258 0.16564418 76
0.20871189 1.258498 0.010401634 97
0.22514182 1.2349812 0.029726824 100
0.19740695 1.2746791 0.053862248 100
0.2112042 1.2549306 0.072634131 94
0.22304437 1.2379833 0.090419121 100
0.20481175 1.2640803 0.11715672 100
0.23080137 1.2268804 0.128672 65
0.19926906 1.2720138 0.16409127 69
0.21261331 1.2563409 0.010331824 84
0.21871653 1.2475431 0.030459527 97
0.19908246 1.2758455 0.053862248 100
0.21734014 1.2495272 0.071659178 64
0.22797593 1.2341957 0.089480512 97
0.21316639 1.2555437 0.11486702 81
0.23231819 1.2279364 0.128672 89
0.2119472 1.2573011 0.15891489 81
0.20986295 1.264163 0.010471444 82
0.22952831 1.2355925 0.029622151 100
0.20997602 1.2639987 0.052467756 100
0.2157234 1.2556489 0.072390392 63
0.23303947 1.2304914 0.08854191 98
0.22274014 1.2454545 0.11219569 84
0.22957915 1.2355187 0.13047162 96
0.21154487 1.2617195 0.15995017 72
0.21376017 1.2619864 0.010401634 97
0.21867761 1.2547911 0.030773543 64
0.20711926 1.2717034 0.053165004 100
0.22181603 1.2501991 0.071415432 64
0.22899526 1.2396944 0.090106249 100
0.22985741 1.2384329 0.1102876 92
0.2289255 1.2397964 0.13137141 94
0.21535742 1.2596493 0.15891489 73
0.21893245 1.2582501 0.010296919 42
0.22718206 1.2460839 0.030145511 65
0.21455121 1.2647115 0.052293446 80
0.2291486 1.2431836 0.07019674 66
0.22295862 1.2523124 0.092296332 100
0.23047465 1.241228 0.11066922 92
0.23502421 1.2345184 0.12957181 96
0.21281758 1.2672682 0.16098544 72
0.21831983 1.2626629 0.010366729 41
0.22207016 1.2570924 0.030773543 32
0.21063012 1.2740848 0.053165004 52
0.23071948 1.2442451 0.07019674 82
0.23559171 1.2370081 0.089167647 100
0.22655696 1.2504278 0.1125773 96
0.23765466 1.2339438 0.1291219 96
0.2166262 1.2651786 0.15995017 72
0.21559766 1.2704685 0.010506349 40
0.21267623 1.2748407 0.03182026 30
0.21903324 1.2653267 0.052119136 54
0.22575971 1.2552599 0.071659178 80
0.2361263 1.2397451 0.089480512 97
0.22932667 1.2499216 0.11219569 91
0.24144134 1.2317907 0.12822211 97
0.21835673 1.2663393 0.15995017 72
0.21504822 1.2749074 0.010576159 27
0.2132481 1.2776208 0.031924933 30
0.22508329 1.2597804 0.051421888 55
0.22737068 1.2563324 0.071659178 64
0.23986977 1.2374913 0.088854775 98
0.23417583 1.2460743 0.11105084 91
0.23974255 1.2376831 0.12957181 96
0.22854802 1.2545576 0.15580906 75
0.22679508 1.261098 0.010262015 28
0.2107189 1.2855251 0.032343622 30
0.22578529 1.2626324 0.051596198 54
0.23570317 1.2475624 0.07019674 82
0.23724145 1.2452252 0.090106249 100
0.24024007 1.2406688 0.10952436 85
0.24038744 1.2404449 0.13002171 96
0.22607803 1.2621875 0.15787962 73
0.23389435 1.2537969 0.010087491 43
0.2124303 1.2866474 0.032343622 30
0.22415131 1.2687085 0.052119136 54
0.24163178 1.2419548 0.069221787 83
0.24530199 1.2363375 0.088229038 98
0.23965484 1.2449806 0.1102876 99
0.24408105 1.2382063 0.1291219 96
0.22982532 1.2600245 0.15684435 74
0.22035387 1.2783872 0.010576159 40
0.25118074 1.2308453 0.028784776 34
0.23564979 1.2547975 0.05055033 56
0.23140112 1.2613499 0.071902916 100
0.25015581 1.232426 0.087290429 85
0.24345094 1.2427664 0.10952436 85
0.25313878 1.2278256 0.12597258 90
0.22628263 1.2692437 0.15943253 73
0.22853577 1.2693889 0.010366729 41
0.26352111 1.2150397 0.027738057 36
0.22755343 1.270915 0.052119136 54
0.24055353 1.2507195 0.07019674 66
0.25382933 1.2300959 0.086664692 86
0.23651922 1.2569867 0.1125773 96
0.25465861 1.2288076 0.12597258 99
0.23944211 1.2524461 0.15373851 76
0.24113029 1.2537098 0.010017681 72
0.25118062 1.2379704 0.029098792 68
0.23689744 1.2603387 0.050898954 55
0.23697582 1.260216 0.071415432 48
0.25551766 1.2311783 0.086664692 71
0.25098526 1.2382762 0.10799789 79
0.25214711 1.2364568 0.1277722 89
0.23497432 1.2633505 0.15684435 66
0.25344211 1.2378417 0.0096686333 75
0.245249 1.250767 0.029831495 66
0.24492535 1.2512776 0.049853086 57
0.24391711 1.2528682 0.07019674 99
0.25281826 1.2388259 0.087916173 84
0.244131 1.2525307 0.11105084 98
0.25160891 1.2407337 0.128672 97
0.23661205 1.2643924 0.15684435 66
0.24664354 1.2524686 0.0099478718 73
0.25445491 1.2400451 0.029098792 100
0.23608616 1.2692593 0.051596198 82
0.24885887 1.2489452 0.069465525 49
0.25033274 1.2466011 0.089167647 56
0.2521717 1.2436764 0.10876112 79
0.26059726 1.2302761 0.12552269 90
0.23842621 1.2655377 0.15684435 66
0.24409556 1.2603108 0.010087491 86
0.25821188 1.2376848 0.028889447 100
0.23888543 1.2686617 0.051421888 82
0.25473556 1.2432568 0.068490572 50
0.26559126 1.225857 0.085100345 58
0.24551332 1.2580384 0.11181407 98
0.26323718 1.2296301 0.12507279 92
0.23504493 1.2748173 0.15943253 73
0.24475637 1.2630758 0.010122396 85
0.25143594 1.252286 0.029726824 100
0.24796903 1.2578863 0.050201707 85
0.24803033 1.2577872 0.070440479 49
0.26406494 1.2318857 0.086038955 72
0.25341904 1.2490826 0.10952436 71
0.26689485 1.2273145 0.12417299 83
0.2489666 1.2562748 -0.0099827768 86
0.23985955 1.270986 0.15787962 65
0.2527591 1.2539148 0.0099129668 87
0.25834799 1.2448161 0.029203463 100
0.2496739 1.2589376 0.050201707 85
0.24246201 1.2706788 0.072146654 31
0.26154339 1.2396138 0.087290429 71
0.25303808 1.2534606 0.1102876 99
0.26237318 1.2382629 0.12687239 99
0.25172135 1.2556043 0.15270324 68
0.25445011 1.2549495 0.0099129668 87
0.25065258 1.2611805 0.030145511 100
0.24930871 1.2633857 0.05055033 84
0.25764146 1.2497129 0.068978049 50
0.2611284 1.2439915 0.087916173 56
0.26800963 1.2327005 0.10532656 67
0.26502362 1.2376001 0.12642249 90
0.2493968 1.2632411 0.15477379 67
0.2561447 1.2559781 0.0099129668 87
0.26477024 1.2417133 0.028889447 100
0.24794 1.269547 0.051073264 83
0.26034489 1.2490318 0.068734311 84
0.26585105 1.2399259 0.086977564 57
0.2523571 1.2622421 0.11181407 84
0.27371594 1.2269188 0.12327318 85
0.24812159 1.2692468 0.1563267 66
0.26092902 1.2518566 0.0098082526 74
0.26025376 1.2529821 0.029517479 100
0.24456078 1.2791409 0.051944822 81
0.26099759 1.2517422 0.068978049 50
0.27257419 1.2324451 0.085413218 58
0.26417691 1.2464427 0.10799789 87
0.27731758 1.2245383 0.12237337 93
0.24887228 1.2719541 0.15684435 66
0.25545368 1.2648913 0.010052586 86
0.26398441 1.2505581 0.029308135 100
0.25449184 1.2665074 0.05055033 84
0.25658938 1.2629831 0.070440479 49
0.2762107 1.2300158 0.084787481 59
0.25881308 1.2592468 0.11066922 78
0.27591586 1.2305111 0.12372308 92
0.25749913 1.2614546 -0.0099827768 86
0.25457841 1.266362 0.15477379 67
0.26531675 1.252141 0.0097733475 100
0.26363263 1.2549932 0.029517479 100
0.25622675 1.2675358 0.05055033 84
0.2613399 1.2588762 0.069709264 49
0.27380067 1.2377726 0.086038955 58
0.26351723 1.2551887 0.10952436 85
0.27851585 1.229787 0.12327318 76
0.26024175 1.260736 0.15270324 68
0.27104431 1.2462299 0.0096337283 90
0.2653273 1.2559899 0.029517479 100
0.26199335 1.2616816 0.049853086 85
0.26706147 1.2530293 0.068734311 67
0.28042728 1.2302115 0.084474608 59
0.27712011 1.2358574 0.10494494 75
0.27815253 1.2340949 0.12417299 83
0.26000366 1.2650783 0.15373851 68
0.26768497 1.2558457 0.0098082526 89
0.27103931 1.2500731 0.029098792 100
0.25670433 1.2747426 0.051073264 83
0.2717413 1.248865 0.068003096 51
0.28005043 1.2345655 0.085100345 58
0.27184331 1.2486894 0.10761628 79
0.28564864 1.2249314 0.12147357 77
0.25785121 1.272769 0.15580906 67
0.26738533 1.2602931 0.0098780617 73
0.27570903 1.2458528 0.028784776 100
0.26244795 1.2688587 0.05037602 84
0.27341455 1.2498333 0.068003096 51
0.28266019 1.2337936 0.084787481 59
0.26273111 1.2683675 0.11181407 98
0.28431869 1.2309163 0.12282328 85
0.26638669 1.2620256 -0.0099129668 87
0.25188991 1.2871753 0.15995017 64
0.26413557 1.2699565 0.010052586 86
0.27836311 1.2450736 0.028680105 100
0.25924626 1.2785075 0.051247578 82
0.27804717 1.245626 0.067271881 69
0.28330025 1.2364388 0.085100345 58
0.27616644 1.2489153 0.10723466 73
0.28496194 1.2335327 0.12327318 85
0.26810592 1.2630126 -0.0099129668 87
0.26903957 1.2613797 0.15166797 69
0.27377465 1.257036 0.0097733475 89
0.27608183 1.252968 0.029098792 100
0.27281803 1.2587227 0.049155839 87
0.27089524 1.2621129 0.069465525 49
0.28590459 1.2356486 0.084787481 73
0.27977693 1.2464528 0.10647142 88
0.28658158 1.234455 0.12327318 85
0.26884204 1.265733 -0.0099478718 86
0.27266261 1.2589967 0.15063268 70
0.27735272 1.2544639 0.0097035384 90
0.27572581 1.2573547 0.029308135 100
0.27346304 1.2613754 0.049330149 87
0.2783702 1.252656 0.068003096 51
0.28454372 1.2416863 0.08572609 58
0.27943262 1.2507682 0.10723466 88
0.29003471 1.2319294 0.12237337 76
0.26860088 1.270015 0.15373851 68
0.28002015 1.2536666 0.0096686333 75
0.28132254 1.2513334 0.028889447 100
0.27226666 1.2675569 0.049853086 85
0.28199169 1.2501345 0.067515619 51
0.28811744 1.2391603 0.085100345 58
0.28111246 1.2517097 0.10723466 88
0.29354838 1.2294309 0.12147357 77
0.26846477 1.2743678 0.15477379 67
0.28267863 1.2528565 0.0096337283 90
0.29074335 1.2382895 0.028052073 100
0.27111009 1.2737526 0.05037602 84
0.28366932 1.2510672 0.067515619 51
0.29454058 1.2314305 0.083536007 75
0.28279561 1.2526453 0.10723466 81
0.29704142 1.2269135 0.12057377 86
0.27493021 1.2668524 -0.0099129668 87
0.27209845 1.2719673 0.15373851 68
0.28725308 1.2485282 0.0095290141 92
0.29045701 1.2426931 0.028261416 100
0.27862379 1.2642443 0.049330149 87
0.28152853 1.258954 0.068490572 50
0.29425135 1.2357826 0.084161744 59
0.28637177 1.2501333 0.10647142 81
0.29582411 1.2329183 0.12192347 85
0.280516 1.2607982 -0.0097733475 88
0.2785013 1.2644674 0.15115032 77
0.28310165 1.259933 0.0097384425 75
0.28629318 1.2540745 0.028889447 100
0.28979555 1.2476454 0.047587037 90
0.28694999 1.2528689 0.067515619 51
0.29863232 1.2314241 0.083223134 60
0.28702623 1.2527289 0.10685304 81
0.28214502 1.2616891 -0.0097733475 88
0.28106669 1.2636685 0.15063268 70
0.29812029 1.2362306 0.0092497757 78
0.28798452 1.254992 0.028889447 100
0.28483531 1.2608212 0.048807215 88
0.28580648 1.2590237 0.068246834 68
0.2927331 1.2462025 0.08572609 58
0.29524502 1.2415528 0.10418171 82
0.2980547 1.2363521 0.12237337 76
0.28279153 1.2646043 0.15063268 70
0.29039046 1.2547791 0.0095988233 76
0.2944783 1.2471457 0.028366089 100
0.28569546 1.2635462 0.048981529 87
0.29603487 1.2442391 0.066053182 52
0.29354763 1.2488835 0.086038955 58
0.29141408 1.2528676 0.10647142 73
0.28000608 1.2741702 -0.0099827768 86
0.28278214 1.2689865 0.15166797 69
0.286457 1.266279 0.0098082526 74
0.29520866 1.2497987 0.02847076 100
0.28555095 1.2679851 0.049330149 87
0.29582977 1.2486291 0.066540658 52
0.29800022 1.2445419 0.085100345 58
0.29125962 1.2572352 0.10723466 73
0.28739488 1.2645129 -0.0097733475 99
0.28090134 1.2767409 0.15373851 68
0.29098606 1.2618878 0.0097035384 90
0.29193237 1.2600906 0.048458595 59
0.29380244 1.2565392 0.067515619 51
0.28838834 1.266821 0.10914274 78
0.29098606 1.2618878 -0.0097035384 89
0.29167277 1.2605836 0.14856213 79
0.29640672 1.2556984 0.0095639192 91
0.29486689 1.2586476 0.028889447 100
0.29456681 1.2592223 0.048284281 88
0.29733986 1.2539113 0.067028143 51
0.28715149 1.2734246 -0.0099129668 87
0.29159856 1.2649074 0.14959741 70
0.29985803 1.2529854 0.0094941091 92
0.29344171 1.2653743 0.048807215 58
0.29712012 1.2582718 0.067515619 51
0.29412958 1.2640461 0.14907977 78
0.29789177 1.2609711 0.0096337283 90
0.29608256 1.2644944 0.048632905 59
0.28967857 1.2769659 0.15270324 68
0.29608947 1.2689731 0.048981529 58
0.29241458 1.2761948 0.1521856 77
0.29600739 1.2734747 0.0098431576 100
0.29330534 1.2788309 -0.0099478718 100
0.29409933 1.2814677 -0.0099827768 100
