# .PCD v0.7 - Point Cloud Data file format
VERSION 0.7
FIELDS x y z intensity
SIZE 4 4 4 4
TYPE F F F F
COUNT 1 1 1 1
WIDTH 731
HEIGHT 1
VIEWPOINT 0 0 0 1 0 0 0
POINTS 731
DATA ascii
-1.1920426 0.16795501 0.021012697 25
-1.1451026 0.16134131 0.060605038 31
-1.1004081 0.15896334 0.019407077 5
-1.0444856 0.15442248 0.018429741 6
-1.0103284 0.15297818 0.01783636 4
-1.053234 0.16342571 0.018604266 1
0.059312522 0.00036787987 0.047835063 57
0.056628972 0.0020853877 0.047835063 68
0.053346366 0.0028776526 0.015951499 112
0.045457244 0.0021990538 0.048149079 25
0.049396098 0.013956666 0.047521047 100
0.04343468 0.010724425 0.047835063 75
0.0385589 0.0091821551 0.04804441 45
0.030306101 0.0027037859 0.048567768 25
0.029882491 0.0078220367 0.048358422 17
0.034014463 0.019517004 0.047730394 9
0.02457422 0.011471689 0.048358422 8
0.012919962 0.00011378527 0.0491958 7
-1.0314095 1.1295776 0.084993593 3
-1.0450389 1.1326767 0.14310972 6
-1.0242786 1.1337403 0.028203089 7
-0.9931708 1.1265528 0.083004825 9
-1.0224094 1.1333084 0.1411923 13
-1.0094359 1.1357623 0.027958754 13
-1.0055914 1.1348606 0.08373753 69
-1.0270154 1.1398857 0.14171524 53
-0.99252337 1.1377654 0.027679516 36
-1.0042436 1.1405597 0.08373753 100
-1.0120826 1.1424286 0.14049506 100
-0.98352081 1.1409976 0.027539898 38
-0.98553497 1.141485 0.082795486 100
-1.0050294 1.1462011 0.13997212 87
-0.97826701 1.1456612 0.027470088 32
-0.98804218 1.148064 0.083004825 100
-1.0017054 1.1514225 0.13979781 86
-0.98283368 1.1521783 0.027574802 23
-0.97902828 1.1512296 0.082586139 66
-0.9946323 1.1551201 0.13927488 89
-0.97948414 1.1573031 0.027539898 30
-0.97762078 1.1568311 0.082586139 40
-1.0047989 1.1637133 0.14032075 66
-0.97819144 1.1623728 0.027539898 51
-0.97246057 1.1609014 0.082376793 40
-0.98225707 1.1634167 0.13840333 89
-0.96126276 1.1639361 0.027260659 66
-0.97681564 1.1679902 0.082690813 82
-0.97694892 1.168025 0.1380547 92
-0.94834799 1.1658806 0.027051231 71
-0.97741848 1.1735613 0.082795486 95
-0.98139948 1.1746132 0.13857763 94
-0.95654434 1.1739591 0.027225753 78
-0.95277971 1.1729498 0.081539422 94
-0.97028416 1.1776433 0.13770607 99
-0.95905596 1.1800014 0.027295563 93
-0.94179827 1.1753126 0.081016064 100
-0.97276944 1.1837273 0.1380547 100
-0.95761555 1.1852665 0.027295563 93
-0.94615096 1.1821086 0.081330076 100
-0.9617117 1.1863947 0.13718314 98
-0.94082123 1.1859642 0.027016325 93
-0.94477624 1.1870677 0.081330076 94
-0.9526462 1.1892636 0.13648589 94
-0.93159002 1.1892477 0.026876707 92
-0.94708115 1.1936312 0.081539422 84
-0.94343096 1.1925983 0.13578865 100
-0.95325953 1.2007688 0.027295563 57
-0.93222815 1.1947421 0.080806717 60
-0.94968253 1.1997437 0.13648589 100
-0.95935172 1.2085072 0.027435184 41
-0.93449742 1.2012863 0.081016064 24
-0.96149033 1.2091285 0.13770607 91
-0.94062334 1.2084316 0.027121039 59
-0.92731076 1.2045161 0.080702044 26
-0.94091159 1.2085164 0.13596296 84
-0.91991943 1.2079227 0.026771991 74
-0.92578501 1.2096702 0.080702044 28
-0.92982453 1.2108736 0.13509139 89
-0.91271549 1.2110628 0.026667276 78
-0.93387991 1.2174447 0.081225403 54
-0.93026203 1.2163537 0.13526571 99
-0.91116697 1.2161659 0.026667276 81
-0.9112969 1.2162056 0.080074012 100
-0.9286949 1.221518 0.13526571 99
-0.90967935 1.2210088 0.026667276 89
-0.89454323 1.2163321 0.079236634 99
-0.93290025 1.2281836 0.13578865 85
-0.91565007 1.2287451 0.026806897 85
-0.9081462 1.2263964 0.080074012 78
-0.91029531 1.227069 0.13387123 57
-0.90641469 1.2314425 0.026667276 83
-0.91416019 1.2338965 0.080492698 64
-0.90489227 1.2309601 0.1335226 46
-0.89336997 1.2328596 0.026457848 83
-0.91063005 1.2383946 0.080388032 78
-0.90327436 1.2360358 0.1335226 46
-0.89174551 1.2378951 0.026457848 92
-0.89758784 1.2397912 0.07976 100
-0.91679949 1.246026 0.1349171 52
-0.8901034 1.2429249 0.026457848 99
-0.89214402 1.2435951 0.079550654 100
-0.91323596 1.2505215 0.13474278 71
-0.88844389 1.2479489 0.026457848 99
-0.8885867 1.2479964 0.07944598 100
-0.90398663 1.2531133 0.13404553 82
-0.87910098 1.2506679 0.02631823 99
-0.89439732 1.2558128 0.079864666 100
-0.89087564 1.2546282 0.13299966 84
-0.86605567 1.2517889 0.0261088 96
-0.88323861 1.2576351 0.079341307 100
-0.89483374 1.2615801 0.1335226 86
-0.87209946 1.2588353 0.02624842 93
-0.87603325 1.2601876 0.079027295 100
-0.88951391 1.2648214 0.13317397 100
-0.88171738 1.2677363 0.026457848 81
-0.87054044 1.2638507 0.078817949 100
-0.91224271 1.2783484 0.13544002 85
-0.87619811 1.2714045 0.026388038 79
-0.86315531 1.266819 0.078503937 70
-0.89918166 1.2794847 0.13439415 42
-0.86313421 1.2723608 0.02617861 83
-0.86517626 1.2730868 0.078713275 36
-0.8748669 1.2765317 0.13230242 35
-0.8538447 1.274585 0.026038991 100
-0.86153203 1.277348 0.07860861 19
-0.87121516 1.2808285 0.1321281 31
-0.85583371 1.2808481 0.0261088 96
-0.85224372 1.2795436 0.078189917 59
-0.88065892 1.2898691 0.13317397 18
-0.85386187 1.2862425 0.0261088 99
-0.84652787 1.2835455 0.077980578 100
-0.87304229 1.2932956 0.13265105 13
-0.85205132 1.2911396 0.0261088 100
-0.84847099 1.2898089 0.078189917 100
-0.87307447 1.298954 0.13282534 1
-0.83542949 1.289921 0.025829561 100
-0.84683102 1.2941997 0.078189917 48
-0.87140578 1.303422 0.13282534 1
-0.82612723 1.2919173 0.025689943 93
-0.8449927 1.2990724 0.078189917 51
-0.83786565 1.2963693 0.12986206 5
-0.82980651 1.2991055 0.025794657 72
-0.83931452 1.3027515 0.077980578 57
-0.8582508 1.3100128 0.13195379 30
-0.83540958 1.3068087 0.025934275 72
-0.83185941 1.305433 0.077666558 68
-0.85264164 1.3134856 0.13160518 86
-0.8409757 1.3145573 0.026073895 83
-0.82998198 1.3102534 0.077666558 63
-0.85259122 1.3191047 0.13177948 100
-0.81861156 1.3113191 0.025689943 92
-0.83551675 1.3180056 0.078085244 74
-0.8284331 1.3152038 0.12968774 97
-0.81690425 1.315616 0.025689943 100
-0.83007842 1.3208747 0.077875905 89
-0.83041435 1.3210087 0.13003637 99
-0.8112821 1.3188884 0.025620133 100
-0.81888539 1.3219543 0.077352546 95
-0.83217829 1.3273141 0.130385 100
-0.81306177 1.3251455 0.025689943 100
-0.81140119 1.3244691 0.077038527 100
-0.83391482 1.3336384 0.13073361 100
-0.78288478 1.312855 0.17671055 15
-0.81111568 1.3299 0.025689943 100
-0.80761033 1.3284581 0.076933853 100
-0.82641119 1.3361919 0.13021068 100
-0.78098172 1.3175044 0.17671055 15
-0.80545968 1.3331134 0.025620133 100
-0.80565268 1.3331935 0.076933853 100
-0.79866749 1.3302917 0.12777032 100
-0.78822845 1.3259549 0.17792924 16
-0.79242188 1.3331997 0.025410704 100
-0.8073619 1.3394676 0.0771432 95
-0.81507593 1.3427041 0.12951343 100
-0.78261858 1.3290868 0.17744176 22
-0.79781276 1.3410025 0.025550323 100
-0.79433173 1.3395276 0.076515168 90
-0.81673759 1.34902 0.12986206 100
-0.76420838 1.3267659 0.17524812 20
-0.80684263 1.3504226 0.025759751 67
-0.80335325 1.3489299 0.0771432 40
-0.80188543 1.3483019 0.12864187 60
-0.7732076 1.3360343 0.17671055 13
-0.81949466 1.3614984 0.026038991 67
-0.80865842 1.3568182 0.077561885 65
-0.82912368 1.3656573 0.13143086 26
-0.79126984 1.3493079 0.17939167 7
-0.79909152 1.3582823 0.025689943 100
-0.80294019 1.3599606 0.077352546 100
-0.80512041 1.3609113 0.12933913 93
-0.78741997 1.3531928 0.17914793 21
-0.78604859 1.3581538 0.025480513 100
-0.81732434 1.371922 0.07829459 100
-0.82128459 1.3736653 0.13108224 100
-0.78719288 1.3586576 0.17939167 35
-0.7967791 1.3684983 0.025724847 100
-0.80973941 1.3742579 0.077980578 100
-0.8064242 1.3727846 0.12986206 100
-0.76517552 1.354454 0.17671055 30
-0.79650623 1.3740144 0.025759751 100
-0.80215496 1.3765483 0.077666558 100
-0.80794758 1.3791466 0.13021068 100
-0.76131624 1.3582289 0.17646681 20
-0.80349797 1.3828349 0.025934275 100
-0.81094617 1.3862073 0.07829459 100
-0.80218285 1.3822395 0.12986206 100
-0.76648837 1.3660778 0.17744176 18
-0.7923637 1.3831656 0.025759751 100
-0.81252867 1.3923767 0.078503937 100
-0.80376977 1.3883758 0.13021068 100
-0.78256088 1.3786879 0.17987914 15
-0.79203123 1.3886847 0.025794657 100
-0.81578928 1.3996375 0.078817949 100
-0.80522174 1.3947657 0.1305593 100
-0.75699228 1.3725317 0.17671055 13
-0.80074185 1.3984268 0.026004085 100
-0.80815047 1.4018736 0.078503937 100
-0.80664557 1.4011735 0.13090792 100
-0.74948162 1.3745782 0.17597933 9
-0.79853994 1.4031379 0.026004085 100
-0.80412871 1.4057617 0.078399263 100
-0.81164807 1.4092922 0.13160518 100
-0.75994164 1.385016 0.1776855 5
-0.8035503 1.411266 0.026143705 100
-0.80370611 1.4113398 0.078503937 100
-0.80580717 1.4123352 0.13125655 100
-0.78290206 1.4014835 0.18109785 3
-0.79228288 1.4116745 0.025969181 100
-0.80506307 1.4177841 0.078713275 100
-0.79996163 1.4153454 0.13090792 100
-0.7828303 1.412881 0.025829561 100
-0.8171851 1.4294517 0.079550654 100
-0.80846804 1.4252472 0.13195379 100
-0.79496282 1.4245299 0.0261088 100
-0.79871184 1.4263544 0.07860861 100
-0.81333846 1.4334724 0.13265105 100
-0.79625994 1.4309833 0.02617861 100
-0.79820532 1.4319384 0.078713275 100
-0.8181681 1.4417398 0.13334829 100
-0.79394442 1.4356786 0.02617861 100
-0.79051727 1.4339812 0.078399263 100
-0.80867344 1.4429741 0.13265105 100
-0.79519027 1.4421535 0.02624842 100
-0.80963105 1.4493692 0.079655327 100
-0.80275148 1.4459316 0.13230242 100
-0.78926438 1.4450448 0.02617861 100
-0.81260186 1.4568079 0.079969339 100
-0.80038375 1.4506495 0.13230242 100
-0.79426843 1.4528716 0.02631823 100
-0.80153412 1.4565624 0.07944598 100
-0.80534416 1.4584979 0.13299966 100
-0.79187661 1.4575598 0.02631823 100
-0.80090684 1.4621867 0.079550654 100
-0.81179839 1.4677675 0.13387123 100
-0.79657429 1.465912 0.026457848 100
-0.79670805 1.465981 0.07944598 100
-0.80581445 1.4706873 0.1335226 100
-0.79059047 1.4687595 0.026388038 100
-0.80312592 1.4752935 0.079969339 100
-0.8033604 1.4754157 0.1335226 100
-0.7881431 1.4734349 0.026388038 96
-0.79712003 1.4781538 0.07976 100
-0.80088979 1.4801354 0.1335226 100
-0.78921312 1.4799749 0.026457848 52
-0.780523 1.4753678 0.078922622 55
-0.8036837 1.4876463 0.13404553 87
0.12541178 1.2984588 0.011832732 11
0.1371876 1.2838023 0.03454173 27
0.098261416 1.3322513 0.063100755 19
0.12085268 1.3041333 0.13318467 10
0.18017101 1.2303034 0.13632034 7
0.12045711 1.3046256 0.18376152 6
0.15959623 1.2592254 0.010925206 39
0.176267 1.2383349 0.031401575 31
0.15356618 1.2667818 0.055605363 49
0.15625629 1.2634108 0.077508904 14
0.15325487 1.267172 0.10074379 11
0.14589307 1.2763972 0.12593393 60
0.15717676 1.2622573 0.16875002 14
0.16254818 1.2590178 0.010890301 100
0.16674119 1.2537256 0.032343622 90
0.15777728 1.2650394 0.055256739 99
0.16044655 1.2616704 0.077021427 29
0.17216697 1.2468776 0.096363634 25
0.16229361 1.2593391 0.12135452 100
0.18331274 1.2328101 0.13632034 38
0.14929983 1.2757391 0.17289113 28
0.15798882 1.2681574 0.011064826 100
0.17205274 1.2502853 0.032029606 100
0.1532605 1.274166 0.056128297 100
0.1731275 1.2489195 0.074827775 30
0.17863679 1.2419184 0.095112152 25
0.16877481 1.2544508 0.11982805 100
0.1920802 1.2248349 0.13362093 46
0.15336847 1.2740288 0.17185585 43
0.16597158 1.2617109 0.010890301 100
0.18242115 1.2406487 0.031296901 94
0.15020555 1.2818977 0.056825545 100
0.16999787 1.2565556 0.075802729 30
0.18036896 1.2432764 0.095112152 25
0.17176139 1.2542975 0.11944643 100
0.19374964 1.2261437 0.13362093 38
0.14689481 1.2861369 0.17547931 42
0.165153 1.2661418 0.010960111 90
0.16439775 1.2671154 0.032971654 58
0.16411677 1.2674776 0.055082429 75
0.17039678 1.2593815 0.076046467 29
0.18436188 1.2413778 0.094486415 26
0.17577606 1.2524467 0.1186832 58
0.18809786 1.2365614 0.13632034 30
0.14742455 1.2889972 0.17599694 41
0.17307317 1.2596262 0.010785587 52
0.17840576 1.2526991 0.031924933 61
0.17323494 1.2594161 0.054036561 51
0.1782476 1.2529047 0.074827775 45
0.17886207 1.2521064 0.096363634 37
0.17754683 1.2538149 0.1186832 13
0.18505535 1.2440615 0.13811995 22
0.14815101 1.2920001 0.1765146 55
0.17955717 1.2545191 0.010645968 53
0.18607393 1.2459955 0.031401575 31
0.16638905 1.2717423 0.055256739 49
0.1774396 1.2572887 0.075315252 45
0.17926303 1.2549038 0.096676499 50
0.19584733 1.2332125 0.11334054 13
0.1937311 1.2359804 0.13542053 30
0.16983137 1.2672399 0.16771474 67
0.18133551 1.2558736 0.010645968 40
0.1516031 1.2950587 0.03454173 27
0.17063925 1.2699705 0.054908119 50
0.18042803 1.2570696 0.075071514 90
0.18701297 1.2483912 0.095112152 51
0.19280064 1.2407634 0.11486702 13
0.20722073 1.2217587 0.13092151 40
0.1716564 1.26863 0.16771474 67
0.17572808 1.2666756 0.010855397 52
0.17017418 1.2740459 0.033076324 29
0.16270691 1.2839553 0.056302611 48
0.17487729 1.2678046 0.076533951 100
0.19216779 1.2448593 0.094173551 52
0.19554523 1.2403774 0.1144854 13
0.21106628 1.2197802 0.13002171 40
0.1744746 1.268339 0.16719711 67
0.177551 1.268044 0.010855397 39
0.18398541 1.2594399 0.032029606 30
0.18607101 1.2566509 0.053165004 52
0.19097042 1.2500994 0.073609084 62
0.2033748 1.233512 0.091670595 67
0.19256857 1.2479624 0.11601187 13
0.21271709 1.2210195 0.13002171 32
0.17746058 1.268165 0.16667947 67
0.18516597 1.2612494 0.010680873 93
0.19990024 1.2414098 0.030773543 32
0.18531099 1.2610542 0.053513627 52
0.18783021 1.2576621 0.074584037 61
0.20962486 1.2283156 0.090419121 82
0.20937255 1.2286552 0.11105084 14
0.20724323 1.2315223 0.13272113 31
0.18832916 1.2569902 0.16253836 70
0.19645995 1.2497053 0.010401634 83
0.19570574 1.2507286 0.031296901 62
0.18356711 1.2671992 0.054036561 77
0.206108 1.2366142 0.071171694 81
0.20193136 1.2422814 0.092922069 79
0.21455017 1.2251594 0.10990598 14
0.21703014 1.2217944 0.12957181 32
0.18782425 1.2614228 0.16357364 69
0.19569057 1.2541025 0.010471444 82
0.2031998 1.2438424 0.030773543 64
0.18286449 1.2716271 0.054385185 76
0.2006228 1.2473634 0.072634131 63
0.19649941 1.2529973 0.094799288 100
0.20794481 1.2373592 0.1125773 13
0.23234141 1.2040254 0.12417299 16
0.18603295 1.2672979 0.16512655 68
0.19268101 1.2618074 0.010611063 94
0.21424761 1.2321235 0.029936166 66
0.17290676 1.2890244 0.056128297 72
0.20112443 1.250186 0.072877869 63
0.20863742 1.2398453 0.091983467 93
0.21073225 1.236962 0.11219569 14
0.23385838 1.2051316 0.12417299 16
0.18663555 1.2701283 0.16564418 76
0.19431385 1.2629896 0.010611063 94
0.21110755 1.2397132 0.030354854 65
0.19211614 1.2660357 0.053513627 100
0.19342688 1.264219 0.074827775 100
0.21713209 1.2313629 0.090106249 100
0.19964695 1.2555978 0.11639348 13
0.23302266 1.2093383 0.12507279 16
0.19733864 1.2587972 0.16150309 70
0.20776385 1.2480304 0.010262015 84
0.2198073 1.2312083 0.029726824 100
0.19393662 1.2673441 0.053513627 100
0.19061843 1.2719789 0.075802729 100
0.21767542 1.2341861 0.090419121 100
0.21628621 1.2361264 0.11143246 21
0.23576945 1.2089126 0.12462288 16
0.20475543 1.2522326 0.15891489 73
0.2023989 1.2589415 0.010471444 96
0.21208048 1.2453232 0.030564198 64
0.19558781 1.268522 0.053513627 100
0.20723772 1.2521352 0.072634131 78
0.21120447 1.2465554 0.092609204 93
0.2098709 1.2484313 0.11410378 20
0.22706434 1.2242467 0.128672 16
0.19852093 1.2643963 0.16253836 70
0.20649868 1.2569442 0.010401634 97
0.21612746 1.2432945 0.030354854 65
0.19741738 1.2698177 0.053513627 100
0.21358424 1.2468997 0.071659178 80
0.20953739 1.2526364 0.093547814 100
0.20483661 1.2593002 0.11639348 53
0.23210135 1.2206501 0.1273223 24
0.20033535 1.2656813 0.16253836 70
0.20811534 1.2580806 0.010401634 83
0.21655291 1.2460349 0.030459527 97
0.19907677 1.2709842 0.053513627 100
0.21288976 1.2512646 0.072146654 79
0.22020623 1.2408193 0.091044858 100
0.20420837 1.2636583 0.11715672 99
0.23471555 1.2201056 0.12687239 57
0.19422263 1.277914 0.16616182 76
0.20525497 1.2658384 0.010541254 95
0.22505751 1.2373569 0.029831495 99
0.20310241 1.2689344 0.053165004 100
0.21683815 1.2491786 0.071659178 96
0.22523469 1.237102 0.090106249 96
0.21265811 1.2551906 0.11486702 87
0.22961393 1.2308035 0.12957181 80
0.20261461 1.2696359 0.163056 70
0.21598983 1.2538139 0.010262015 98
0.223205 1.2433627 0.030145511 65
0.20702273 1.2668028 0.05281638 100
0.21955681 1.2486472 0.071415432 48
0.22678545 1.2381765 0.090106249 100
0.22096121 1.2466128 0.1125773 82
0.22671521 1.2382782 0.13137141 94
0.21195617 1.2596567 0.15943253 73
0.21994138 1.2516778 0.010192205 99
0.21582767 1.2576811 0.030982886 95
0.20650655 1.2712841 0.053165004 100
0.22010753 1.2514353 0.071659178 64
0.22507188 1.2441905 0.091044858 100
0.22151718 1.249378 0.11295892 100
0.22725025 1.2410114 0.13182132 94
0.21366745 1.2608336 0.15943253 73
0.21825105 1.2577875 0.010296919 70
0.21640882 1.2604961 0.031087559 63
0.20041522 1.2840123 0.054385185 76
0.23072094 1.2394524 0.069709264 83
0.2211746 1.2534888 0.092609204 93
0.22871292 1.2424048 0.11105084 91
0.23437592 1.2340782 0.12957181 96
0.21103716 1.2683944 0.16150309 70
0.21324298 1.268887 0.010506349 40
0.23264959 1.2401372 0.029726824 33
0.20889983 1.2753212 0.053339314 52
0.23014033 1.2438545 0.07019674 82
0.23391619 1.2382609 0.089480512 100
0.22487184 1.2516596 0.11295892 100
0.23708805 1.2335619 0.1291219 100
0.21277896 1.2695745 0.16150309 70
0.21943849 1.2634143 0.010366729 41
0.22539946 1.2545166 0.030564198 32
0.21177474 1.2748536 0.053165004 52
0.23069146 1.2466174 0.070440479 49
0.24104998 1.2311558 0.087916173 100
0.23201871 1.2446363 0.11105084 91
0.23653883 1.2378893 0.13002171 100
0.21775058 1.2659338 0.15995017 72
0.21894845 1.2678955 0.010436539 41
0.22488102 1.258973 0.030773543 32
0.22567371 1.2577808 0.051247578 55
0.231258 1.2493821 0.070684217 81
0.23609921 1.2421011 0.089793384 100
0.23367745 1.2457433 0.11105084 91
0.24033195 1.2357352 0.1291219 96
0.22376224 1.2606556 0.15787962 73
0.22509396 1.2623718 0.010296919 28
0.18698859 1.3201177 0.03454173 27
0.22847572 1.257247 0.051073264 55
0.23183995 1.2521487 0.070927955 97
0.24536493 1.2316526 0.087603301 99
0.23966524 1.24029 0.10952436 92
0.23659298 1.2449459 0.13137141 94
0.22654095 1.260179 0.15736198 74
0.22892016 1.2601011 0.01022711 28
0.21727186 1.2778814 0.03182026 30
0.22790959 1.2616436 0.051421888 55
0.23670408 1.2482197 0.07019674 82
0.24040246 1.2425745 0.089480512 97
0.24445409 1.2363899 0.10837951 87
0.2488488 1.2296817 0.12687239 82
0.2218163 1.2709446 0.1604678 72
0.22409296 1.271278 0.010436539 41
0.23428798 1.255597 0.030354854 32
0.22636968 1.2677763 0.051944822 54
0.23512918 1.2543032 0.070927955 97
0.24528414 1.2386838 0.08854191 84
0.24073333 1.2456834 0.1102876 92
0.25045523 1.2307302 0.12687239 90
0.21619585 1.2834246 0.16409127 69
0.23685557 1.2557188 0.010087491 43
0.25130603 1.2333047 0.028889447 34
0.22720382 1.2706897 0.052119136 54
0.22731042 1.2705244 0.073121607 93
0.25350821 1.2298889 0.086664692 86
0.2393707 1.2518176 0.11143246 84
0.25328246 1.2302392 0.12642249 99
0.2307311 1.2652185 0.15787962 73
0.24717432 1.2433333 0.0098082526 59
0.24754328 1.2427566 0.029412808 67
0.22895351 1.2718134 0.052119136 81
0.23868775 1.2565982 0.070927955 48
0.25085706 1.237577 0.087916173 56
0.25480887 1.2314 0.10647142 81
0.24858952 1.2411213 0.1291219 96
0.23662612 1.2598207 0.15580906 75
0.23686671 1.2628485 0.010192205 85
0.24581677 1.2487618 0.029726824 67
0.23480541 1.2660929 0.051421888 82
0.24873433 1.2441698 0.068978049 50
0.24809015 1.2451837 0.089167647 70
0.24573153 1.2488959 0.1102876 99
0.25425127 1.2354865 0.1273223 81
0.22677058 1.2787391 0.16150309 63
0.24285489 1.2571722 0.010052586 86
0.25707641 1.2346151 0.028784776 100
0.23866418 1.2638193 0.051073264 83
0.24403918 1.2552938 0.070440479 49
0.24764365 1.2495767 0.089793384 83
0.25578138 1.2366692 0.10723466 88
0.25899583 1.2315706 0.12597258 99
0.23060897 1.2765958 0.1604678 64
0.24260783 1.2617393 0.010122396 85
0.25039309 1.2492851 0.029622151 100
0.23845038 1.2683899 0.051421888 82
0.24695706 1.2547817 0.07019674 33
0.25576982 1.2406839 0.087916173 70
0.2461282 1.2561077 0.11143246 91
0.26077026 1.2326846 0.12597258 90
0.23255649 1.2778186 0.1604678 64
0.24432617 1.2628093 0.010122396 85
0.25522622 1.2452362 0.029308135 100
0.24649319 1.2593157 0.05037602 84
0.25388286 1.247402 0.068978049 50
0.26470321 1.2299573 0.08572609 58
0.25196624 1.250492 0.10990598 85
0.26135993 1.2353474 0.12642249 90
0.2394225 1.2707151 0.15787962 73
0.2512041 1.2553061 0.0099478718 73
0.25575668 1.2479118 0.029412808 100
0.25020662 1.2569263 0.050027397 85
0.24922311 1.2585237 0.070440479 49
0.26726571 1.2292187 0.085413218 58
0.25356126 1.2514776 0.10990598 78
0.26494804 1.2329831 0.12552269 99
0.24513596 1.265162 0.15580906 67
0.25602734 1.2512267 0.0098431576 88
0.25326192 1.2557536 0.029831495 99
0.24671492 1.2664709 0.050898954 83
0.25817412 1.2477125 0.068734311 50
0.26063219 1.2436887 0.087916173 70
0.25626719 1.2508341 0.10952436 85
0.26859766 1.2306494 0.12462288 83
0.24686626 1.2662232 0.15580906 67
0.25969833 1.2487791 0.0097733475 89
0.26005203 1.2481958 0.029308135 100
0.24629691 1.2708813 0.051247578 82
0.25564298 1.2554674 0.069709264 66
0.26732549 1.2362001 0.086351827 58
0.25786331 1.2518055 0.10952436 71
0.27012679 1.23158 0.12462288 92
0.24851346 1.2672257 0.15580906 67
0.2572481 1.2566437 0.0099129668 87
0.25760478 1.2560507 0.029726824 100
0.25010127 1.2685238 0.050898954 83
0.26040924 1.2513888 0.068978049 50
0.26997283 1.2354913 0.086038955 72
0.25448674 1.2612338 0.11143246 77
0.27475336 1.2275445 0.12327318 76
0.24328005 1.2798629 0.15943253 73
0.25177479 1.2696824 0.0101573 71
0.26851541 1.2416332 0.028784776 100
0.24878001 1.2747002 0.051421888 82
0.25598732 1.2626243 0.070440479 49
0.27362415 1.2330734 0.085413218 58
0.25922173 1.2572049 0.1102876 85
0.27735087 1.2268292 0.12282328 85
0.24803185 1.2759538 0.15787962 65
0.26269028 1.2552342 0.0098431576 88
0.26609308 1.2494872 0.029203463 100
0.26069465 1.2586045 0.049678773 86
0.26377702 1.2533988 0.068978049 50
0.27423581 1.2357351 0.08572609 58
0.27092677 1.2413236 0.10647142 73
0.27696145 1.2311318 0.12372308 75
0.25964242 1.2603817 0.15270324 68
0.26843706 1.2493372 0.0097035384 90
0.26068744 1.2625303 0.029936166 100
0.25735638 1.2682011 0.05055033 84
0.2694878 1.2475483 0.068003096 51
0.27486271 1.2383981 0.086038955 58
0.26859629 1.2490661 0.10799789 79
0.27462471 1.2388033 0.12552269 90
0.26135594 1.2613922 0.15270324 68
0.26608482 1.2572281 0.0098431576 88
0.27346969 1.244555 0.028784776 100
0.25608787 1.274384 0.051073264 83
0.27415478 1.2433792 0.067271881 51
0.27649939 1.2393556 0.086038955 72
0.26631647 1.2568306 0.10952436 78
0.27822509 1.2363942 0.12462288 92
0.26112771 1.265735 0.15373851 68
0.26878804 1.256485 0.0098082526 89
0.27312881 1.2489756 0.028994121 100
0.25785029 1.2754068 0.051073264 83
0.27282855 1.249495 0.068003096 51
0.27912802 1.2385973 0.08572609 58
0.26900005 1.2561182 0.10914274 85
0.28765678 1.2238429 0.12102367 86
0.26478502 1.26341 -0.0099478718 86
0.2570591 1.2767756 0.15684435 66
0.2675038 1.2626679 0.0099129668 87
0.27877641 1.2430086 0.028575432 100
0.26853591 1.2608678 0.049504463 100
0.2725291 1.2539039 0.068490572 50
0.28862622 1.2258307 0.083223134 60
0.26972207 1.2587992 0.10952436 85
0.28730389 1.2281369 0.12192347 85
0.2645956 1.2677397 0.15373851 68
0.2791948 1.2463162 0.0095639192 91
0.27656335 1.2509446 0.028994121 100
0.27033693 1.2618961 0.049504463 86
0.27332342 1.2566433 0.068734311 50
0.28151181 1.2422408 0.086038955 58
0.27733746 1.249583 0.10723466 81
0.28898481 1.2290967 0.12192347 76
0.27024105 1.2620648 0.15166797 69
0.27791232 1.252484 0.0096686333 75
0.27431953 1.2588549 0.029412808 100
0.27401301 1.2593985 0.049155839 87
0.27794909 1.2524188 0.068003096 51
0.28316188 1.2431751 0.086038955 58
0.27708444 1.253952 0.10799789 87
0.28580275 1.2384921 0.12417299 92
0.27006251 1.2664038 0.15270324 68
0.28155053 1.2499404 0.0095988233 76
0.28577754 1.2423831 0.028366089 100
0.26210642 1.2847029 0.051596198 82
0.28157282 1.2499005 0.067515619 51
0.28963673 1.2354836 0.084474608 59
0.28260899 1.2480479 0.10647142 73
0.29409885 1.2275062 0.12102367 86
0.271797 1.2673779 0.15270324 68
0.28128728 1.2543718 0.0096686333 75
0.28742808 1.2433026 0.028366089 100
0.27260366 1.2700245 0.050027397 85
0.28324962 1.2508345 0.067515619 51
0.28838831 1.2415717 0.085413218 58
0.28332692 1.2506952 0.10685304 95
0.29475203 1.2301006 0.12147357 94
0.2754668 1.2648635 -0.0098780617 87
0.27166051 1.2717246 0.15373851 68
0.27895197 1.2622203 0.0098082526 74
0.28313586 1.2546223 0.028994121 100
0.27417591 1.2708936 0.050027397 85
0.28284642 1.2551479 0.068003096 51
0.28987107 1.2423912 0.085413218 58
0.28294435 1.2549701 0.10761628 72
0.29525873 1.2326074 0.12192347 76
0.27991655 1.2604685 -0.0097733475 88
0.27882925 1.2624431 0.15063268 70
0.28546411 1.2543882 0.0096337283 90
0.29248747 1.2415278 0.028156744 100
0.28261077 1.2596129 0.048807215 88
0.28073567 1.2630464 0.068978049 50
0.29436204 1.2380953 0.084474608 59
0.28652084 1.2524532 0.10685304 81
0.29874319 1.2300731 0.12102367 77
0.28163028 1.2614083 -0.0097733475 88
0.28147581 1.2616911 0.15011504 78
0.29390544 1.2430449 0.0093893949 77
0.28280708 1.2635452 0.029412808 100
0.28345853 1.2623417 0.048981529 87
0.29010516 1.2500645 0.067028143 51
0.29796031 1.2355549 0.083848871 59
0.28922558 1.2516892 0.10647142 73
0.29579228 1.2395595 0.12327318 76
0.27772102 1.2729399 -0.0099827768 86
0.27868113 1.2711663 0.15270324 68
0.29461235 1.2456977 0.0094242999 93
0.27952421 1.2738016 0.050027397 85
0.2917825 1.2509687 0.067028143 51
0.28837439 1.2573168 0.087603301 57
0.29276586 1.2491372 0.10570818 81
0.28043216 1.2721105 0.15270324 68
0.286024 1.2660489 0.0098082526 74
0.27950057 1.2783072 0.05037602 84
0.29634473 1.2466547 0.06629692 35
0.29851419 1.242578 0.084787481 59
0.29360142 1.2518098 0.1060898 73
0.29072109 1.2572224 -0.0096337283 89
0.27682903 1.2833276 0.15580906 67
0.29335663 1.2563559 0.0095988233 76
0.29366931 1.2557633 0.028784776 100
0.29243463 1.2581031 0.048284281 88
0.29337797 1.2563155 0.067515619 51
0.29253608 1.2579108 0.10723466 81
0.2868239 1.2687359 -0.0098431576 87
0.29485109 1.2535238 0.14649157 72
0.29859659 1.2500738 0.009459204 77
0.29797632 1.2512581 0.02847076 100
0.28938153 1.2676706 0.068978049 50
0.29581353 1.2553883 -0.0095639192 90
0.29457897 1.2577457 0.14752686 71
0.29843089 1.2544979 0.0095290141 76
0.29873741 1.2539076 0.028575432 100
0.29200497 1.2668736 0.048981529 87
0.29272214 1.2654924 0.14959741 78
0.29656276 1.262501 0.048458595 59
0.29839927 1.2589322 0.067515619 51
0.29453993 1.266432 0.14959741 70
0.29917797 1.2616293 -0.0096337283 100
0.29627436 1.2673208 0.14959741 70
0.29900393 1.266027 0.0097035384 100
0.29992095 1.2642148 0.048458595 59
0.29629534 1.2713798 -0.0098082526 100
0.29899687 1.2703688 0.068734311 67
0.29984027 1.2686875 -0.0097384425 100
0.29991317 1.2775725 0.049504463 28
