# .PCD v0.7 - Point Cloud Data file format
VERSION 0.7
FIELDS x y z intensity
SIZE 4 4 4 4
TYPE F F F F
COUNT 1 1 1 1
WIDTH 727
HEIGHT 1
VIEWPOINT 0 0 0 1 0 0 0
POINTS 727
DATA ascii
-1.1722412 0.16516505 0.020663649 25
-1.098429 0.15867744 0.019372171 4
-1.0444856 0.15442248 0.018429741 6
-1.0103284 0.15297818 0.01783636 4
-1.053291 0.16305806 0.018604266 1
0.055723011 0.0074240565 0.047625721 54
0.048695445 0.0024653077 0.04804441 34
0.047117293 0.0058882236 0.047939736 100
0.04003787 0.00099015236 0.048358422 100
0.042772293 0.011166751 0.047835063 75
0.040126562 0.012941957 0.047835063 37
0.035376489 0.011331141 0.04804441 27
0.036112189 0.018078983 0.047730394 19
0.021031022 0.0017823577 0.048881784 7
0.029736936 0.02004385 0.047835063 9
0.01568079 0.0054939389 0.048881784 7
0.010715663 0.0040975809 0.049091127 7
-1.0622668 1.1380739 0.02886628 3
-1.0252535 1.129624 0.084679574 5
-1.0330672 1.1314079 0.14206386 6
-1.0239608 1.135114 0.028203089 8
-1.0064783 1.1310586 0.08373753 15
-1.0085058 1.1315289 0.13997212 21
-0.99153453 1.1332672 0.027644612 21
-1.0052085 1.1364895 0.08373753 78
-1.0169308 1.1392518 0.14084367 68
-0.98442274 1.1372495 0.027539898 37
-1.0000348 1.1409862 0.083528183 100
-1.0233829 1.1465743 0.14154093 100
-0.98896092 1.1440202 0.027644612 43
-0.97350055 1.1402628 0.082167454 100
-1.0085065 1.1487705 0.14032075 91
-0.98965365 1.1496001 0.027679516 26
-0.98389953 1.1481814 0.082795486 99
-0.9937008 1.150598 0.13910057 92
-0.97474021 1.151574 0.027435184 23
-0.98256999 1.1535335 0.082795486 60
-0.99043006 1.1555005 0.13892625 85
-0.9637081 1.1544329 0.027260659 38
-0.99283677 1.1618307 0.083423518 33
-0.99679941 1.162837 0.13962349 71
-0.96622986 1.1607124 0.027330469 59
-0.98759145 1.166217 0.083214171 48
-0.98191315 1.1647537 0.13840333 89
-0.96485668 1.1660026 0.027330469 67
-0.96687573 1.1665304 0.082167454 100
-0.98630875 1.1716104 0.13892625 89
-0.96346515 1.171288 0.027330469 75
-0.95389909 1.1687516 0.081539422 90
-0.9752683 1.1744175 0.1380547 99
-0.95239967 1.1739724 0.027155945 81
-0.95442671 1.1745174 0.081644088 98
-0.96037894 1.1761178 0.13683452 100
-0.94712192 1.1781622 0.027086135 92
-0.95493251 1.1802917 0.081748761 100
-0.96087438 1.1819116 0.13700883 100
-0.94576007 1.1831247 0.027086135 92
-0.94201261 1.1820896 0.081120729 100
-0.97294348 1.1906326 0.13822901 94
-0.94430894 1.1883433 0.027086135 93
-0.94056505 1.1872952 0.081120729 94
-0.96379143 1.1937976 0.13753176 94
-0.95046026 1.196002 0.027225753 81
-0.93518287 1.1916646 0.08091139 84
-0.95264477 1.1966223 0.1366602 100
-0.95672673 1.2031856 0.027365373 55
-0.93377644 1.1965873 0.08091139 50
-0.94547731 1.1999513 0.13613728 100
-0.94368595 1.2050869 0.027155945 44
-0.93803102 1.2034397 0.081225403 22
-0.94779319 1.2062833 0.13648589 85
-0.93072671 1.2066442 0.026946515 66
-0.92317563 1.2044175 0.080492698 26
-0.95589334 1.2140654 0.13735744 80
-0.92336851 1.2103505 0.026841801 75
-0.91391903 1.2075262 0.080074012 26
-0.94089299 1.2155881 0.13613728 87
-0.92764229 1.2169709 0.026946515 78
-0.91628355 1.213535 0.080283359 70
-0.93368596 1.218799 0.13561434 99
-0.91069895 1.2176957 0.026667276 81
-0.91655761 1.2194915 0.080388032 100
-0.92060155 1.2207309 0.13456847 100
-0.90920621 1.2225372 0.026667276 92
-0.92459708 1.2273103 0.08091139 90
-0.9152928 1.2244248 0.13421984 80
-0.90769762 1.2273736 0.026667276 85
-0.90211028 1.2256205 0.07976 76
-0.91757983 1.2304742 0.13456847 54
-0.90998477 1.2334149 0.026737086 77
-0.89868778 1.2298291 0.079655327 72
-0.9198429 1.236544 0.1349171 42
-0.9082765 1.2387629 0.026737086 81
-0.90269691 1.2369694 0.079969339 84
-0.90674227 1.2382697 0.13387123 43
-0.88769692 1.2374134 0.026388038 93
-0.90114039 1.2417841 0.079969339 100
-0.90518135 1.2430979 0.13387123 57
-0.885809 1.243181 0.026388038 100
-0.9068225 1.2501061 0.080388032 100
-0.90516275 1.2495592 0.13404553 78
-0.87664348 1.2454109 0.02624842 99
-0.89006382 1.2498831 0.079550654 100
-0.91301554 1.2575314 0.1349171 80
-0.878681 1.2519149 0.02631823 96
-0.87694031 1.2513278 0.078922622 100
-0.90177935 1.2597063 0.13404553 73
-0.88843101 1.2605225 0.026527658 93
-0.88478822 1.2592802 0.07944598 100
-0.9001475 1.2645179 0.13404553 87
-0.87545341 1.2613796 0.02631823 96
-0.87938136 1.2627337 0.079236634 100
-0.88343078 1.2641295 0.13265105 100
-0.86626273 1.2634721 0.02617861 81
-0.87585348 1.2668138 0.079131968 100
-0.90059882 1.2754358 0.13439415 66
-0.86427039 1.2691532 0.02617861 79
-0.85124689 1.2645568 0.077875905 63
-0.89855808 1.2812548 0.13439415 36
-0.86449081 1.2745122 0.026213514 88
-0.85336155 1.2705426 0.078085244 27
-0.89497823 1.2853863 0.13421984 36
-0.86845368 1.2812341 0.02631823 96
-0.85733086 1.2772253 0.078399263 31
-0.87076885 1.2820685 0.1321281 30
-0.85171872 1.280461 0.026038991 93
-0.8631478 1.2846231 0.078817949 74
-0.86531872 1.2854136 0.13177948 16
-0.84224302 1.2830734 0.025899371 100
-0.8630355 1.290736 0.078922622 100
-0.86893767 1.2929111 0.13230242 13
-0.84428209 1.289083 0.025969181 100
-0.84071165 1.2877536 0.077771232 95
-0.9064067 1.3122115 0.13596296 1
-0.83862728 1.2927806 0.025899371 100
-0.82758945 1.2886252 0.0771432 44
-0.88949269 1.3119301 0.13456847 1
-0.83679396 1.2976246 0.025899371 88
-0.8407045 1.2991126 0.077980578 53
-0.83917588 1.2985308 0.13003637 7
-0.82934421 1.3003094 0.025794657 72
-0.84444171 1.306114 0.07829459 59
-0.85777897 1.3112416 0.13195379 46
-0.82002872 1.3022246 0.025655037 74
-0.84442359 1.3117013 0.078399263 63
-0.85402399 1.3154309 0.13177948 100
-0.82570261 1.3096859 0.025794657 88
-0.82960445 1.3112166 0.077666558 57
-0.84664315 1.3179009 0.13125655 100
-0.81823331 1.3122745 0.025689943 100
-0.82770687 1.3160291 0.077666558 76
-0.84101766 1.3213046 0.13090792 100
-0.82375783 1.3200202 0.025829561 100
-0.82022995 1.3186078 0.077352546 95
-0.82613724 1.3209729 0.12968774 97
-0.80699891 1.3188143 0.025550323 100
-0.82756442 1.3271315 0.077875905 97
-0.82605273 1.3265202 0.12986206 100
-0.80146891 1.3217994 0.025480513 100
-0.82755834 1.3324516 0.077980578 100
-0.82235509 1.3303272 0.12968774 100
-0.797113 1.3200209 0.17866045 22
-0.7995345 1.3265135 0.025480513 100
-0.80527598 1.3288813 0.07682918 100
-0.81302315 1.3320758 0.1289905 100
-0.77499789 1.3163953 0.17597933 16
-0.8049677 1.3342961 0.025620133 100
-0.79778558 1.331305 0.076515168 100
-0.82208842 1.3414263 0.13003637 100
-0.77491504 1.3217802 0.17622307 18
-0.79930311 1.337472 0.025550323 100
-0.7976591 1.3367805 0.076619841 99
-0.80906588 1.3415778 0.1289905 100
-0.80408841 1.3394845 0.18036664 26
-0.79731399 1.3421783 0.025550323 99
-0.79567248 1.3414812 0.076619841 81
-0.80156082 1.343982 0.12846756 100
-0.78382069 1.3364481 0.17792924 18
-0.80633563 1.3516064 0.025759751 61
-0.81386119 1.3548334 0.077771232 40
-0.80870479 1.3526223 0.12933913 43
-0.76723987 1.3348418 0.17597933 9
-0.80613226 1.3571318 0.025794657 83
-0.80997866 1.3587971 0.077666558 78
-0.82128984 1.3636942 0.13073361 39
-0.78529876 1.3481121 0.17866045 10
-0.80407459 1.3618621 0.025794657 100
-0.80791503 1.3635406 0.077666558 100
-0.81738347 1.3676794 0.1305593 97
-0.79418617 1.3575399 0.18012288 28
-0.80200034 1.366585 0.025794657 100
-0.80766219 1.3690834 0.077771232 100
-0.8189345 1.3740575 0.13090792 100
-0.78667873 1.3598242 0.17939167 33
-0.79077619 1.3672324 0.025620133 100
-0.81103605 1.3762569 0.078085244 100
-0.8022576 1.3723466 0.12951343 100
-0.77191836 1.3588324 0.1776855 26
-0.78696448 1.3708556 0.025585229 100
-0.8163051 1.3840418 0.078503937 100
-0.80388731 1.3784611 0.12986206 100
-0.75909466 1.3583305 0.17622307 22
-0.79396433 1.3796493 0.025759751 100
-0.80324012 1.383857 0.077875905 100
-0.80538398 1.3848295 0.13021068 100
-0.77330309 1.3702769 0.17841671 17
-0.79364628 1.3851693 0.025794657 100
-0.80653709 1.3910711 0.078189917 100
-0.81047589 1.3928745 0.13090792 100
-0.77300459 1.3757188 0.17866045 15
-0.80601293 1.3965659 0.026073895 100
-0.80798703 1.3974781 0.078399263 100
-0.80105871 1.3942767 0.13021068 100
-0.7690801 1.3795006 0.17841671 10
-0.79475588 1.3970699 0.025899371 100
-0.80940872 1.4039026 0.07860861 100
-0.79887134 1.398989 0.13021068 100
-0.77773923 1.3891349 0.17987914 8
-0.78351194 1.3975031 0.025724847 100
-0.81260926 1.4111953 0.078922622 100
-0.80027312 1.4053903 0.1305593 100
-0.7773661 1.3946111 0.18012288 5
-0.797571 1.4098737 0.026038991 100
-0.80675429 1.4142343 0.078713275 100
-0.81604487 1.4186459 0.13230242 100
-0.79352576 1.4137096 0.026004085 100
-0.79549128 1.4146514 0.078189917 100
-0.81377238 1.4234102 0.13230242 100
-0.80027241 1.4227471 0.02617861 100
-0.80402189 1.4245597 0.078817949 100
-0.80430812 1.4246981 0.13160518 100
-0.79079646 1.4239502 0.026038991 100
-0.80531901 1.4310333 0.079027295 100
-0.80201453 1.4294215 0.13160518 100
-0.7851463 1.4263947 0.025969181 100
-0.80682033 1.4370501 0.079236634 100
-0.80351216 1.4354239 0.13195379 100
-0.79001278 1.4346051 0.0261088 100
-0.79732651 1.4382327 0.078817949 100
-0.81189066 1.445456 0.13299966 100
-0.79841477 1.4446472 0.02631823 100
-0.79677194 1.4438252 0.078922622 100
-0.81308824 1.4519887 0.13334829 100
-0.80319244 1.4529539 0.026457848 100
-0.8033269 1.4530218 0.07944598 100
-0.80180591 1.4522541 0.13247673 100
-0.79010791 1.45223 0.02624842 100
-0.8044942 1.4595537 0.079655327 100
-0.79941612 1.4569687 0.13247673 100
-0.78416055 1.4550767 0.02617861 100
-0.8020789 1.4642777 0.079655327 100
-0.80764431 1.4671354 0.1335226 100
-0.79229385 1.4654818 0.026388038 100
-0.7995252 1.4692286 0.079655327 100
-0.80508 1.4721067 0.1335226 100
-0.79340249 1.4720154 0.026457848 100
-0.79353601 1.472085 0.07944598 100
-0.82027918 1.4860601 0.13526571 100
-0.79472917 1.4780958 0.026527658 93
-0.7913236 1.4763024 0.07944598 100
-0.80920821 1.4857199 0.13439415 99
-0.79224926 1.4827853 0.026527658 38
-0.81001765 1.492221 0.080702044 30
-0.789105 1.4811156 0.13265105 75
0.10835293 1.3167531 0.13661924 5
0.15831679 1.2582017 0.010925206 13
0.13754639 1.2840903 0.03454173 27
0.16099465 1.254864 0.054385185 25
0.16184399 1.2538054 0.098240845 12
0.14825442 1.2707436 0.12478908 18
0.20732138 1.1971214 0.12642249 8
0.12083045 1.3049254 0.18376152 6
0.15503961 1.2658224 0.011064826 38
0.16796494 1.2495962 0.032134276 60
0.14903432 1.2733612 0.056302611 48
0.15668702 1.2637542 0.077508904 14
0.15368891 1.267518 0.10074379 11
0.15122804 1.2706072 0.12440746 78
0.19545838 1.2150817 0.13137141 15
0.13834789 1.2867767 0.17703223 13
0.15429181 1.270335 0.011134636 100
0.17211926 1.2477938 0.031924933 91
0.15820941 1.2653815 0.055256739 99
0.15595013 1.2682381 0.077996381 14
0.17993554 1.2379109 0.094486415 26
0.1566315 1.2673767 0.12326261 100
0.18613446 1.230073 0.13542053 45
0.14854297 1.2776039 0.17340876 42
0.16592059 1.259131 0.010855397 100
0.17008895 1.2538226 0.032238949 100
0.16363242 1.262045 0.054733805 100
0.16382152 1.2618041 0.076777689 29
0.17913118 1.2423071 0.095112152 25
0.16443244 1.2610261 0.12135452 100
0.18292859 1.2374711 0.13722014 45
0.15986192 1.2668468 0.16926765 44
0.16262567 1.2667093 0.010995016 100
0.17783678 1.247205 0.031715591 92
0.16036516 1.2696079 0.055431053 99
0.16545454 1.263082 0.076777689 29
0.16612181 1.2622265 0.098866582 24
0.17813635 1.2468209 0.11753834 100
0.18448079 1.2386857 0.13722014 30
0.15081933 1.281848 0.1739264 35
0.16803461 1.2633152 0.010890301 78
0.18928683 1.2358675 0.030878214 63
0.16333127 1.2693896 0.055256739 74
0.18054643 1.2471559 0.07409656 30
0.17026106 1.2604396 0.098240845 24
0.17980304 1.248116 0.11753834 33
0.1873121 1.2384179 0.13677025 30
0.1478776 1.2893482 0.17599694 27
0.16618994 1.2694687 0.010995016 64
0.17274234 1.2609417 0.032448292 29
0.16395023 1.2723832 0.055431053 49
0.18350732 1.2469327 0.073852822 46
0.18891194 1.2398995 0.093860678 52
0.18155789 1.2494696 0.11753834 13
0.19496834 1.232018 0.13452072 23
0.14860672 1.2923505 0.1765146 55
0.17521316 1.2612662 0.010785587 65
0.16718981 1.2717831 0.033076324 29
0.17416552 1.2626394 0.054210871 51
0.18517438 1.2482091 0.073852822 46
0.19414884 1.2364455 0.092922069 53
0.19156939 1.2398267 0.11486702 13
0.20131123 1.2270571 0.13272113 39
0.16918054 1.2691736 0.16823238 60
0.18167481 1.2561308 0.010645968 40
0.16885588 1.2730498 0.033076324 29
0.17580125 1.263883 0.054210871 51
0.17357531 1.2668209 0.076533951 88
0.19450465 1.2391975 0.093234941 53
0.20261431 1.228494 0.11181407 14
0.19694456 1.2359772 0.13497064 45
0.17667121 1.2627348 0.16564418 68
0.18337396 1.2574136 0.010645968 40
0.17061418 1.2743771 0.033076324 29
0.18471345 1.2556328 0.053165004 52
0.19679078 1.2395765 0.072146654 31
0.1949572 1.2420142 0.093547814 52
0.20893747 1.223428 0.1102876 14
0.21145892 1.2200758 0.13002171 32
0.17723218 1.2655789 0.16616182 68
0.1851629 1.258754 0.010645968 66
0.19874942 1.2405529 0.030773543 32
0.18172857 1.2633548 0.053862248 51
0.1997017 1.2392771 0.071902916 48
0.19078138 1.2512273 0.095112152 51
0.20707849 1.2293948 0.11143246 14
0.20611656 1.2306834 0.13272113 31
0.17905107 1.2669418 0.16616182 68
0.18329942 1.2648445 0.010750682 92
0.20039409 1.2417761 0.030773543 32
0.17514929 1.2758427 0.055082429 50
0.19306865 1.2516614 0.073609084 62
0.20069614 1.2413685 0.092922069 79
0.19582635 1.2479401 0.11563025 13
0.21816897 1.2177898 0.128672 32
0.18308836 1.2651293 0.16512655 68
0.18257189 1.269279 0.010820492 78
0.21024713 1.2316725 0.03004084 66
0.18627617 1.2642454 0.053687938 78
0.19702107 1.2496448 0.073121607 78
0.20226115 1.2425243 0.092922069 100
0.20439515 1.2396245 0.11334054 13
0.21388048 1.2267354 0.13092151 24
0.18587732 1.2647874 0.16460891 69
0.1866762 1.2673291 0.010750682 92
0.20361346 1.2441448 0.030773543 64
0.19740611 1.2526417 0.052293446 80
0.19284245 1.2588885 0.074340299 46
0.20624325 1.240545 0.092296332 80
0.20256215 1.2455839 0.1144854 13
0.23272029 1.2043024 0.12417299 16
0.1910255 1.2613757 0.163056 70
0.19311032 1.2621191 0.010611063 94
0.19823533 1.2550521 0.031401575 62
0.19324455 1.2619339 0.053165004 100
0.20270902 1.2488832 0.072634131 63
0.21020725 1.2385439 0.091670595 94
0.21575022 1.2309006 0.11066922 14
0.22394165 1.2196054 0.12822211 16
0.18934044 1.2673173 0.16460891 69
0.19483033 1.2633618 0.010611063 94
0.2092658 1.2433096 0.030564198 97
0.18797958 1.2728782 0.054210871 100
0.20554253 1.2484816 0.072390392 47
0.20838252 1.2445366 0.092609204 93
0.21850812 1.2304713 0.1102876 14
0.23462144 1.2080884 0.12462288 8
0.19333598 1.2654376 0.16357364 69
0.19887993 1.2613447 0.010541254 95
0.2202099 1.2314962 0.029726824 100
0.18742037 1.2773807 0.054559495 100
0.20836899 1.2480659 0.072146654 63
0.21118954 1.244119 0.092296332 100
0.20527849 1.2523907 0.11524864 20
0.23615259 1.2091867 0.12462288 16
0.19394433 1.2682513 0.16409127 69
0.2005972 1.2625673 0.010541254 95
0.21835619 1.2375317 0.03004084 99
0.20302647 1.2591426 0.052467756 100
0.21233687 1.2460173 0.071659178 64
0.21741816 1.2388541 0.091044858 100
0.20810032 1.2519898 0.11486702 20
0.22528523 1.2277635 0.12957181 16
0.20239198 1.2600371 0.16098544 72
0.20223251 1.2637233 0.010541254 95
0.21760809 1.2418946 0.030250182 98
0.20006108 1.266806 0.053165004 100
0.20248586 1.2633636 0.07409656 61
0.21669969 1.2431843 0.091670595 100
0.20517829 1.2595412 0.11639348 59
0.23017165 1.2240583 0.12822211 32
0.20179397 1.2643459 0.16202073 70
0.21083307 1.255101 0.010331824 98
0.22040179 1.2414151 0.030145511 65
0.19723082 1.2745559 0.053862248 100
0.21558481 1.2483047 0.071659178 64
0.21722153 1.2459638 0.091983467 100
0.20801416 1.2591329 0.11601187 100
0.2239421 1.2363515 0.13137141 63
0.20573559 1.2623918 0.16098544 72
0.20796803 1.2628534 0.010471444 96
0.21863317 1.2474853 0.030459527 97
0.20353794 1.2692369 0.053165004 100
0.22178358 1.2429458 0.070684217 81
0.22113746 1.2438767 0.09135773 94
0.22315562 1.2409687 0.11143246 91
0.22557196 1.2374868 0.13137141 94
0.20745647 1.2635906 0.16098544 80
0.20742175 1.2673379 0.010541254 95
0.22709984 1.2387702 0.029831495 99
0.19850138 1.280288 0.054210871 100
0.21893212 1.2506278 0.071659178 80
0.22503474 1.2417682 0.090731993 100
0.22146049 1.2469572 0.1125773 82
0.23162761 1.232197 0.12957181 88
0.19931859 1.2791016 0.16564418 68
0.20690265 1.2718322 0.010611063 81
0.22761089 1.2415433 0.029936166 66
0.20928067 1.2683541 0.05281638 100
0.22285259 1.248503 0.071171694 65
0.23114306 1.236377 0.089480512 100
0.21980327 1.2529631 0.11372216 89
0.2332429 1.2333056 0.12957181 96
0.21527198 1.2595909 0.15891489 73
0.2210077 1.2548251 0.01022711 56
0.22253001 1.2525818 0.030564198 32
0.2076661 1.2744863 0.053339314 78
0.22675416 1.2463568 0.070684217 65
0.23166376 1.2391217 0.089793384 100
0.22259352 1.2524883 0.11334054 100
0.22939092 1.2424711 0.13182132 94
0.22132197 1.2543621 0.15684435 74
0.22485197 1.2525966 0.0101573 42
0.22859606 1.2470396 0.030145511 32
0.21268073 1.2706616 0.05281638 53
0.22389883 1.2540114 0.071659178 64
0.2243911 1.2532806 0.092296332 100
0.23406819 1.2389176 0.10990598 92
0.22769284 1.2483802 0.13317102 93
0.21861222 1.2618579 0.15891489 73
0.22653851 1.2537287 0.0101573 42
0.22582239 1.2547996 0.030564198 32
0.21221542 1.2751485 0.053165004 52
0.23000407 1.2485461 0.070684217 65
0.22608006 1.2544143 0.092296332 100
0.23352432 1.2432816 0.11066922 85
0.24236339 1.230063 0.1277722 97
0.21818349 1.2662234 0.15995017 72
0.22593233 1.2581307 0.01022711 28
0.21638498 1.2725115 0.031610917 30
0.21168843 1.2795856 0.053513627 52
0.23708254 1.2413355 0.069465525 99
0.2353363 1.2439659 0.090106249 96
0.23618141 1.2426928 0.1102876 85
0.2438907 1.2310807 0.1277722 97
0.21876234 1.2689306 0.1604678 72
0.22103694 1.2692778 0.010436539 41
0.20275691 1.297022 0.033076324 29
0.22114262 1.2691174 0.052293446 53
0.23108447 1.2540283 0.071171694 81
0.24133998 1.2384632 0.088854775 100
0.23675317 1.2454247 0.11066922 85
0.24657422 1.2305191 0.1273223 97
0.22582036 1.2620178 0.15787962 73
0.22733161 1.2638412 0.010296919 28
0.21133783 1.2883193 0.032448292 29
0.22742069 1.2637048 0.051596198 54
0.22968793 1.2602348 0.071902916 96
0.24206054 1.2412987 0.089167647 98
0.24287641 1.24005 0.10914274 85
0.24621287 1.2349435 0.12822211 97
0.22876865 1.2616417 0.15736198 74
0.23340917 1.2582531 0.0101573 42
0.21966887 1.2794436 0.03182026 30
0.229146 1.2648277 0.051596198 54
0.24112108 1.2463596 0.069709264 66
0.24263284 1.2440281 0.089480512 100
0.24879152 1.2345301 0.10761628 87
0.24465704 1.2409064 0.12957181 96
0.23048675 1.26276 0.15736198 74
0.24360594 1.2457952 0.0098780617 44
0.25263 1.2317818 0.028784776 69
0.22746602 1.2708586 0.052119136 54
0.23939487 1.2523345 0.070440479 98
0.24305406 1.2466521 0.089793384 83
0.23749715 1.2552814 0.11219569 100
0.25352347 1.2303944 0.12642249 99
0.23412824 1.2605129 0.1563267 74
0.23880789 1.256972 0.010087491 71
0.24671537 1.2445979 0.029517479 67
0.22492489 1.278697 0.05281638 53
0.24321827 1.2500703 0.069953002 49
0.25110191 1.2377336 0.087916173 70
0.25082183 1.2381718 0.10799789 87
0.26142845 1.2215739 0.12372308 83
0.22231904 1.2827747 0.163056 63
0.24050963 1.2580552 0.010087491 71
0.24837387 1.2456536 0.029517479 100
0.24057338 1.2579547 0.05055033 56
0.24489591 1.2511382 0.069953002 49
0.26119944 1.2254281 0.085413218 73
0.23773849 1.2624253 0.11334054 96
0.25883204 1.2291615 0.12552269 90
0.23031837 1.2741265 0.15995017 64
0.24647516 1.2523626 0.0099478718 73
0.24471754 1.2551558 0.03004084 99
0.23803413 1.2657771 0.051247578 82
0.24340558 1.2572408 0.070684217 65
0.25227049 1.2431526 0.08854191 56
0.25200638 1.2435724 0.10876112 79
0.257323 1.2351232 0.12687239 90
0.24031097 1.2621588 0.15580906 67
0.25036272 1.250079 0.0098780617 73
0.25072777 1.2494942 0.029622151 100
0.244073 1.2601564 0.05055033 84
0.24834663 1.2533092 0.069953002 49
0.25819033 1.2375376 0.087290429 57
0.24854663 1.2529888 0.11066922 100
0.25799793 1.2378459 0.1273223 97
0.23802543 1.2698458 0.15787962 65
0.24677601 1.2596225 0.010052586 100
0.25660965 1.2437439 0.029203463 100
0.24683484 1.2595274 0.05037602 84
0.25421622 1.2476087 0.068978049 50
0.25774398 1.2419122 0.087916173 84
0.25953749 1.2390163 0.10723466 81
0.26681504 1.227265 0.12417299 100
0.24180642 1.267647 0.15684435 66
0.24953389 1.2589742 0.010017681 87
0.26035643 1.2413617 0.028994121 100
0.23915762 1.2758603 0.051944822 81
0.25588518 1.2486382 0.068978049 50
0.26559818 1.2328314 0.086038955 58
0.25192586 1.2550815 0.11066922 85
0.27045339 1.22493 0.12327318 85
0.2354542 1.2818873 0.16098544 64
0.24811965 1.2651422 0.010122396 85
0.25472564 1.254307 0.029726824 100
0.24611109 1.2684366 0.051073264 100
0.25342429 1.2564416 0.069953002 49
0.26824382 1.2321347 0.08572609 58
0.24544495 1.2695292 0.11372216 75
0.26798531 1.2325586 0.12507279 92
0.24729943 1.2664876 0.15580906 67
0.25605989 1.2559268 0.0099129668 87
0.25538427 1.2570437 0.029831495 100
0.25610259 1.2558563 0.049678773 100
0.25615153 1.2557753 0.069709264 49
0.26679143 1.238186 0.086664692 71
0.25938416 1.2504313 0.10914274 78
0.26960167 1.2335403 0.12507279 92
0.25103411 1.2642353 0.15477379 67
0.26393199 1.2466623 0.0097035384 90
0.25708616 1.2580692 0.029831495 99
0.25677505 1.2585876 0.049853086 85
0.25580597 1.2602023 0.07019674 33
0.26639444 1.2425592 0.087290429 57
0.26611429 1.243026 0.10723466 81
0.26520464 1.2445416 0.1277722 97
0.24878469 1.2719016 0.15684435 66
0.25843638 1.2596853 0.0099478718 73
0.26287875 1.2522242 0.029412808 100
0.25542447 1.2647438 0.05037602 84
0.26361227 1.2509923 0.068734311 50
0.2660245 1.2469409 0.087916173 56
0.26475403 1.2490747 0.10837951 79
0.27782941 1.2271144 0.12282328 85
0.24460855 1.2829094 0.15995017 64
0.26116452 1.2589782 0.0099129668 87
0.27167428 1.2411859 0.028680105 100
0.2632331 1.2554764 0.049330149 87
0.26832178 1.2468616 0.068003096 51
0.27271438 1.2394252 0.086351827 58
0.26243407 1.256829 0.10990598 78
0.27942669 1.2280617 0.12282328 85
0.25426099 1.2706654 0.15580906 67
0.25874236 1.2668339 0.010052586 86
0.26818794 1.2507215 0.029203463 100
0.26383695 1.2581434 0.049504463 86
0.27191252 1.244368 0.067515619 51
0.28026664 1.2301173 0.084474608 59
0.25809276 1.267942 0.11219569 84
0.28390381 1.223913 0.12147357 86
0.26379892 1.2582083 -0.0098780617 87
0.25787687 1.2683103 0.15477379 67
0.26852068 1.2540184 0.0097733475 89
0.27589202 1.241343 0.028575432 100
0.26654425 1.257417 0.049330149 100
0.26159474 1.2659279 0.070440479 49
0.28187439 1.231056 0.084474608 59
0.27167624 1.2485924 0.10761628 79
0.28353053 1.2282082 0.12237337 85
0.26156044 1.2659869 0.15373851 68
0.27312592 1.2497534 0.0096686333 75
0.26747328 1.2595479 0.029622151 100
0.26318267 1.2669824 0.050201707 85
0.27316335 1.2496885 0.068003096 51
0.27748045 1.242208 0.086351827 58
0.27424616 1.2478123 0.10723466 81
0.28505147 1.2290893 0.12237337 68
0.26320678 1.2669407 0.15373851 68
0.26784781 1.2628649 0.0099129668 87
0.27712211 1.2466645 0.028784776 100
0.26689893 1.2645224 0.049853086 85
0.27681193 1.2472063 0.067515619 51
0.27716759 1.2465851 0.086977564 57
0.27103877 1.257291 0.10914274 85
0.28762379 1.2283201 0.12192347 85
0.26494315 1.2679389 0.15373851 76
0.28051454 1.244766 0.0095290141 92
0.27887103 1.2476615 0.028784776 100
0.26182872 1.2776858 0.051073264 83
0.27856281 1.2482045 0.067515619 51
0.28476691 1.2372744 0.085100345 58
0.27573407 1.253188 0.10799789 79
0.29315326 1.2224997 0.12012386 77
0.26965615 1.2638958 -0.0099129668 87
0.26104829 1.2790606 0.15684435 66
0.27628711 1.2561588 0.0097384425 75
0.28054002 1.248605 0.028784776 100
0.26848996 1.2700078 0.050201707 85
0.2743904 1.2595277 0.068978049 50
0.28543052 1.2399187 0.085413218 58
0.26971701 1.2678285 0.11105084 100
0.29282224 1.2267897 0.12102367 86
0.27334398 1.2613864 -0.0098431576 87
0.26851362 1.2699659 0.15373851 68
0.28188565 1.2501276 0.0095988233 76
0.28221232 1.2495427 0.028784776 100
0.27412263 1.2640293 0.049504463 86
0.27513301 1.2622199 0.069221787 50
0.28899866 1.2373899 0.084787481 59
0.28868595 1.2379498 0.10418171 75
0.29251808 1.2310876 0.12192347 76
0.27967936 1.2540785 0.14856213 71
0.2845321 1.2493112 0.0095639192 91
0.27808177 1.2609576 0.029412808 100
0.27874476 1.2597605 0.048981529 87
0.28166178 1.2544937 0.068003096 51
0.28967467 1.2400262 0.085100345 58
0.28556499 1.2474464 0.1060898 81
0.2922408 1.2353929 0.12282328 76
0.27290577 1.270303 -0.0099827768 86
0.27388284 1.2685388 0.15270324 68
0.28708607 1.2484365 0.0095290141 76
0.28163511 1.2583559 0.029203463 100
0.27461314 1.271134 0.050027397 85
0.287094 1.248422 0.067028143 100
0.29313743 1.2374245 0.084474608 59
0.28525868 1.2517618 0.10685304 81
0.27367681 1.2728379 0.15373851 68
0.28875771 1.2493513 0.0095290141 76
0.29098755 1.2452598 0.028366089 100
0.27636409 1.2720922 0.050027397 85
0.28876561 1.2493368 0.067028143 51
0.29288003 1.2417873 0.085100345 58
0.28318399 1.2595785 0.10837951 79
0.26988694 1.2839772 0.15684435 74
0.28291246 1.2643805 0.0098082526 74
0.29083252 1.2497203 0.028575432 100
0.28388828 1.2625742 0.048981529 87
0.28486294 1.2607701 0.068490572 50
0.29461095 1.2427266 0.085100345 58
0.29337871 1.2450074 0.10494494 75
0.28101149 1.2678992 -0.0098780617 87
0.28003681 1.2697033 0.1521856 77
0.29219455 1.2512084 0.0095290141 76
0.29250863 1.2506222 0.028575432 100
0.29313645 1.2494502 0.047587037 90
0.29032743 1.2546935 0.067515619 51
0.29999405 1.2366502 0.083848871 59
0.29596549 1.2441697 0.10456333 75
0.28463981 1.2653098 -0.0098082526 88
0.28816888 1.2587225 0.14856213 79
0.2941879 1.251518 0.028575432 100
0.2863988 1.2661796 0.049155839 58
0.29947156 1.2415725 0.065565705 53
0.28987643 1.2596335 0.14856213 71
0.29462826 1.2547657 0.0095639192 91
0.29959378 1.2453398 0.028156744 100
0.28070354 1.2811986 0.05055033 84
0.29926878 1.2459567 0.066053182 52
0.29653689 1.2511426 0.10570818 66
0.28618479 1.2707937 0.15166797 69
0.28891531 1.2698338 0.0098431576 88
0.29755574 1.2532922 0.028575432 100
0.28617939 1.2750716 0.049853086 85
0.29725543 1.2538671 0.067028143 51
0.29730898 1.2537646 0.1060898 66
0.28521198 1.2769237 -0.0099827768 96
0.28793451 1.2717116 0.15166797 69
0.29525983 1.2618637 0.0096686333 75
0.29344171 1.2653743 0.048807215 58
0.29894596 1.2547464 0.067028143 51
0.29629052 1.2598736 0.10723466 81
0.29324114 1.2657615 0.14959741 70
0.29338545 1.2697469 0.068978049 50
0.28967083 1.276981 -0.0099478718 96
0.29320836 1.2700918 0.15063268 70
0.29356936 1.2737081 0.029622151 100
0.29758489 1.2658204 0.14907977 78
0.29413727 1.2813919 0.15322088 76
0.29668567 1.2805221 -0.0099478718 100
