# .PCD v0.7 - Point Cloud Data file format
VERSION 0.7
FIELDS x y z intensity
SIZE 4 4 4 4
TYPE F F F F
COUNT 1 1 1 1
WIDTH 742
HEIGHT 1
VIEWPOINT 0 0 0 1 0 0 0
POINTS 742
DATA ascii
-1.1384414 0.15109167 0.060186349 22
-1.1763744 0.16449124 0.020733459 21
-1.1540191 0.16547439 0.020349506 32
-1.0565447 0.15488659 0.01863917 6
-1.0204022 0.15322849 0.018010883 6
-1.0376494 0.15952413 0.018325027 2
0.060988635 0.016988516 0.015672261 100
0.046450675 0.0063273907 0.047939736 100
0.045026004 0.0096651316 0.047835063 100
0.040020525 0.0082017183 0.04804441 72
0.035263956 0.0065850616 0.048253752 35
0.034714639 0.01178056 0.04804441 27
0.033331215 0.015141606 0.047939736 18
0.038506925 0.028548479 0.047207031 10
0.031492651 0.02368778 0.047625721 9
-1.0522633 1.1369673 0.028691756 5
-1.0094273 1.1271565 0.083842203 5
-1.0308726 1.1320682 0.14188954 6
-1.0198102 1.1353062 0.028133279 10
-0.99260885 1.1289763 0.083004825 24
-1.0354207 1.1389389 0.14241248 37
-1.0029569 1.1371034 0.02785404 30
-0.99134642 1.1343589 0.083004825 88
-1.0186117 1.1408041 0.14101799 84
-0.98027712 1.137387 0.027470088 38
-1.0075438 1.1439332 0.083946876 100
-1.007621 1.1439517 0.14014643 87
-0.98092824 1.1432 0.027504992 42
-0.98876518 1.1451105 0.083004825 100
-1.0024347 1.1484427 0.13979781 86
-0.9854396 1.1499829 0.027609708 23
-0.98550767 1.1499997 0.082900152 100
-0.99917024 1.1533809 0.13962349 87
-0.97440654 1.1529045 0.027435184 23
-0.98223478 1.1548707 0.082795486 46
-1.0074844 1.161213 0.14049506 74
-0.97693616 1.1592112 0.027504992 36
-0.96926969 1.157257 0.082167454 36
-0.98487204 1.1612339 0.13857763 78
-0.96395224 1.1615347 0.027295563 61
-0.98337787 1.1665585 0.083004825 63
-0.97578126 1.1645939 0.13788038 91
-0.95870787 1.1658021 0.027225753 67
-0.9819842 1.1719085 0.083004825 100
-0.98017615 1.1714342 0.13840333 91
-0.95731705 1.171066 0.027225753 78
-0.95741075 1.171091 0.081748761 90
-0.97491473 1.1757485 0.1380547 99
-0.95976919 1.177367 0.027295563 89
-0.95021659 1.1747894 0.081434749 98
-0.96964198 1.1800308 0.13770607 100
-0.95833808 1.1826346 0.027295563 96
-0.94879442 1.1800238 0.081434749 100
-0.96435791 1.1842813 0.13735744 99
-0.94532663 1.1846907 0.027086135 93
-0.94735414 1.185253 0.081434749 100
-0.95330292 1.1869028 0.13648589 89
-0.92846924 1.1855789 0.026806897 92
-0.94589549 1.1904773 0.081434749 86
-0.9480024 1.1910695 0.13613728 98
-0.94062012 1.1940517 0.027051231 70
-0.93304092 1.1918957 0.080806717 76
-0.95242125 1.1974089 0.1366602 100
-0.96410972 1.2064528 0.027504992 46
-0.91428715 1.1920911 0.079864666 40
-0.95283455 1.2032027 0.13683452 98
-0.94722086 1.2072508 0.027225753 48
-0.92622501 1.2011191 0.080597371 24
-0.95322579 1.2090044 0.13700883 84
-0.92842764 1.2073689 0.026911611 71
-0.92662638 1.206836 0.080702044 28
-0.93066829 1.2080318 0.13509139 84
-0.91532189 1.2093389 0.026702182 74
-0.92692846 1.2128189 0.080806717 30
-0.93668669 1.2157445 0.13578865 98
-0.91569287 1.2150321 0.026737086 78
-0.91772932 1.2156504 0.080388032 84
-0.92940229 1.2191948 0.13526571 100
-0.91420895 1.2198901 0.026737086 89
-0.90669757 1.2175821 0.079864666 100
-0.92980915 1.2246833 0.13544002 98
-0.91644853 1.2261864 0.026806897 92
-0.90512639 1.2226642 0.079864666 91
-0.92821294 1.229846 0.13544002 78
-0.9034031 1.2276986 0.026597468 85
-0.90353733 1.2277408 0.079864666 72
-0.90379423 1.2278217 0.13334829 52
-0.89417559 1.2303398 0.026457848 81
-0.91715413 1.2376643 0.080702044 72
-0.90978032 1.2353139 0.13404553 42
-0.89247864 1.2356299 0.026457848 83
-0.89642328 1.2369032 0.079655327 95
-0.91564935 1.2431093 0.13474278 45
-0.89464623 1.2419041 0.026527658 100
-0.89098758 1.2407089 0.07944598 100
-0.91588277 1.2488412 0.1349171 59
-0.88935882 1.2451864 0.026457848 99
-0.89329487 1.2464859 0.079655327 100
-0.9086954 1.2515702 0.13439415 78
-0.8801046 1.2476737 0.02631823 100
-0.89162284 1.2515211 0.079655327 100
-0.90133625 1.2547655 0.13387123 85
-0.8706829 1.2505983 0.02617861 96
-0.89165527 1.2576929 0.07976 100
-0.89757687 1.2596961 0.13369691 77
-0.87656468 1.2581441 0.02631823 92
-0.88049561 1.2594892 0.079236634 100
-0.89774376 1.2653911 0.13387123 89
-0.86746424 1.26001 0.02617861 89
-0.86573726 1.259413 0.078503937 100
-0.89618033 1.2699369 0.13387123 92
-0.87698406 1.2691636 0.026388038 81
-0.86204869 1.2639391 0.078399263 91
-0.89809948 1.2765498 0.13421984 57
-0.8638342 1.2703872 0.02617861 77
-0.85646325 1.2677785 0.078189917 53
-0.89247674 1.2805245 0.13387123 36
-0.85634273 1.2735436 0.026073895 90
-0.86779183 1.277643 0.078922622 19
-0.89247173 1.2864796 0.13404553 38
-0.84920055 1.2756751 0.025969181 93
-0.86252266 1.2804897 0.078713275 48
-0.8778165 1.2860169 0.13282534 24
-0.86236292 1.2862926 0.02624842 96
-0.85126287 1.2822349 0.078189917 85
-0.86843044 1.2885104 0.1321281 15
-0.84554631 1.2856746 0.025969181 100
-0.85133976 1.2878153 0.07829459 100
-0.87221855 1.2955303 0.13265105 7
-0.83990043 1.289386 0.025899371 100
-0.84007806 1.2894523 0.077771232 80
-0.87214917 1.3014369 0.13282534 1
-0.83077806 1.2909265 0.025759751 100
-0.84778267 1.2973418 0.07829459 48
-0.84810299 1.2974627 0.13073361 1
-0.84380645 1.3016856 0.026038991 81
-0.83651 1.2989023 0.077771232 51
-0.84802181 1.3032935 0.13090792 13
-0.83261269 1.3029513 0.025864467 72
-0.83279175 1.3030205 0.077666558 68
-0.85544711 1.3117533 0.13177948 52
-0.83810288 1.3109196 0.026004085 75
-0.82524604 1.3059095 0.077352546 68
-0.85345203 1.316901 0.13177948 100
-0.82699746 1.3118585 0.025829561 93
-0.82531983 1.3111984 0.077457212 61
-0.82567459 1.3113379 0.12933913 97
-0.81385356 1.3124676 0.025620133 100
-0.83446211 1.3206644 0.078085244 89
-0.83108658 1.3193219 0.13003637 99
-0.81956571 1.3197291 0.025759751 100
-0.82345766 1.3212912 0.077561885 95
-0.84044796 1.3281109 0.13108224 100
-0.81754166 1.3247452 0.025759751 100
-0.81587559 1.3240693 0.077247873 97
-0.83100802 1.3302077 0.130385 100
-0.81579214 1.3290386 0.025759751 100
-0.8141281 1.3283575 0.077247873 97
-0.82370955 1.3322792 0.12986206 100
-0.8026467 1.329455 0.025550323 100
-0.80284435 1.3295368 0.076724514 100
-0.81427497 1.3342645 0.12916481 100
-0.78359693 1.321576 0.17719802 20
-0.79330486 1.3310903 0.025410704 100
-0.81009775 1.3381046 0.077247873 100
-0.81045848 1.3382553 0.1289905 100
-0.79448551 1.3315835 0.17890419 22
-0.79860872 1.3391199 0.025550323 100
-0.79512554 1.3376501 0.076515168 100
-0.8083666 1.3432379 0.1289905 100
-0.76315564 1.3241585 0.17500438 20
-0.80417377 1.346487 0.025689943 92
-0.78966027 1.3403084 0.076305822 69
-0.80655903 1.3475025 0.1289905 93
-0.75958174 1.3275037 0.17476064 16
-0.82409614 1.3609265 0.0261088 57
-0.81875235 1.3586285 0.078085244 51
-0.81358486 1.3564062 0.12986206 26
-0.80129629 1.3511215 0.18061037 5
-0.80572206 1.3580785 0.025794657 90
-0.80956727 1.3597465 0.077666558 97
-0.82818633 1.3678229 0.13143086 58
-0.79582173 1.353784 0.18012288 12
-0.78524143 1.3550186 0.025445608 100
-0.81471401 1.3679316 0.078085244 100
-0.8132115 1.3672733 0.13021068 100
-0.77730888 1.3515429 0.17792924 33
-0.78867763 1.3621025 0.025550323 100
-0.80531234 1.3694601 0.077666558 100
-0.82022899 1.3760579 0.13108224 100
-0.76982456 1.3537637 0.17719802 41
-0.79948944 1.372243 0.025794657 100
-0.80514079 1.3747652 0.077771232 100
-0.81275338 1.3781624 0.1305593 100
-0.78057081 1.3638 0.17890419 36
-0.80102557 1.3785926 0.025864467 100
-0.80666357 1.3811324 0.077980578 100
-0.80698901 1.381279 0.13021068 100
-0.79658931 1.3765943 0.18134159 31
-0.79353839 1.3805873 0.025759751 100
-0.8119027 1.3889332 0.078399263 100
-0.80314058 1.3849512 0.13003637 100
-0.7710765 1.3703792 0.17817298 15
-0.79118401 1.3857417 0.025759751 100
-0.80951613 1.394158 0.078399263 100
-0.8062014 1.3926363 0.1305593 100
-0.77417356 1.3779321 0.17890419 15
-0.79820746 1.3943876 0.025934275 100
-0.80743891 1.3986629 0.078399263 100
-0.8113609 1.4004793 0.13125655 100
-0.75773996 1.3756461 0.17695428 13
-0.78866416 1.3959368 0.025794657 100
-0.80512565 1.403634 0.078399263 100
-0.80904096 1.4054646 0.13125655 100
-0.75730962 1.381276 0.17719802 7
-0.81190199 1.4123147 0.026283324 100
-0.80843633 1.4106801 0.078713275 100
-0.80692619 1.4099679 0.13125655 100
-0.78220683 1.3983095 0.18085411 3
-0.78798383 1.4067528 0.025864467 100
-0.80979854 1.4171345 0.078922622 100
-0.7974878 1.4112759 0.1305593 100
-0.76925069 1.3978376 0.17939167 1
-0.78766769 1.4120517 0.025899371 100
-0.80584449 1.4207761 0.078817949 100
-0.80613106 1.4209137 0.13160518 100
-0.78890473 1.4186939 0.025969181 100
-0.80345017 1.4257411 0.078817949 100
-0.81449443 1.431092 0.13265105 100
-0.79393297 1.4266417 0.0261088 100
-0.80306274 1.4311025 0.078922622 100
-0.81945521 1.4391118 0.13334829 100
-0.8022781 1.4368697 0.02631823 100
-0.80063051 1.4360573 0.078922622 100
-0.80627209 1.4388394 0.13230242 100
-0.79289716 1.4377888 0.02617861 100
-0.80735618 1.444979 0.07944598 100
-0.80404669 1.4433331 0.13230242 100
-0.7904405 1.4427063 0.02617861 100
-0.81022829 1.452637 0.07976 100
-0.81047326 1.4527599 0.13317397 100
-0.79533952 1.4507592 0.02631823 100
-0.80261081 1.4544386 0.07944598 100
-0.81353492 1.4599663 0.13369691 100
-0.80007941 1.4590874 0.026457848 100
-0.79309767 1.455524 0.079027295 100
-0.81644207 1.4674389 0.13421984 100
-0.79778689 1.4635607 0.026457848 100
-0.79969662 1.4645435 0.079550654 100
-0.80703539 1.4683199 0.1335226 100
-0.79168636 1.4666529 0.026388038 100
-0.80423218 1.4731672 0.079969339 100
-0.80446678 1.473289 0.1335226 100
-0.78582555 1.4692435 0.02631823 100
-0.8054319 1.4795066 0.080178685 100
-0.80918783 1.4814727 0.13421984 100
-0.78679019 1.4760027 0.026388038 89
-0.79045969 1.4779406 0.07944598 100
-0.80833286 1.48738 0.13439415 100
-0.8094638 1.493753 0.13474278 42
-0.25743937 1.4960016 0.018953314 1
-0.21932453 1.4666028 0.018115599 1
-0.18733573 1.4423367 0.017417502 5
-0.18486655 1.4450346 0.017417502 5
-0.20599294 1.4693222 0.017975979 3
-0.19488913 1.4636488 0.01776655 5
-0.17787659 1.4525659 0.017417502 16
-0.17973089 1.4593488 0.017522216 19
-0.18166673 1.4660265 0.01762693 14
-0.19090873 1.4795136 0.017906168 5
-0.20282185 1.4959766 0.018255217 3
-0.20171767 1.4999931 0.018290121 3
-0.19487584 1.4984183 0.018185407 5
-0.18248081 1.4910644 0.017941074 3
0.12106061 1.3017803 0.13280307 5
0.16382724 1.2523674 0.010785587 26
0.15431193 1.2642529 0.033180997 28
0.13908929 1.2832675 0.057522789 23
0.14753622 1.2727165 0.10199527 11
0.15245995 1.2665663 0.12364423 36
0.19558981 1.2126929 0.13092151 8
0.14070845 1.281245 0.17547931 7
0.16675767 1.252147 0.010750682 92
0.16349626 1.2562501 0.032552965 59
0.15576041 1.2659824 0.055431053 49
0.1547339 1.2672738 0.077996381 28
0.16281423 1.2571081 0.09855371 24
0.16152543 1.2587296 0.12135452 93
0.19228691 1.2200294 0.13272113 23
0.15211216 1.2705722 0.1713382 21
0.16464135 1.2581239 0.010855397 100
0.1688236 1.2528262 0.032238949 100
0.15617275 1.2688508 0.055605363 98
0.16007522 1.2639077 0.077265166 29
0.16810375 1.253738 0.097615108 37
0.15949872 1.2646378 0.12249938 100
0.1865361 1.2303903 0.13542053 45
0.14659196 1.2809865 0.17444403 42
0.16634756 1.2594659 0.010855397 100
0.17174342 1.252582 0.032134276 100
0.14685452 1.2843354 0.057174169 100
0.17159846 1.2527668 0.075315252 30
0.17223185 1.2519588 0.096989371 25
0.16728333 1.2582722 0.12059128 100
0.19776276 1.2193863 0.13182132 39
0.1507616 1.2793506 0.17340876 42
0.16560224 1.2639585 0.010925206 100
0.18446976 1.2397134 0.03119223 94
0.15966493 1.2715881 0.055605363 98
0.17084765 1.257218 0.075802729 30
0.19090092 1.2314491 0.092609204 26
0.18104732 1.2441113 0.1167751 100
0.19215268 1.2298406 0.13452072 31
0.15016913 1.2837903 0.17444403 42
0.16977403 1.2621324 0.010855397 65
0.1861116 1.2409865 0.03119223 63
0.1711632 1.2603344 0.054210871 51
0.17376435 1.2569677 0.07555899 30
0.1683594 1.2639633 0.098866582 24
0.18899426 1.2372553 0.13632034 22
0.14842167 1.2897692 0.17599694 34
0.17514539 1.2586967 0.010750682 79
0.17195535 1.2628555 0.032552965 29
0.17287707 1.2616538 0.054210871 51
0.18392366 1.2472525 0.073852822 46
0.19172665 1.2370796 0.093234941 39
0.18795088 1.2420021 0.11563025 13
0.17995304 1.2524289 0.14036946 29
0.15376577 1.2865691 0.17444403 56
0.18048808 1.2552295 0.010645968 40
0.17488807 1.2625831 0.032448292 29
0.16493887 1.2756481 0.055605363 49
0.18559182 1.2485273 0.073852822 46
0.18976891 1.2430421 0.094173551 52
0.1872218 1.2463869 0.11639348 13
0.20643279 1.2211597 0.13092151 40
0.17195711 1.2664319 0.16719711 67
0.17253646 1.2692773 0.010925206 39
0.16697392 1.2766351 0.03328567 28
0.17151245 1.2706318 0.054908119 50
0.19085586 1.245046 0.073121607 62
0.19023103 1.2458725 0.094486415 52
0.18651894 1.2507825 0.11715672 13
0.21271062 1.2161384 0.1291219 40
0.17951748 1.2600434 0.16460891 69
0.17668232 1.2673932 0.010855397 39
0.16874474 1.2779689 0.03328567 28
0.18163422 1.2607955 0.053687938 52
0.19370788 1.244709 0.072877869 47
0.19545168 1.2423857 0.093547814 52
0.20234144 1.233206 0.1125773 13
0.20491168 1.2297816 0.13272113 31
0.18007067 1.2628788 0.16512655 68
0.18789434 1.255802 0.010576159 67
0.18236744 1.263217 0.032238949 30
0.1796917 1.2668067 0.054210871 51
0.19172502 1.2506628 0.073609084 77
0.19702011 1.2435589 0.093547814 78
0.19918624 1.2406528 0.11410378 13
0.20643827 1.2309234 0.13272113 39
0.18170714 1.2641028 0.16512655 68
0.18364498 1.2651004 0.010750682 79
0.18646735 1.2612861 0.032029606 30
0.17668766 1.2745028 0.054908119 75
0.193405 1.2519104 0.073609084 93
0.1963253 1.2479639 0.094173551 78
0.2090058 1.2308272 0.11143246 14
0.21616337 1.2211543 0.12957181 32
0.18458322 1.2638324 0.16460891 69
0.19011083 1.2599298 0.010611063 81
0.20355573 1.2416267 0.03066887 64
0.18434858 1.2677741 0.054036561 77
0.20214057 1.2435532 0.072146654 79
0.1968264 1.2507876 0.094486415 91
0.20596737 1.2383437 0.11295892 13
0.22120127 1.2176052 0.12822211 24
0.18402189 1.2682188 0.16564418 68
0.19417962 1.2579515 0.010541254 81
0.20755768 1.2396057 0.030459527 65
0.1790449 1.2787064 0.055082429 100
0.20028687 1.2495763 0.072877869 94
0.1996707 1.2504214 0.094173551 100
0.21454474 1.230024 0.11066922 14
0.24113673 1.1935573 0.12102367 8
0.18348676 1.2726152 0.16667947 67
0.18884966 1.2689097 0.010750682 92
0.21271241 1.2359445 0.030145511 65
0.18900084 1.2687007 0.053862248 100
0.20079905 1.2524022 0.073121607 78
0.21640781 1.2308395 0.090106249 96
0.20003578 1.2534566 0.11601187 13
0.22776219 1.2151541 0.12687239 16
0.19657129 1.2582426 0.16150309 70
0.20226243 1.2539281 0.010401634 83
0.20967898 1.2436068 0.030564198 64
0.19306913 1.2667218 0.053513627 100
0.20943537 1.2439458 0.071659178 80
0.21225491 1.2400221 0.091670595 94
0.21203625 1.2403263 0.1125773 13
0.25092426 1.186208 0.11832426 8
0.20165965 1.2547669 0.15995017 72
0.20395377 1.2551389 0.010401634 97
0.21017444 1.2464179 0.03066887 96
0.19711915 1.2647207 0.053165004 100
0.20763355 1.24998 0.072390392 95
0.20930922 1.2476308 0.092922069 100
0.20683965 1.251093 0.11486702 20
0.22748286 1.2221524 0.12822211 16
0.19998842 1.2606981 0.16150309 70
0.20564932 1.2563438 0.010401634 97
0.22222671 1.2329309 0.029726824 100
0.19424292 1.2724538 0.053862248 100
0.2207821 1.234971 0.069953002 66
0.21212003 1.247205 0.092609204 100
0.21079004 1.2490834 0.11410378 27
0.2324414 1.2185041 0.12687239 24
0.19723809 1.2682235 0.16357364 69
0.2050494 1.260815 0.010471444 96
0.21465716 1.2471446 0.030564198 97
0.19829026 1.2704324 0.053513627 100
0.2144171 1.2474861 0.071659178 64
0.2194671 1.2403008 0.091044858 100
0.20004672 1.2679331 0.11830158 78
0.23176783 1.2227986 0.1277722 40
0.19564688 1.2741935 0.16512655 76
0.20676476 1.2620162 0.010471444 96
0.2186102 1.2450361 0.030354854 65
0.20573893 1.2634866 0.05264207 100
0.21154281 1.255167 0.072634131 63
0.22676179 1.2333511 0.089480512 97
0.20403349 1.2659314 0.11753834 100
0.22331566 1.238291 0.13182132 94
0.20404083 1.2659209 0.16202073 70
0.2106756 1.259864 0.010401634 97
0.21904999 1.2477744 0.030459527 97
0.20397374 1.2695391 0.053165004 100
0.20750177 1.2644458 0.073852822 100
0.22605044 1.2376682 0.090106249 96
0.2224488 1.2428677 0.11181407 98
0.2270897 1.2361679 0.13092151 96
0.21008742 1.2607131 0.15995017 72
0.21465346 1.2577498 0.010331824 100
0.22411439 1.2439892 0.030145511 98
0.21023473 1.2641767 0.052467756 100
0.22497496 1.2427375 0.070440479 49
0.22544658 1.2420516 0.090731993 95
0.2318874 1.2326837 0.10914274 85
0.22319859 1.2453213 0.13317102 85
0.20742443 1.2682643 0.16202073 70
0.21635807 1.2589175 0.010331824 98
0.22577092 1.2451239 0.030145511 65
0.20297739 1.2785255 0.053862248 100
0.22774604 1.2422296 0.07019674 82
0.2248694 1.2464449 0.09135773 100
0.22354475 1.2483861 0.1125773 89
0.22815511 1.2416301 0.13182132 94
0.21134365 1.2662656 0.16098544 72
0.21694535 1.2617347 0.010366729 55
0.23639163 1.2330235 0.029308135 68
0.20810649 1.2747848 0.053339314 78
0.22271714 1.253213 0.071659178 80
0.23096552 1.2410349 0.090106249 96
0.22301468 1.2527738 0.11334054 96
0.23417464 1.2362968 0.13002171 96
0.21199465 1.2690442 0.16150309 70
0.21634603 1.2661552 0.010436539 41
0.22232524 1.257264 0.030773543 32
0.21534139 1.2676492 0.052467756 53
0.22542909 1.2526485 0.071415432 96
0.23252928 1.2420902 0.090106249 96
0.22680855 1.2505971 0.1125773 96
0.23246029 1.2421927 0.13137141 94
0.21688551 1.2653531 0.15995017 72
0.22030017 1.2639904 0.010366729 27
0.2151581 1.2716948 0.031610917 30
0.22261077 1.2605283 0.051596198 54
0.22491184 1.2570808 0.071902916 48
0.23637232 1.2399094 0.089480512 97
0.23393747 1.2435576 0.11066922 92
0.23627409 1.2400566 0.13047162 96
0.22290641 1.2600855 0.15787962 73
0.22423509 1.261804 0.010296919 28
0.20808786 1.2861813 0.032448292 29
0.22212455 1.2649903 0.051944822 54
0.23209515 1.2499378 0.070684217 65
0.23474193 1.2459419 0.090419121 100
0.2388449 1.2397478 0.10952436 85
0.23791683 1.2411488 0.13047162 96
0.22461912 1.2612243 0.15787962 73
0.22265843 1.267951 0.010401634 27
0.22963998 1.2573308 0.030564198 32
0.21619323 1.2777859 0.053165004 52
0.24140549 1.2394331 0.068978049 100
0.23966053 1.2420875 0.089480512 97
0.24372187 1.2359095 0.10837951 87
0.24277475 1.2373501 0.1291219 88
0.22315219 1.2671999 0.15943253 73
0.22339335 1.2708225 0.010436539 41
0.21615428 1.2819229 0.032029606 30
0.22567499 1.2673239 0.051944822 54
0.23662198 1.2505375 0.070440479 98
0.23599765 1.2514949 0.091044858 100
0.24221429 1.2419622 0.10952436 85
0.24342525 1.2401054 0.12957181 100
0.22286618 1.2716309 0.1604678 72
0.22514355 1.2719595 0.010436539 41
0.23964632 1.2495502 0.029936166 33
0.23499048 1.2567443 0.05072464 56
0.24369401 1.2432959 0.069221787 83
0.25055948 1.2326875 0.087290429 85
0.23746356 1.252923 0.11181407 84
0.25142083 1.2313565 0.12687239 90
0.22986728 1.2646606 0.15787962 73
0.23978072 1.2528453 0.010017681 58
0.24015868 1.2522571 0.03004084 66
0.24091414 1.2510812 0.050027397 57
0.23775411 1.2559997 0.070927955 48
0.24995992 1.2370018 0.087916173 84
0.2549848 1.2291808 0.1060898 88
0.24557886 1.2438208 0.13002171 96
0.23255363 1.2640941 0.15736198 74
0.24138361 1.2538714 0.010017681 72
0.24390763 1.2499141 0.029831495 66
0.23715422 1.2605026 0.050898954 83
0.24577227 1.2469906 0.069465525 49
0.24301228 1.2513179 0.090419121 82
0.25123051 1.2384328 0.10799789 72
0.25553513 1.2316836 0.12642249 82
0.23731035 1.2602577 0.15580906 75
0.24949107 1.2448075 0.0098082526 59
0.25412971 1.2374785 0.028994121 100
0.23247516 1.2716928 0.051944822 81
0.25380883 1.2379854 0.068003096 51
0.24891993 1.2457099 0.089167647 70
0.24761778 1.2477673 0.10990598 92
0.25610632 1.2343553 0.12687239 99
0.23075843 1.2744052 0.15995017 64
0.2489396 1.2491879 0.0098780617 73
0.24930641 1.2486041 0.029622151 100
0.23520052 1.2710559 0.051770512 81
0.24268976 1.2591356 0.070927955 48
0.25890616 1.2333245 0.086664692 71
0.25442591 1.2404555 0.10799789 79
0.26075792 1.2303771 0.12552269 90
0.23243284 1.2754612 0.15995017 64
0.2411795 1.2655623 0.010192205 85
0.2510626 1.2497029 0.029622151 100
0.24336153 1.2620609 0.05072464 84
0.24658436 1.2568891 0.070440479 49
0.26478526 1.2276824 0.085413218 58
0.24265391 1.2631963 0.11295892 89
0.26038593 1.2347419 0.12642249 82
0.24752513 1.2553796 -0.0099827768 86
0.23633102 1.2733426 0.15891489 65
0.24703243 1.2597811 0.010052586 86
0.24950293 1.2557874 0.029936166 100
0.24604309 1.2613806 0.05055033 84
0.2502892 1.2545162 0.069953002 49
0.26526538 1.2303056 0.08572609 58
0.25565189 1.2458467 0.10876112 72
0.26192865 1.2356997 0.12642249 99
0.24409959 1.2645224 0.15580906 67
0.25727874 1.2473036 0.0097733475 89
0.25241458 1.255235 0.029831495 99
0.25001532 1.2591472 0.050201707 85
0.26045421 1.2421257 0.068003096 51
0.26393676 1.2364472 0.086664692 71
0.2564548 1.2486471 0.10914274 78
0.25964376 1.2434473 0.12822211 97
0.24196079 1.2722807 0.15787962 65
0.25470406 1.2551041 0.0099129668 87
0.25610235 1.2528071 0.029622151 100
0.23920733 1.2805617 0.052293446 80
0.26202142 1.2430834 0.068003096 51
0.26343086 1.240768 0.087290429 57
0.2519187 1.2596798 0.11143246 91
0.27134815 1.2277616 0.12372308 83
0.24362811 1.2732995 0.15787962 65
0.25140285 1.2647948 0.010087491 71
0.26208615 1.247092 0.029203463 100
0.24631721 1.2732222 0.051421888 82
0.26178873 1.2475848 0.068490572 50
0.26524058 1.2418649 0.087290429 71
0.25887305 1.2524163 0.10952436 78
0.27411476 1.2271597 0.12327318 85
0.24157029 1.2810881 0.15995017 64
0.25407282 1.2640668 0.010052586 86
0.26469609 1.2463307 0.029098792 100
0.25617778 1.2605525 0.050027397 85
0.25623387 1.2604588 0.07019674 99
0.27289709 1.2326386 0.085413218 58
0.25744799 1.2584318 0.11066922 78
0.27463093 1.229744 0.12372308 83
0.26113477 1.2522765 0.15063268 70
0.25980017 1.2581698 0.0099129668 87
0.2621949 1.2541414 0.029517479 100
0.25475183 1.266662 0.05055033 84
0.26496249 1.2494857 0.068490572 50
0.27342337 1.2352531 0.08572609 58
0.26308215 1.2526489 0.10914274 85
0.27516124 1.2323296 0.12417299 83
0.25878698 1.2598741 0.15270324 68
0.26853347 1.2470734 0.0096686333 90
0.26583171 1.2516527 0.029308135 100
0.26045009 1.2607744 0.049853086 85
0.2685715 1.247009 0.068003096 51
0.27195641 1.2412717 0.086664692 71
0.26967227 1.2451432 0.10723466 88
0.27174473 1.2416306 0.12642249 82
0.25452316 1.2708203 0.15580906 67
0.26935786 1.2498769 0.0097035384 90
0.27171633 1.2458441 0.028889447 100
0.25630176 1.2722018 0.050898954 83
0.27240941 1.2446589 0.067515619 51
0.26977912 1.2491565 0.087916173 56
0.26753432 1.252995 0.10876112 79
0.28241172 1.2275558 0.12237337 76
0.25644836 1.2719512 0.15580906 67
0.26492807 1.261182 0.0099129668 87
0.28131622 1.232945 0.028052073 100
0.25796875 1.273173 0.050898954 83
0.26999921 1.2524444 0.068490572 50
0.27632743 1.2415407 0.086351827 58
0.26913753 1.253929 0.10876112 79
0.28686509 1.2233843 0.12102367 86
0.2639243 1.2629114 -0.0099478718 86
0.25908422 1.271251 0.15529142 75
0.26265344 1.269106 0.010052586 86
0.27496171 1.2477273 0.028889447 100
0.26171508 1.270736 0.05055033 84
0.26772317 1.2603002 0.069465525 49
0.28290308 1.2339334 0.084787481 59
0.26788983 1.2600107 0.10990598 85
0.28942162 1.2226112 0.12057377 77
0.26464888 1.26564 -0.0099827768 86
0.26758283 1.2605439 0.15166797 69
0.27522188 1.2509568 0.0096686333 75
0.2735751 1.2538393 0.029203463 100
0.26140046 1.2751491 0.050898954 83
0.26836586 1.2629572 0.069709264 66
0.28444299 1.2348167 0.084787481 59
0.27243802 1.2558296 0.10876112 87
0.28705716 1.2302411 0.12237337 85
0.26921111 1.2614777 0.15166797 69
0.28002656 1.246788 0.0095639192 91
0.27838728 1.2496831 0.028889447 100
0.27315927 1.258916 0.049155839 87
0.27710754 1.2519432 0.068003096 51
0.28622973 1.2358329 0.084787481 59
0.27914226 1.2483498 0.10685304 81
0.28594568 1.2363346 0.12372308 75
0.2682029 1.2676693 -0.0099827768 86
0.2749078 1.255828 0.14959741 70
0.27181384 1.2651143 0.0099129668 87
0.28389278 1.2436162 0.02847076 100
0.26990235 1.2685163 0.050027397 85
0.28065196 1.2493843 0.067515619 51
0.28293785 1.2453158 0.086351827 58
0.27592161 1.2578032 0.10876112 79
0.28940269 1.2338097 0.12282328 76
0.26516482 1.2769482 0.15580906 67
0.27168411 1.2696245 0.0099827768 87
0.29146215 1.2341195 0.027842728 100
0.27173138 1.2695396 0.050027397 85
0.28047875 1.2538366 0.068003096 51
0.29141083 1.2342117 0.084161744 59
0.27484515 1.2639499 0.10990598 85
0.29584607 1.2262497 0.12057377 86
0.26702482 1.2779887 0.15580906 67
0.27914646 1.2600437 0.0097733475 89
0.2872057 1.2454624 0.02847076 100
0.27724466 1.2634846 0.049330149 87
0.2782436 1.2616773 0.068978049 50
0.29199609 1.2367954 0.084474608 59
0.27743438 1.2631414 0.10952436 78
0.29736045 1.2270899 0.12057377 86
0.27914646 1.2600437 -0.0097733475 88
0.27805606 1.2620165 0.15063268 70
0.28278112 1.2574792 0.0097035384 90
0.28694689 1.2498796 0.028680105 100
0.28471515 1.253951 0.048284281 88
0.28377834 1.2556599 0.068003096 51
0.29457662 1.235961 0.084161744 59
0.28859445 1.2468741 0.10570818 81
0.29802081 1.2296779 0.12102367 86
0.27509138 1.2715073 -0.0099827768 86
0.28534684 1.2527986 0.14752686 71
0.28630993 1.2548492 0.0096337283 90
0.28472275 1.2577676 0.029098792 100
0.2825138 1.2618291 0.048981529 87
0.29108083 1.2460768 0.066540658 52
0.29140428 1.2454822 0.08572609 58
0.29111522 1.2460136 0.10532656 75
0.29861549 1.2322228 0.12147357 77
0.27866673 1.2689028 -0.0099129668 87
0.28694931 1.2536736 0.14752686 79
0.28627628 1.2593788 0.0097035384 90
0.29228252 1.2482333 0.02847076 100
0.28251389 1.2663605 0.049330149 87
0.29102731 1.2505625 0.067028143 69
0.29604325 1.2412548 0.084787481 59
0.28642538 1.2591021 0.10799789 79
0.27868709 1.2734616 -0.0099827768 86
0.27781087 1.2750876 0.15373851 68
0.28412935 1.2673047 0.0098431576 88
0.29951975 1.2385173 0.027842728 100
0.28604007 1.2637306 0.048981529 87
0.28887868 1.2584212 0.068003096 51
0.28527188 1.2651675 0.10914274 78
0.28412935 1.2673047 -0.0098431576 87
0.28313056 1.2691728 0.15166797 77
0.28680351 1.2664629 0.0098082526 74
0.2961641 1.2488062 0.047412723 90
0.29244477 1.2558219 0.067515619 51
0.29159984 1.2574157 0.10723466 73
0.29148674 1.257629 -0.0096337283 89
0.28487462 1.2701013 0.15166797 69
0.2978428 1.2496783 0.009459204 93
0.29722068 1.2508618 0.02847076 100
0.29876408 1.2479258 0.047238413 91
0.29783687 1.2496896 0.066540658 52
0.29787037 1.2496258 0.10532656 75
0.2885381 1.2673786 -0.0098082526 99
0.29381314 1.2573439 0.14752686 71
0.2996026 1.2505993 0.009459204 77
0.29344773 1.2624125 0.029098792 100
0.29775566 1.2541442 0.047761347 90
0.29501057 1.259413 0.067759357 85
0.28943887 1.270107 -0.0098431576 87
0.29917157 1.2514266 0.1454563 72
0.29121733 1.2709532 0.049330149 58
0.2967205 1.2603 0.067759357 68
0.29021388 1.2728956 0.15166797 69
0.29279238 1.2717636 0.049330149 58
0.29463995 1.2681594 0.068734311 67
0.29002485 1.2771626 -0.0099478718 100
0.29003257 1.2771475 0.15270324 76
0.29995054 1.2620227 0.0096337283 100
0.29815611 1.2655537 0.048632905 59
0.2963804 1.2690477 0.068734311 33
0.29635894 1.273652 -0.0098431576 100
0.29642293 1.2826236 -0.0099827768 100
