# .PCD v0.7 - Point Cloud Data file format
VERSION 0.7
FIELDS x y z intensity
SIZE 4 4 4 4
TYPE F F F F
COUNT 1 1 1 1
WIDTH 729
HEIGHT 1
VIEWPOINT 0 0 0 1 0 0 0
POINTS 729
DATA ascii
-1.175969 0.16736516 0.020733459 30
-1.0823764 0.15790163 0.019092932 6
-1.0363578 0.15469979 0.018290121 5
-0.99429995 0.15197167 0.01755712 2
0.057987779 0.0059608817 0.047625721 63
0.048776031 0.0034655929 0.015986403 30
0.039769471 0.001168251 0.048358422 100
0.042375028 0.011432469 0.047835063 75
0.039862335 0.013119996 0.047835063 37
0.036233485 0.013163328 0.047939736 27
0.026963115 0.0049787164 0.048567768 16
0.034362137 0.021702349 0.047625721 9
0.02732861 0.016853034 0.04804441 9
0.019992828 0.012227118 0.048463095 8
-1.0467341 1.1342347 0.028587041 3
-1.0272636 1.1297932 0.084784247 5
-1.0409005 1.1329039 0.14276111 6
-1.0279205 1.1357423 0.028272899 8
-1.00265 1.129885 0.083528183 13
-1.0221555 1.1344061 0.1411923 19
-0.9935444 1.1334565 0.027679516 20
-0.99944013 1.1348448 0.083423518 78
-1.03251 1.1426316 0.14223817 71
-0.99816543 1.1399673 0.02778423 38
-0.99822181 1.1399808 0.083423518 100
-1.0254521 1.1464881 0.14171524 100
-0.9968645 1.1453693 0.02778423 43
-0.98333436 1.1420859 0.082690813 100
-1.0028303 1.1468168 0.13979781 86
-0.98201925 1.1471506 0.027539898 26
-0.98403138 1.147646 0.082795486 100
-0.9938336 1.1500591 0.13910057 91
-0.97099322 1.1500722 0.027365373 26
-0.98851687 1.1544511 0.083109498 61
-1.0021622 1.1578609 0.13997212 79
-0.97146076 1.1564018 0.027400278 37
-0.97541445 1.1574059 0.082481466 38
-1.0006616 1.1638179 0.13997212 71
-0.96622986 1.1607124 0.027330469 59
-0.97405297 1.1627283 0.082481466 50
-0.98384255 1.1652509 0.13857763 91
-0.9687261 1.1670141 0.027400278 67
-0.96107882 1.165015 0.081853434 90
-0.97474307 1.168587 0.13788038 89
-0.95186776 1.168213 0.027121039 74
-0.96741289 1.1723347 0.08227212 96
-0.96371323 1.1713538 0.13700883 100
-0.94667655 1.1721534 0.027051231 88
-0.96028382 1.1758096 0.081958108 98
-0.96622223 1.1774052 0.13735744 100
-0.95491058 1.1800035 0.027225753 92
-0.94729596 1.1779289 0.081330076 100
-0.9686355 1.1837428 0.13770607 100
-0.94968742 1.1839277 0.027155945 93
-0.94015926 1.1812978 0.081016064 100
-0.97109634 1.1898367 0.1380547 92
-0.95208496 1.1902375 0.027225753 96
-0.94063789 1.1870351 0.081120729 96
-0.96002799 1.1924598 0.13718314 94
-0.94283956 1.1935569 0.027086135 81
-0.94102079 1.1930408 0.081225403 80
-0.94696909 1.1947285 0.13613728 100
-0.94903928 1.2009754 0.027225753 56
-0.92993742 1.1954836 0.080702044 52
-0.94739217 1.2005018 0.13631158 100
-0.94944566 1.2067647 0.027260659 41
-0.91310269 1.1961784 0.079864666 23
-0.95544475 1.2085121 0.13718314 85
-0.93256849 1.2074685 0.026981421 64
-0.92118412 1.2041093 0.080388032 28
-0.95390493 1.2137644 0.13718314 84
-0.92727751 1.2112379 0.026911611 74
-0.91590911 1.2078424 0.080178685 28
-0.94478887 1.2164682 0.13648589 94
-0.91041595 1.21176 0.026632372 75
-0.92584211 1.2164263 0.080806717 70
-0.92605776 1.2164916 0.1349171 99
-0.91077703 1.2174408 0.026667276 81
-0.91854566 1.2198204 0.080492698 100
-0.92068022 1.2204742 0.13456847 100
-0.91302615 1.2237217 0.026737086 89
-0.90742844 1.2219858 0.079969339 90
-0.92290479 1.2267854 0.1349171 84
-0.91524929 1.230024 0.026806897 85
-0.89821965 1.2246774 0.079550654 82
-0.92130131 1.2319241 0.1349171 54
-0.9060114 1.2327132 0.026667276 85
-0.90043062 1.2309396 0.07976 76
-0.90828711 1.2334363 0.13387123 43
-0.89685398 1.2350912 0.026527658 77
-0.90269691 1.2369694 0.079969339 80
-0.90105182 1.2364405 0.13334829 48
-0.88571364 1.2370458 0.026353134 90
-0.90675598 1.243891 0.080283359 100
-0.90509874 1.2433518 0.13387123 57
-0.88209289 1.2416792 0.02631823 100
-0.89742118 1.2467278 0.079864666 100
-0.91660076 1.2530448 0.13509139 78
-0.88802618 1.249204 0.026457848 100
-0.88248461 1.2473574 0.079131968 100
-0.91679591 1.2587912 0.13526571 85
-0.88642925 1.2539701 0.026457848 93
-0.88657182 1.2540182 0.07944598 100
-0.90572649 1.2604718 0.13439415 78
-0.8733744 1.2551106 0.02624842 92
-0.88487357 1.2590297 0.07944598 100
-0.89834791 1.263622 0.13387123 89
-0.86041409 1.2559198 0.026038991 99
-0.88324398 1.2637854 0.07944598 100
-0.88916808 1.2658262 0.13317397 100
-0.86626273 1.2634721 0.02617861 81
-0.87019533 1.2648423 0.078817949 100
-0.90812463 1.2780581 0.13509139 68
-0.86435741 1.2689064 0.02617861 79
-0.84568268 1.262319 0.077561885 63
-0.91367871 1.2863042 0.13578865 38
-0.86637431 1.2751839 0.02624842 81
-0.85524279 1.2712137 0.078189917 27
-0.89122504 1.2840476 0.13387123 36
-0.85349208 1.2755649 0.026038991 96
-0.86493558 1.2796872 0.078817949 25
-0.87085813 1.2818205 0.1321281 28
-0.84796077 1.2790924 0.025969181 96
-0.85751778 1.2825727 0.078503937 74
-0.86906284 1.2867771 0.1321281 16
-0.84608549 1.2842128 0.025969181 100
-0.85188133 1.2863475 0.07829459 100
-0.8839857 1.2981725 0.13369691 12
-0.84437269 1.2888396 0.025969181 100
-0.82957071 1.2833319 0.0771432 100
-0.89156288 1.3063989 0.13456847 1
-0.83880967 1.2922959 0.025899371 100
-0.83337873 1.2902534 0.077457212 46
-0.87103301 1.3044143 0.13282534 1
-0.83333129 1.2954782 0.025829561 89
-0.83911425 1.297675 0.077875905 53
-0.83386475 1.295681 0.12951343 7
-0.83326274 1.3012619 0.025864467 74
-0.84089988 1.3041949 0.078085244 57
-0.86168772 1.3121789 0.13230242 43
-0.83522218 1.3072922 0.025934275 74
-0.83167237 1.3059154 0.077666558 72
-0.84502155 1.3110932 0.13090792 86
-0.83324355 1.3123658 0.025934275 90
-0.82226115 1.3080596 0.077247873 59
-0.85601324 1.3212936 0.1321281 100
-0.83701521 1.3191581 0.026038991 99
-0.82789737 1.3155482 0.077666558 80
-0.83565265 1.3186187 0.130385 99
-0.8127144 1.3153228 0.025620133 99
-0.83330578 1.3235629 0.078085244 95
-0.82623345 1.3207327 0.12968774 99
-0.8108986 1.3198388 0.025620133 100
-0.82405514 1.3251543 0.077666558 95
-0.82255226 1.3245471 0.12951343 100
-0.80526811 1.3230746 0.025550323 100
-0.81841058 1.328438 0.077457212 100
-0.83536571 1.3353572 0.13090792 100
-0.78434342 1.3145354 0.17695428 16
-0.80712444 1.3290892 0.025620133 100
-0.79439086 1.3238435 0.076201156 100
-0.82427233 1.3361536 0.13003637 100
-0.77885944 1.317445 0.17646681 16
-0.81614298 1.3386705 0.025829561 100
-0.7923519 1.3287671 0.076201156 100
-0.81483048 1.338124 0.12933913 100
-0.80616659 1.3345177 0.18036664 17
-0.79950112 1.3370008 0.025550323 100
-0.79417425 1.3347628 0.076410495 100
-0.81110221 1.3418751 0.12916481 100
-0.79879671 1.336705 0.17963541 22
-0.78268796 1.3356924 0.025271084 100
-0.80312616 1.344368 0.077038527 81
-0.80532902 1.3453031 0.12881619 100
-0.75651032 1.3245807 0.17427316 20
-0.81021482 1.3527079 0.025829561 64
-0.80121404 1.3488519 0.077038527 42
-0.81440228 1.3545017 0.12986206 46
-0.77291113 1.3367271 0.17671055 11
-0.81000787 1.3582461 0.025864467 71
-0.79918522 1.353565 0.077038527 76
-0.8342976 1.3687522 0.13195379 35
-0.78367847 1.3468579 0.17841671 8
-0.80804974 1.3627529 0.025864467 100
-0.79907316 1.3588349 0.0771432 100
-0.81039208 1.3637753 0.12986206 97
-0.78357762 1.3520715 0.17866045 19
-0.78940004 1.3604665 0.025550323 100
-0.80787128 1.3686094 0.077771232 100
-0.81549913 1.3719721 0.1305593 100
-0.79233378 1.3617599 0.18012288 33
-0.78560752 1.3640922 0.025515418 100
-0.81317812 1.3763559 0.078189917 100
-0.80257279 1.3716385 0.12951343 100
-0.77222651 1.3581402 0.1776855 31
-0.7943657 1.3738999 0.025724847 100
-0.80183715 1.3772562 0.077666558 100
-0.80762833 1.3798575 0.13021068 100
-0.75738651 1.3572886 0.17597933 22
-0.79599839 1.3800056 0.025794657 100
-0.80163521 1.38256 0.077771232 100
-0.81285745 1.387646 0.13090792 100
-0.77351254 1.3698149 0.17841671 17
-0.79749793 1.3863637 0.025864467 100
-0.80312127 1.388936 0.077980578 100
-0.8106932 1.3923995 0.13090792 100
-0.76599509 1.371954 0.1776855 16
-0.79726225 1.3916667 0.025899371 100
-0.81375593 1.3992774 0.078713275 100
-0.79776722 1.3918997 0.12986206 100
-0.792831 1.389622 0.18158533 12
-0.7859115 1.3923781 0.025724847 100
-0.80962986 1.4034281 0.07860861 100
-0.7990908 1.3985181 0.13021068 100
-0.77435642 1.3869948 0.17939167 10
-0.79107958 1.4002067 0.025864467 100
-0.80571431 1.4070839 0.078503937 100
-0.80781847 1.4080727 0.13125655 100
-0.745354 1.3787191 0.17573559 5
-0.79790586 1.409168 0.026038991 100
-0.79987293 1.4101008 0.07829459 100
-0.80918342 1.4145157 0.13160518 100
-0.76474506 1.3934435 0.17866045 3
-0.80119079 1.4162227 0.026143705 100
-0.80314821 1.4171588 0.07860861 100
-0.80524117 1.4181598 0.13143086 100
-0.79160994 1.4176931 0.026004085 100
-0.80976027 1.4264557 0.079131968 100
-0.80106229 1.4222565 0.13125655 100
-0.78046507 1.4177618 0.025829561 100
-0.80757588 1.4309611 0.079131968 100
-0.80605727 1.4302218 0.13195379 100
-0.79243964 1.4296894 0.0261088 100
-0.79976672 1.43329 0.078817949 100
-0.81435722 1.4404598 0.13299966 100
-0.79741174 1.4376889 0.02624842 100
-0.79577011 1.4368755 0.078713275 100
-0.8156969 1.4467498 0.13334829 100
-0.79853255 1.4444119 0.02631823 100
-0.80224854 1.4462702 0.079236634 100
-0.80607933 1.4481862 0.13265105 100
-0.7891466 1.4452785 0.02617861 100
-0.80534858 1.4534485 0.079550654 100
-0.80738097 1.4544735 0.13299966 100
-0.790227 1.4519961 0.02624842 100
-0.8099547 1.4620348 0.079969339 100
-0.81019026 1.4621546 0.1335226 100
-0.79151648 1.4582622 0.02631823 100
-0.8005442 1.462894 0.079550654 100
-0.80788749 1.4666615 0.1335226 100
-0.79596657 1.4670868 0.026457848 99
-0.79077965 1.4644005 0.079131968 100
-0.80874091 1.4737028 0.13387123 100
-0.79719275 1.4733975 0.026527658 100
-0.79909235 1.4743892 0.07976 100
-0.80639988 1.4782047 0.13387123 100
-0.79131371 1.4759982 0.026457848 96
-0.80028385 1.4807196 0.079969339 100
-0.79699165 1.4789867 0.13317397 100
-0.78896517 1.4804423 0.026457848 41
-0.79439098 1.4833212 0.07976 38
-0.7963931 1.4843835 0.13334829 78
0.15063483 1.2674208 0.011134636 12
0.13861737 1.2823889 0.03443706 27
0.098457694 1.3324089 0.063100755 19
0.13824674 1.2828505 0.12784202 17
0.20351222 1.2015605 0.1277722 8
0.12548158 1.2987499 0.18169098 6
0.15486655 1.2656845 0.011064826 38
0.17277738 1.2432158 0.031715591 61
0.15879405 1.2607576 0.054908119 50
0.14537832 1.2775872 0.079702549 13
0.15844053 1.261201 0.099492319 12
0.14493451 1.2781439 0.12631555 64
0.19530302 1.214958 0.13137141 15
0.15984294 1.2594417 0.16771474 15
0.16156328 1.2607887 0.010925206 100
0.16203651 1.2601907 0.032762308 100
0.16174597 1.2605579 0.054733805 100
0.15208039 1.2727702 0.078727596 28
0.17241672 1.2470753 0.096363634 25
0.16254988 1.2595421 0.12135452 100
0.1847645 1.2314739 0.13587044 38
0.15196252 1.2729192 0.17185585 29
0.16698539 1.2574246 0.010820492 100
0.16992009 1.2536899 0.032238949 100
0.1486885 1.2807093 0.056825545 100
0.15751734 1.2694736 0.077996381 28
0.17896634 1.2421776 0.095112152 38
0.17032614 1.2531731 0.11944643 100
0.18276542 1.2373428 0.13722014 45
0.15252686 1.2758245 0.17237349 42
0.16974917 1.2570492 0.010785587 100
0.17881605 1.2454357 0.031610917 92
0.16010362 1.2694038 0.055431053 100
0.17008281 1.2566218 0.075802729 15
0.17315784 1.2526832 0.096989371 25
0.17909491 1.2450786 0.11715672 100
0.19023159 1.230814 0.13497064 30
0.15174022 1.2801162 0.17340876 42
0.16777638 1.263115 0.010890301 91
0.18047789 1.2467285 0.031610917 61
0.15818745 1.275486 0.055953987 73
0.17908052 1.2485313 0.074340299 30
0.16516361 1.2664858 0.099492319 24
0.1807555 1.2463704 0.11715672 39
0.19303617 1.2305268 0.13452072 31
0.14997277 1.2860839 0.17496167 35
0.17080557 1.2629277 0.010855397 65
0.17370313 1.259161 0.032343622 60
0.16611686 1.2690227 0.055082429 50
0.18446803 1.2451674 0.073609084 46
0.18625706 1.2428417 0.094486415 39
0.18250397 1.2477206 0.11715672 13
0.18403262 1.2457334 0.13856985 22
0.14833325 1.2921402 0.1765146 55
0.17252851 1.2642484 0.010855397 52
0.16571486 1.2731699 0.033180997 28
0.17269832 1.2640259 0.054385185 51
0.16444123 1.2748375 0.077996381 57
0.19630262 1.2331194 0.092296332 53
0.18894023 1.2427595 0.11563025 20
0.19752353 1.2315207 0.13407083 31
0.17126432 1.2659036 0.16719711 60
0.18383723 1.2527515 0.010576159 54
0.16979954 1.2712588 0.032971654 29
0.1731346 1.2668619 0.054559495 50
0.18651119 1.2492261 0.073852822 77
0.19306526 1.2405851 0.093547814 52
0.20356074 1.2267479 0.11143246 14
0.20258895 1.228029 0.13272113 47
0.17641327 1.2625393 0.16564418 68
0.18793038 1.2508317 0.010506349 40
0.17876011 1.2630099 0.032343622 30
0.17487127 1.2681744 0.054559495 50
0.19535086 1.2409773 0.072390392 63
0.1911453 1.2465622 0.094486415 52
0.20633814 1.2263861 0.11105084 14
0.20536211 1.2276822 0.13227122 39
0.18045899 1.2607539 0.16460891 69
0.18011892 1.2649703 0.010785587 65
0.18056956 1.2643673 0.032343622 30
0.17789236 1.2679499 0.054385185 51
0.17569032 1.2708967 0.076777689 100
0.20353663 1.233633 0.091670595 81
0.19978672 1.2386512 0.11372216 13
0.2163741 1.216454 0.128672 32
0.17763451 1.2682949 0.16667947 67
0.18065754 1.2678645 0.010820492 78
0.19895715 1.243197 0.030878214 31
0.18438107 1.2628452 0.053687938 52
0.19163379 1.2530687 0.073852822 77
0.21221876 1.2253207 0.089793384 83
0.19674587 1.2461778 0.11524864 13
0.21329027 1.2238762 0.13047162 32
0.18398017 1.2633857 0.16460891 69
0.19179928 1.2562069 0.010541254 81
0.20645151 1.2363186 0.030354854 65
0.18365389 1.2672631 0.054036561 77
0.18852794 1.2606473 0.074827775 76
0.20201379 1.2423421 0.092922069 100
0.19599792 1.2505078 0.11601187 13
0.21017376 1.2312661 0.13227122 23
0.18905586 1.2599306 0.163056 70
0.19341359 1.257392 0.010541254 81
0.2021032 1.2455149 0.030878214 63
0.18412846 1.2700832 0.054210871 100
0.199534 1.2490265 0.072877869 78
0.20591483 1.2403049 0.092296332 100
0.20338947 1.2437568 0.11410378 13
0.2312665 1.2056537 0.12462288 16
0.18954185 1.262684 0.16357364 69
0.19511706 1.2586337 0.010541254 95
0.21315461 1.2337981 0.03004084 66
0.19290119 1.2616848 0.053165004 100
0.2082074 1.2406099 0.071415432 80
0.20407614 1.2462981 0.093234941 92
0.20619899 1.2433752 0.11372216 13
0.23622465 1.2020333 0.12327318 8
0.19239905 1.2623762 0.163056 70
0.19439992 1.2630517 0.010611063 94
0.21703109 1.2316728 0.029831495 66
0.18520996 1.2757939 0.054559495 100
0.20048031 1.254621 0.073365346 93
0.21259058 1.2378297 0.09135773 94
0.21466115 1.2349588 0.11143246 14
0.23309934 1.2093936 0.12507279 16
0.1872535 1.2729604 0.16616182 83
0.19388187 1.267604 0.010680873 93
0.21058887 1.2442594 0.030564198 97
0.1963425 1.2641658 0.053165004 100
0.19648248 1.2639701 0.074584037 91
0.21430752 1.2390633 0.09135773 100
0.21293986 1.2409743 0.1125773 13
0.23924845 1.2042133 0.12327318 17
0.18685079 1.2774286 0.16719711 82
0.20480102 1.2557422 0.010401634 97
0.21563435 1.2404982 0.030250182 98
0.19336653 1.271832 0.053862248 100
0.20272219 1.2586673 0.073609084 77
0.21929774 1.2353432 0.090419121 100
0.21222895 1.24529 0.11334054 20
0.23278797 1.2163607 0.12642249 16
0.20420265 1.2565842 0.15995017 80
0.21119329 1.2504672 0.010262015 98
0.22081408 1.2368238 0.029936166 99
0.19520822 1.2731358 0.053862248 100
0.20909151 1.2534477 0.072634131 63
0.21531358 1.2446241 0.091983467 93
0.21057904 1.2513382 0.1144854 54
0.2231957 1.2334464 0.13092151 32
0.19596866 1.2720575 0.16460891 77
0.20820051 1.2581402 0.010401634 83
0.22350949 1.2362767 0.029831495 99
0.19687864 1.2743096 0.053862248 100
0.21752816 1.2448189 0.071171694 65
0.21802238 1.2441132 0.091670595 100
0.20429453 1.2637186 0.11715672 99
0.22920534 1.2281423 0.1291219 56
0.20760804 1.2589864 0.15995017 80
0.20542806 1.2659587 0.010541254 95
0.22636026 1.2358301 0.029726824 100
0.1987294 1.2756004 0.053862248 100
0.21700543 1.2492949 0.071659178 64
0.22539777 1.2372154 0.090106249 96
0.22178888 1.2424098 0.11181407 84
0.22421533 1.2389174 0.13182132 94
0.19948226 1.2745168 0.16460891 69
0.20934567 1.2638066 0.010471444 96
0.22790679 1.2369007 0.029726824 100
0.21172163 1.2603624 0.052119136 100
0.22197834 1.2454945 0.070927955 97
0.23143572 1.2317853 0.088854775 98
0.21778315 1.2515757 0.11372216 89
0.231305 1.2319747 0.12957181 80
0.21322411 1.2581844 0.15891489 73
0.21115783 1.2650518 0.010471444 82
0.22849214 1.2397263 0.029831495 66
0.21352115 1.2615989 0.052119136 100
0.21811718 1.2548841 0.072146654 79
0.22085726 1.2508808 0.092296332 100
0.22287712 1.2479298 0.1125773 100
0.22749689 1.2411803 0.13182132 94
0.22047144 1.2514446 0.1563267 74
0.21954533 1.2562493 0.010262015 84
0.22219318 1.2523531 0.030564198 64
0.21067366 1.2693036 0.05281638 79
0.22865325 1.2428474 0.07019674 66
0.22467437 1.248702 0.091670595 100
0.23329189 1.2360219 0.10952436 85
0.22577509 1.2470825 0.13317102 100
0.2188122 1.257328 0.15787962 73
0.21118072 1.2723203 0.010576159 40
0.24286541 1.2253457 0.028784776 34
0.21353275 1.2688332 0.05264207 53
0.23030576 1.2439662 0.07019674 82
0.2296612 1.2449218 0.090731993 100
0.2283335 1.2468902 0.11181407 98
0.23833963 1.2320555 0.128672 97
0.20863226 1.2760985 0.16357364 69
0.21952462 1.2634718 0.010366729 41
0.21992725 1.2628707 0.031087559 31
0.2151888 1.2699462 0.05264207 53
0.23187923 1.2450237 0.07019674 66
0.23673376 1.2377748 0.089167647 100
0.22882426 1.2495855 0.11219569 100
0.23770484 1.2363248 0.12957181 96
0.21676219 1.2675968 0.1604678 72
0.21912226 1.2680111 0.010436539 41
0.23499912 1.2441144 0.029831495 33
0.2225363 1.2628725 0.051770512 54
0.22922829 1.2528002 0.071171694 65
0.24282297 1.2323387 0.087916173 100
0.22949773 1.2523947 0.1125773 89
0.24049452 1.2358432 0.1291219 96
0.21965727 1.2672057 0.15995017 72
0.22517988 1.2624285 0.010296919 28
0.21457821 1.2785008 0.031924933 30
0.21978426 1.2706083 0.052467756 53
0.23301718 1.2505472 0.070684217 81
0.24327013 1.2350037 0.088229038 98
0.24190938 1.2370665 0.10876112 94
0.24311405 1.2352402 0.128672 97
0.22662652 1.2602354 0.15736198 74
0.22808188 1.2619424 0.010262015 28
0.20550793 1.2964391 0.032971654 29
0.21834841 1.2768167 0.05299069 52
0.23804149 1.2467226 0.069953002 99
0.24281323 1.2394307 0.088854775 98
0.23932332 1.2447637 0.1102876 99
0.23948601 1.2445152 0.13092151 88
0.22630987 1.2646503 0.15839726 73
0.23080438 1.2613304 0.01022711 42
0.22466481 1.2707808 0.031296901 31
0.22871432 1.2645476 0.051596198 54
0.23854262 1.2494191 0.07019674 66
0.24329543 1.2421032 0.089167647 98
0.24196893 1.244145 0.10990598 85
0.24743113 1.2357372 0.12822211 89
0.22479463 1.270581 0.15995017 72
0.23477384 1.2591352 0.0101573 42
0.25246882 1.231678 0.028784776 34
0.22837049 1.2690713 0.051944822 54
0.24460322 1.243883 0.069221787 67
0.24930817 1.2365824 0.087916173 84
0.23201022 1.2634236 0.11410378 100
0.25230712 1.2319289 0.12687239 99
0.23291054 1.2620265 0.15684435 74
0.23424226 1.2635468 0.01022711 42
0.24323785 1.2494862 0.029831495 66
0.23217469 1.2667785 0.051596198 54
0.23975754 1.2549261 0.070684217 81
0.25298619 1.234249 0.087290429 71
0.24634463 1.2446301 0.10952436 78
0.25279036 1.2345551 0.1273223 89
0.23246169 1.26633 0.15787962 73
0.23811057 1.2612696 0.0101573 71
0.2459839 1.248868 0.029726824 100
0.24031794 1.2577927 0.05055033 56
0.24677193 1.2476267 0.069465525 49
0.25672603 1.2319477 0.086664692 57
0.24589872 1.2490021 0.1102876 99
0.25859168 1.2290089 0.12552269 74
0.23730239 1.2625425 0.1563267 66
0.24613848 1.2521505 0.0099478718 87
0.24757355 1.2498734 0.029726824 100
0.23981264 1.2621881 0.050898954 83
0.25470784 1.2385532 0.068003096 51
0.25194022 1.2429447 0.08854191 84
0.25690958 1.2350596 0.10685304 88
0.24972528 1.2464592 0.13002171 96
0.23275739 1.2733829 0.15943253 65
0.23828092 1.2684675 0.010262015 84
0.25348639 1.2441525 0.029308135 100
0.23836342 1.2683356 0.051421888 82
0.25003004 1.2496796 0.069465525 49
0.25568768 1.2406325 0.087916173 56
0.24916622 1.251061 0.1102876 85
0.26172277 1.2309818 0.12552269 90
0.23861367 1.2679355 0.15736198 66
0.24626347 1.2593046 0.010052586 86
0.2592738 1.2383456 0.028889447 100
0.23476374 1.2778301 0.052293446 80
0.25581011 1.2439255 0.068490572 50
0.26350087 1.231536 0.086038955 58
0.25904649 1.2387118 0.10723466 73
0.26839188 1.2236569 0.12327318 85
0.23619115 1.2755306 0.15943253 65
0.25330094 1.2519004 0.0098780617 88
0.25889805 1.2428095 0.029098792 100
0.24602833 1.2637126 0.05072464 84
0.2471416 1.2619045 0.070927955 97
0.26519439 1.232583 0.086038955 58
0.25356126 1.2514776 0.10990598 92
0.26699141 1.2296643 0.12462288 92
0.24412313 1.2668071 0.1563267 66
0.24977261 1.2614655 0.010052586 86
0.26055023 1.2438228 0.029098792 100
0.2487922 1.2630705 0.05055033 84
0.25610444 1.2511005 0.069221787 33
0.26681086 1.2335744 0.086038955 58
0.2583141 1.2474834 0.10876112 79
0.26554999 1.2356384 0.12597258 82
0.24988753 1.2612774 0.15425615 67
0.2567569 1.2540113 0.0098780617 88
0.26021898 1.248297 0.029308135 100
0.24234214 1.2778034 0.051944822 81
0.25889835 1.2504767 0.068978049 50
0.26441747 1.2413671 0.087290429 57
0.26108345 1.24687 0.10837951 87
0.26422918 1.2416779 0.1273223 81
0.24568394 1.2722876 0.15736198 66
0.25947842 1.2533181 0.0098431576 88
0.26600614 1.2424583 0.028889447 100
0.25027531 1.2686285 0.050898954 100
0.25955459 1.2531912 0.069221787 33
0.26606458 1.2423611 0.087290429 71
0.25769258 1.256289 0.1102876 85
0.27190119 1.2326512 0.12462288 100
0.24644384 1.2750026 0.15787962 73
0.26116729 1.2543292 0.0098431576 88
0.26765707 1.2434468 0.028889447 100
0.24589476 1.2799389 0.051944822 81
0.27039379 1.2388577 0.067028143 51
0.2697387 1.2399561 0.086664692 86
0.26844189 1.2421308 0.10685304 66
0.28050473 1.2219031 0.12147357 86
0.24919796 1.2744 0.15736198 66
0.25471383 1.2691028 0.010122396 85
0.26931143 1.2444295 0.028889447 100
0.25782171 1.2638497 0.050201707 85
0.2599026 1.2603326 0.069953002 49
0.27540424 1.2341311 0.085413218 73
0.25809559 1.2633868 0.11143246 91
0.28208384 1.2228411 0.12147357 77
0.26184145 1.2570555 -0.0098780617 87
0.26374835 1.2538323 0.15063268 70
0.26657999 1.2528846 0.0097733475 89
0.26692528 1.2522963 0.029308135 100
0.27064103 1.2459655 0.048284281 100
0.26463041 1.2562063 0.069221787 67
0.27602613 1.2367904 0.08572609 58
0.27174482 1.2440848 0.10685304 73
0.27774763 1.2338574 0.12417299 92
0.26152748 1.261493 0.15270324 68
0.2682673 1.253871 0.0097733475 89
0.27263039 1.2463775 0.028889447 100
0.25526145 1.2762083 0.051247578 82
0.26932585 1.2520529 0.068490572 50
0.27865115 1.2360369 0.085413218 58
0.26846212 1.2535363 0.10876112 87
0.2823101 1.2297527 0.12282328 85
0.25935668 1.2691748 0.15477379 67
0.27078956 1.2530224 0.0097384425 75
0.27212927 1.2507048 0.029098792 100
0.26283577 1.2667822 0.050201707 85
0.27084163 1.2529323 0.068490572 50
0.27220792 1.2505687 0.087916173 56
0.26605251 1.2612174 0.1102876 85
0.28278053 1.2322786 0.12327318 85
0.2589927 1.2734305 0.15580906 67
0.26849851 1.2609332 0.0098780617 88
0.27579591 1.2482066 0.028889447 100
0.25466093 1.2850657 0.051944822 81
0.27450398 1.2504597 0.068003096 51
0.2846958 1.2326853 0.084474608 59
0.27460498 1.2502835 0.10761628 79
0.28827325 1.2264464 0.12147357 86
0.26075178 1.2744431 0.15580906 67
0.26823661 1.2653892 0.0099478718 73
0.27549195 1.252633 0.029098792 100
0.2741912 1.2549199 0.048807215 100
0.27421993 1.2548695 0.068490572 50
0.28631249 1.2336086 0.084474608 59
0.27434188 1.254655 0.10837951 87
0.28505087 1.2358267 0.12372308 75
0.2702139 1.2619127 -0.0098780617 87
0.26633477 1.2687329 0.15373851 68
0.2817584 1.2454699 0.0095290141 76
0.2791411 1.2501092 0.028889447 100
0.27294862 1.2610855 0.049330149 87
0.2759141 1.2558291 0.068490572 50
0.28404993 1.2414081 0.08572609 58
0.27892932 1.2504845 0.10723466 88
0.29338124 1.2248678 0.12057377 77
0.27377281 1.2596247 0.15063268 70
0.28065842 1.2517326 0.0096337283 90
0.28098658 1.2511456 0.028889447 100
0.2748363 1.2621458 0.049330149 87
0.27584407 1.2603433 0.068978049 50
0.28296992 1.2475983 0.086664692 57
0.28556672 1.2429538 0.10532656 82
0.28847265 1.2377564 0.12372308 75
0.27376935 1.2640541 0.15166797 69
0.2794323 1.2579162 0.0097384425 75
0.28460491 1.2485884 0.028680105 100
0.27269095 1.2700729 0.050027397 85
0.28237084 1.2526171 0.067759357 51
0.28942859 1.2398899 0.085100345 58
0.2815066 1.2541757 0.10761628 79
0.29483235 1.2301452 0.12147357 86
0.2717481 1.2717731 0.15373851 68
0.27710932 1.2657712 0.0098780617 73
0.29188836 1.2389216 0.028052073 100
0.27426335 1.2709416 0.050027397 85
0.28388834 1.2534555 0.067759357 51
0.28995353 1.2424366 0.085413218 58
0.28492242 1.2515769 0.10685304 88
0.29815862 1.2275302 0.12057377 86
0.27710932 1.2657712 -0.0098780617 87
0.27146271 1.2760296 0.15477379 67
0.27979973 1.2649655 0.0098431576 88
0.28778484 1.2503381 0.028680105 100
0.27792296 1.2684035 0.049678773 86
0.28367522 1.2578663 0.068246834 68
0.29444373 1.23814 0.084474608 59
0.2790795 1.2662849 0.10990598 85
0.29882348 1.230117 0.12102367 77
0.28267419 1.2596999 -0.0097384425 88
0.28433856 1.256651 0.14856213 79
0.28741071 1.2554462 0.0096337283 90
0.29343215 1.2443144 0.028261416 100
0.2807866 1.2676921 0.049504463 57
0.28743938 1.2553933 0.067759357 51
0.29624316 1.2391177 0.084474608 59
0.2865915 1.2569606 0.10761628 79
0.29966488 1.232792 0.12147357 86
0.28265366 1.2642405 -0.0098082526 88
0.28437087 1.261066 0.14959741 70
0.28721631 1.2598842 0.0097035384 90
0.28942469 1.2557673 0.028889447 100
0.29100183 1.2528272 0.047935657 89
0.29101205 1.2528081 0.067271881 51
0.298816 1.2382599 0.084161744 59
0.29664528 1.2423066 0.10418171 67
0.28243384 1.2687998 0.15166797 69
0.28892791 1.2607985 0.0097035384 90
0.29674971 1.246094 0.028261416 100
0.29081744 1.2572464 0.048284281 88
0.29642794 1.246699 0.06629692 52
0.29859668 1.2426219 0.084787481 59
0.29552948 1.2483879 0.10532656 75
0.28689834 1.264614 0.15011504 78
0.29344153 1.2564006 0.0095988233 76
0.2928223 1.2575746 0.028889447 100
0.28508356 1.2722462 0.049678773 86
0.29161057 1.2598718 0.068003096 51
0.29536906 1.2527463 0.1060898 81
0.28597802 1.2705505 -0.0098780617 87
0.28231746 1.2774904 0.15373851 76
0.29126135 1.2642908 0.0097384425 75
0.29220667 1.2624849 0.048632905 88
0.290389 1.2659574 0.068734311 50
0.29597643 1.2552832 0.10647142 73
0.28749678 1.2714827 0.15166797 69
0.29759863 1.2563082 0.047935657 89
0.29943749 1.2527652 0.066784397 52
0.28746119 1.2758403 -0.0099478718 96
0.29458848 1.262108 0.14856213 79
0.29573739 1.264317 0.048632905 59
0.28931695 1.2767992 -0.0099478718 96
0.29992846 1.2561691 0.14649157 72
0.29384384 1.2723012 0.049330149 58
0.29811645 1.263923 0.14856213 71
0.29371244 1.2767037 0.049678773 57
0.29452416 1.2750989 0.15166797 77
0.29634205 1.2758815 -0.0098780617 100
0.2964184 1.2803894 -0.0099478718 100
0.29731801 1.2830654 -0.0099827768 100
