# .PCD v0.7 - Point Cloud Data file format
VERSION 0.7
FIELDS x y z intensity
SIZE 4 4 4 4
TYPE F F F F
COUNT 1 1 1 1
WIDTH 748
HEIGHT 1
VIEWPOINT 0 0 0 1 0 0 0
POINTS 748
DATA ascii
-1.1743078 0.16482921 0.020698555 22
-1.1044497 0.15895689 0.019476885 4
-1.028713 0.15172367 0.018150503 6
-1.0202681 0.1541189 0.018010883 4
-1.0651767 0.16470771 0.018813694 1
-1.0193145 1.1285563 0.028098375 3
-1.0154555 1.1276746 0.084156215 5
-1.0291195 1.1307966 0.14171524 6
-1.0200012 1.1344843 0.028133279 8
-0.9908511 1.1277169 0.082900152 16
-1.0220282 1.1349548 0.1411923 34
-0.99536365 1.1344543 0.027714422 26
-0.99348086 1.1340102 0.083109498 84
-1.0246232 1.1413547 0.14154093 81
-0.98824805 1.138449 0.027609708 38
-0.99802786 1.1407914 0.083423518 100
-1.0078166 1.143136 0.14014643 87
-0.97335118 1.1405081 0.027365373 48
-0.979258 1.1419446 0.082481466 100
-0.99876076 1.1466882 0.13944919 91
-0.97780687 1.1475281 0.027470088 25
-0.98564023 1.1494637 0.082900152 99
-0.99350137 1.1514062 0.13910057 91
-0.97454017 1.1523724 0.027435184 23
-0.98430628 1.1548218 0.082900152 56
-0.99602562 1.1577611 0.13944919 84
-0.97125822 1.1571984 0.027400278 38
-0.98101813 1.1596825 0.082795486 35
-1.0023859 1.1651212 0.14014643 74
-0.96602505 1.1615062 0.027330469 57
-0.98544997 1.1665225 0.083109498 56
-0.98556441 1.1665522 0.13875194 94
-0.9607113 1.1660459 0.027260659 67
-0.97625846 1.1701217 0.082690813 100
-0.96868259 1.1681356 0.13735744 92
-0.9496569 1.1687475 0.027086135 78
-0.97099203 1.1744205 0.082481466 90
-0.9711346 1.1744583 0.13770607 99
-0.95225865 1.1744968 0.027155945 81
-0.95621401 1.1755618 0.081748761 96
-0.97562808 1.1807892 0.13822901 100
-0.95469564 1.1807914 0.027225753 93
-0.94515544 1.1781869 0.081225403 100
-0.96841866 1.1845379 0.13770607 99
-0.95703429 1.1873711 0.027295563 92
-0.94364935 1.1836642 0.081225403 100
-0.96688908 1.1901004 0.13770607 92
-0.9478671 1.1904674 0.027155945 93
-0.94411916 1.1894152 0.081330076 86
-0.94814926 1.1905465 0.13613728 94
-0.94076806 1.1935315 0.027051231 74
-0.94087297 1.1935613 0.081225403 80
-0.95257026 1.1968845 0.1366602 100
-0.95657545 1.2037115 0.027365373 55
-0.93362743 1.1971052 0.08091139 44
-0.95107108 1.2021269 0.1366602 99
-0.95121282 1.207848 0.027295563 45
-0.91678852 1.1978077 0.080074012 24
-0.959117 1.2101532 0.13753176 85
-0.93433338 1.2085526 0.027016325 68
-0.9172017 1.203491 0.080178685 28
-0.94610697 1.2120311 0.13648589 85
-0.91547519 1.2088274 0.026702182 75
-0.92325634 1.2111573 0.080597371 32
-0.93111616 1.213511 0.13526571 92
-0.91584808 1.2145205 0.026737086 78
-0.92553002 1.2174566 0.080806717 80
-0.92955905 1.2186784 0.13526571 100
-0.91054255 1.2182057 0.026667276 78
-0.90494436 1.2164876 0.07976 100
-0.92806298 1.2235823 0.13526571 99
-0.91278845 1.2244878 0.026737086 89
-0.90528423 1.2221563 0.079864666 91
-0.9302761 1.2299212 0.13561434 80
-0.92263836 1.233191 0.026946515 85
-0.90369707 1.2272334 0.079864666 74
-0.91535741 1.230901 0.13439415 52
-0.89814717 1.2310489 0.026527658 81
-0.90209216 1.2323049 0.079864666 74
-0.90424722 1.2329911 0.1335226 46
-0.8965289 1.2361012 0.026527658 79
-0.90427166 1.238596 0.080074012 84
-0.90072578 1.2374535 0.13334829 48
-0.89117283 1.2396562 0.026457848 93
-0.89321488 1.2403218 0.079550654 100
-0.91242808 1.246583 0.13456847 57
-0.88952464 1.244684 0.026457848 100
-0.88777071 1.2441057 0.079341307 100
-0.91832429 1.2541807 0.13526571 80
-0.88794261 1.249455 0.026457848 100
-0.88808531 1.2495027 0.07944598 100
-0.90726012 1.2558961 0.13439415 85
-0.87093431 1.2498543 0.02617861 96
-0.89001817 1.256299 0.079655327 99
-0.88650709 1.2551134 0.13265105 82
-0.87312013 1.2558558 0.02624842 96
-0.89595813 1.2636528 0.080074012 100
-0.8962037 1.2637366 0.13369691 91
-0.86385483 1.2582097 0.0261088 89
-0.87723523 1.26283 0.079131968 100
-0.89447147 1.2687818 0.13369691 94
-0.86789209 1.2648724 0.026213514 75
-0.86616462 1.2642696 0.07860861 97
-0.89845282 1.2755387 0.13421984 59
-0.86041206 1.2680683 0.0261088 52
-0.85492712 1.2661314 0.078085244 55
-0.89846891 1.2815076 0.13439415 35
-0.87381953 1.2781196 0.026388038 12
-0.85327417 1.2707876 0.078085244 23
-0.88362938 1.2816205 0.13317397 39
-0.2832312 1.0708033 0.015462833 21
-0.86457938 1.2806748 0.078817949 44
-0.87237448 1.2834889 0.13230242 28
-0.26156431 1.066027 0.015078879 100
-0.85537285 1.2826252 0.078399263 82
-0.87815088 1.2909338 0.13299966 15
-0.26234996 1.0696917 0.015113784 50
-0.84786314 1.2856989 0.078085244 100
-0.88557822 1.2996128 0.13387123 10
-0.26509923 1.0737805 0.015183593 74
-0.83304471 1.285449 0.077352546 91
-0.87261242 1.3001957 0.13282534 1
-0.24901062 1.0711243 0.014904355 55
-0.83675307 1.2926278 0.077666558 46
-0.87065953 1.3054062 0.13282534 1
-0.2498765 1.0744838 0.01493926 40
-0.84061211 1.2993553 0.077980578 51
-0.83535951 1.2973557 0.12968774 11
-0.25062138 1.0781317 0.014974165 100
-0.83120674 1.301579 0.077561885 63
-0.85944945 1.3124486 0.1321281 48
-0.27196151 1.0894783 0.015393022 38
-0.83315951 1.3076034 0.077771232 72
-0.865071 1.3200067 0.13282534 100
-0.26711869 1.0908835 0.015323213 100
-0.82755643 1.3109682 0.077561885 59
-0.83903378 1.3154753 0.1305593 100
-0.24188459 1.0840089 0.014869451 75
-0.82389826 1.3147972 0.077457212 82
-0.82795686 1.3164065 0.12968774 99
-0.23887223 1.0861654 0.014834546 50
-0.8311618 1.323544 0.077980578 91
-0.82594484 1.3214533 0.12968774 99
-0.22855097 1.0850292 0.014660021 46
-0.81820995 1.3236263 0.077352546 95
-0.83519012 1.330497 0.13073361 100
-0.2347948 1.0909082 0.014799641 51
-0.81247431 1.3271253 0.0771432 100
-0.83312649 1.3355702 0.13073361 100
-0.24111998 1.0965608 0.01493926 42
-0.80323464 1.3285922 0.076724514 100
-0.82203513 1.3363527 0.12986206 100
-0.80967039 1.3312488 0.18061037 21
-0.23438096 1.0971489 0.014834546 50
-0.80486494 1.3350859 0.076933853 100
-0.81259471 1.3383098 0.12916481 100
-0.78378659 1.3262947 0.17744176 20
-0.23507714 1.1006612 0.014869451 50
-0.80288416 1.3398118 0.076933853 100
-0.81060261 1.3430626 0.12916481 100
-0.80013114 1.3386524 0.17987914 31
-0.22287703 1.0987039 0.014660021 53
-0.79537314 1.3421857 0.076619841 78
-0.81409436 1.350148 0.12968774 100
-0.75977629 1.3270465 0.17476064 16
-0.23826188 1.1085011 0.014974165 54
-0.80621403 1.3523951 0.077352546 40
-0.81206101 1.354906 0.12968774 35
-0.77241606 1.3378813 0.17671055 5
-0.24447429 1.1142937 0.015113784 51
-0.80610782 1.3576834 0.077457212 89
-0.82291061 1.3649652 0.13090792 45
-0.79238254 1.3517355 0.17963541 12
-0.23777157 1.1146603 0.01500907 48
-0.81502694 1.3672169 0.078085244 100
-0.8098734 1.3649622 0.12986206 100
-0.79216236 1.3572134 0.17987914 28
-0.21827149 1.1093287 0.014660021 46
-0.81476098 1.3727851 0.078189917 100
-0.81507844 1.3729253 0.1305593 100
-0.78102511 1.3578846 0.17866045 33
-0.22804064 1.1168942 0.014869451 50
-0.79805523 1.3710388 0.077352546 100
-0.80932611 1.3760641 0.13021068 100
-0.75902146 1.3536353 0.17597933 24
-0.23594266 1.1237113 0.015043974 70
-0.7995916 1.3773801 0.077561885 100
-0.81446975 1.3840759 0.13090792 100
-0.77326816 1.3655332 0.17817298 19
-0.23652387 1.1272798 0.015078879 70
-0.80655545 1.3862175 0.078085244 100
-0.80324787 1.3847151 0.13003637 100
-0.7820254 1.3750746 0.17963541 22
-0.22800088 1.1266894 0.01493926 73
-0.80984277 1.3934461 0.078399263 100
-0.79928285 1.3886046 0.12986206 100
-0.7835142 1.3813753 0.18012288 15
-0.21949172 1.1260442 0.014799641 82
-0.81853408 1.4032212 0.079027295 100
-0.80615634 1.3974941 0.13073361 100
-0.76515764 1.3785241 0.17792924 11
-0.225555 1.1319768 0.01493926 98
-0.80737752 1.4035325 0.078503937 100
-0.81309515 1.4062011 0.13160518 100
-0.75593728 1.3795235 0.17695428 7
-0.23695028 1.1406462 0.015183593 78
-0.79973716 1.4057137 0.078189917 100
-0.81447095 1.4126532 0.13195379 100
-0.77355629 1.3933827 0.17963541 5
-0.24655432 1.1484022 0.015393022 96
-0.80122977 1.4119 0.078399263 100
-0.80153447 1.4120448 0.13090792 100
-0.78044707 1.4020272 0.18085411 1
-0.22899944 1.1434011 0.015078879 76
-0.80978709 1.4217926 0.079027295 100
-0.79928511 1.4167587 0.13090792 100
-0.22582561 1.1453829 0.015043974 82
-0.81098479 1.4285119 0.079236634 100
-0.80407947 1.4251708 0.13160518 100
-0.21911949 1.145457 0.01493926 73
-0.79970378 1.4288778 0.078713275 100
-0.80894607 1.4333895 0.13230242 100
-0.22325248 1.150655 0.015043974 52
-0.79930335 1.434232 0.078817949 100
-0.81031376 1.4396522 0.13265105 100
-0.238038 1.1613569 0.015358117 69
-0.79876536 1.4398263 0.078922622 100
-0.80796796 1.4443965 0.13265105 100
-0.21872109 1.1552825 0.01500907 72
-0.80522889 1.4492399 0.07944598 100
-0.80548698 1.4493692 0.13265105 100
-0.21737152 1.1579635 0.01500907 72
-0.80997938 1.4575709 0.079864666 100
-0.80310732 1.4540966 0.13265105 100
-0.21957541 1.1624568 0.015078879 70
-0.79689544 1.4568698 0.079236634 100
-0.80603594 1.4615312 0.13317397 100
-0.21997905 1.1660553 0.015113784 63
-0.79804176 1.4633943 0.07944598 100
-0.81778771 1.473551 0.13456847 100
-0.22931266 1.1741298 0.015323213 77
-0.80282718 1.4715385 0.079864666 100
-0.80660361 1.4734969 0.13369691 100
-0.21556324 1.1702268 0.015078879 76
-0.80403322 1.4778714 0.080074012 100
-0.80249757 1.4770687 0.1335226 100
-0.21062374 1.1710315 0.01500907 90
-0.79625386 1.4797992 0.07976 100
-0.80002123 1.4817854 0.1335226 100
-0.21105552 1.17449 0.015043974 76
-0.78683811 1.4805102 0.079341307 25
-0.80117208 1.4881284 0.13387123 52
-0.21478331 1.180245 0.015148689 92
-0.2222138 1.1875345 0.015323213 71
-0.21541166 1.1874893 0.015218498 84
-0.21402305 1.1900252 0.015218498 67
-0.20730531 1.1897812 0.015113784 63
-0.20765483 1.1932654 0.015148689 63
-0.21655136 1.2019295 0.015358117 96
-0.20815927 1.2005193 0.015218498 90
-0.20310569 1.2013077 0.015148689 74
-0.20686716 1.2068013 0.015253403 67
-0.21217424 1.213596 0.015393022 48
-0.2175988 1.2201675 0.015532642 46
-0.20405078 1.2155892 0.015288308 49
-0.20256895 1.2180872 0.015288308 44
-0.20427144 1.2230328 0.015358117 37
-0.20276493 1.2255316 0.015358117 43
-0.20450431 1.2303706 0.015427927 36
-0.18593794 1.222398 0.015078879 35
-0.18945396 1.2281237 0.015183593 50
-0.20150185 1.2390435 0.015462833 47
-0.19808519 1.2407298 0.015427927 42
-0.19820905 1.2442786 0.015462833 42
-0.18812287 1.2415049 0.015288308 38
-0.19328177 1.2482784 0.015427927 36
-0.18313551 1.2455583 0.015253403 16
-0.20164293 1.2611122 0.015672261 14
-0.2081942 1.2729805 0.015881689 40
-0.18631208 1.2625458 0.015462833 21
-0.17638266 1.2593981 0.015288308 33
0.12315676 1.2984263 0.13203983 5
0.15607134 1.2615275 0.010995016 12
0.13781562 1.2843063 0.03454173 27
0.098948658 1.3328028 0.063100755 19
0.1003294 1.33108 0.11388429 9
0.14360556 1.2770817 0.12631555 17
0.19292066 1.2155485 0.13182132 7
0.15977105 1.2569112 0.16719711 7
0.16019425 1.259702 0.010925206 52
0.16688851 1.2512922 0.032238949 60
0.15169173 1.2703835 0.055953987 48
0.16427714 1.2545727 0.076046467 14
0.17600691 1.2398371 0.095112152 12
0.15751624 1.2630663 0.12249938 87
0.18590456 1.2274029 0.13497064 15
0.14935651 1.2733171 0.17237349 14
0.161906 1.2610598 0.010925206 100
0.16609403 1.2557606 0.032448292 100
0.15591159 1.2686446 0.055605363 98
0.16474012 1.2574737 0.076290213 29
0.16540083 1.2566377 0.098240845 36
0.16167441 1.2613528 0.12173614 100
0.18629509 1.2301999 0.13542053 45
0.15351155 1.2716813 0.1713382 43
0.16600597 1.259198 0.010855397 100
0.17387301 1.2491755 0.031924933 100
0.15633714 1.2715158 0.055779677 100
0.17371291 1.2493796 0.074827775 30
0.17189547 1.2516949 0.096989371 25
0.17057917 1.2533718 0.11944643 100
0.19022965 1.2283378 0.13452072 46
0.15398458 1.274513 0.17185585 36
0.16648671 1.2621127 0.010890301 100
0.18045878 1.2441841 0.031506244 93
0.16421375 1.2650293 0.054908119 100
0.16318619 1.2663479 0.077265166 29
0.18086478 1.2436632 0.095112152 38
0.17226878 1.2546934 0.11944643 100
0.18584231 1.2372762 0.13677025 30
0.15337303 1.2789397 0.17289113 35
0.17179263 1.2586377 0.010785587 65
0.18203327 1.245407 0.031506244 62
0.16219893 1.2710326 0.055431053 49
0.17333952 1.2566392 0.07555899 30
0.18001935 1.248009 0.095737889 25
0.17988649 1.2481806 0.11753834 26
0.1826227 1.2446455 0.13856985 29
0.13850868 1.30164 0.18013805 33
0.17610744 1.2569143 0.010715778 66
0.16561529 1.2705779 0.033076324 29
0.16897938 1.266197 0.054733805 50
0.17400184 1.2596563 0.075802729 45
0.19388831 1.2337584 0.092609204 40
0.18411669 1.2464839 0.1167751 19
0.19156906 1.2367789 0.13587044 22
0.15702507 1.281765 0.17289113 64
0.17287365 1.2645117 0.010855397 65
0.15516591 1.2877312 0.034123044 27
0.16700235 1.2722106 0.055256739 49
0.1864616 1.2466943 0.073609084 62
0.18824086 1.2443613 0.094486415 52
0.19879457 1.2305226 0.1125773 13
0.19548237 1.2348658 0.13497064 30
0.17395359 1.2630956 0.16616182 68
0.17693028 1.2625715 0.010785587 39
0.17135543 1.269932 0.032866981 29
0.17227864 1.2687131 0.054733805 50
0.19403702 1.2399851 0.072390392 95
0.18862325 1.247133 0.094799288 64
0.19913831 1.2332498 0.11295892 13
0.20643854 1.2236111 0.13137141 39
0.17442444 1.26588 0.16667947 67
0.17856577 1.2638059 0.010785587 39
0.15380594 1.296723 0.03454173 27
0.16195789 1.2858853 0.056476921 48
0.17889166 1.2633727 0.075802729 100
0.20326924 1.2309637 0.09135773 54
0.20539701 1.2281349 0.11143246 14
0.21263033 1.2185185 0.12957181 40
0.17026454 1.274842 0.16926765 66
0.18046457 1.2652285 0.010785587 52
0.17972034 1.2662258 0.032448292 29
0.18896392 1.2538382 0.05281638 53
0.18672469 1.256839 0.074584037 76
0.20267904 1.235458 0.091983467 53
0.19541752 1.2451894 0.11524864 13
0.21901673 1.2135632 0.1277722 32
0.18606982 1.2577167 0.163056 70
0.18329942 1.2648445 0.010750682 92
0.19801581 1.2449855 0.030982886 63
0.18701166 1.259835 0.053339314 52
0.18006787 1.2692053 0.076290213 100
0.20304835 1.2381943 0.092296332 66
0.19582635 1.2479401 0.11563025 13
0.20888698 1.2303153 0.13227122 31
0.18998954 1.2558166 0.16202073 70
0.18976888 1.2596784 0.010611063 81
0.18547365 1.265517 0.032238949 60
0.18400115 1.2675188 0.054036561 100
0.20181006 1.2433102 0.072146654 79
0.19649082 1.250541 0.094486415 100
0.20564049 1.2381034 0.11295892 13
0.21049586 1.2315032 0.13227122 23
0.19168752 1.2570703 0.16202073 70
0.19375393 1.2576408 0.010541254 81
0.20361346 1.2441448 0.030773543 64
0.17625049 1.2816001 0.055431053 74
0.20103949 1.2476681 0.072634131 63
0.20507798 1.2421402 0.092609204 100
0.20835277 1.2376574 0.1125773 13
0.23846811 1.1964347 0.12192347 17
0.18988588 1.2629355 0.16357364 69
0.19084883 1.2654194 0.010680873 80
0.21473172 1.2324748 0.029936166 66
0.18046692 1.2797403 0.055082429 100
0.20395771 1.2473367 0.072390392 47
0.21376732 1.2338052 0.090731993 95
0.21006912 1.2389065 0.1125773 13
0.22173253 1.2228179 0.1291219 16
0.18942726 1.2673802 0.16460891 69
0.19483033 1.2633618 0.010611063 81
0.21393341 1.2368259 0.030145511 65
0.19030768 1.2696441 0.053862248 100
0.2090219 1.2436485 0.071659178 80
0.21299896 1.2381239 0.09135773 100
0.2093319 1.2432178 0.11334054 13
0.22779015 1.2175777 0.1273223 16
0.19672203 1.2607341 0.16202073 70
0.20361516 1.2548972 0.010401634 97
0.20868096 1.2478057 0.030773543 64
0.19677386 1.2644742 0.053165004 100
0.20614469 1.2513561 0.072634131 78
0.21586522 1.2377486 0.091044858 100
0.21220979 1.2428658 0.11295892 20
0.23396376 1.2124128 0.12552269 16
0.20301473 1.2557378 0.15995017 72
0.20753896 1.2527812 0.010331824 84
0.20795619 1.252193 0.030982886 95
0.20533195 1.2558925 0.052119136 100
0.21922794 1.2363027 0.07019674 49
0.21627527 1.2404653 0.09135773 100
0.21377972 1.2439833 0.11295892 27
0.23092264 1.2198162 0.1273223 16
0.20239198 1.2600371 0.16098544 72
0.20240489 1.2638446 0.010541254 95
0.21547371 1.2452772 0.030459527 97
0.19679421 1.271816 0.053687938 100
0.21636897 1.2440052 0.071171694 81
0.2157279 1.244916 0.091983467 100
0.20421919 1.2612669 0.1167751 66
0.22696522 1.2289506 0.12957181 32
0.2041904 1.2613078 0.16098544 72
0.20862663 1.2584383 0.010401634 83
0.21590745 1.2480209 0.030564198 97
0.1927534 1.2811499 0.054559495 100
0.21453112 1.2499902 0.071902916 48
0.22409433 1.2363071 0.090106249 96
0.20585018 1.2624109 0.1167751 100
0.22848892 1.2300193 0.12957181 72
0.2013948 1.2687857 0.163056 70
0.20121512 1.2727714 0.010680873 93
0.22213182 1.24262 0.030145511 65
0.20589641 1.2660233 0.05281638 100
0.21960312 1.2462652 0.071171694 81
0.23473167 1.2244574 0.087603301 99
0.21876162 1.2474781 0.11295892 82
0.22565356 1.2375435 0.13137141 94
0.21084607 1.2588884 0.15943253 73
0.21422794 1.257457 0.010331824 98
0.21916896 1.250284 0.030564198 97
0.20528272 1.2704432 0.053165004 100
0.21780604 1.2522625 0.071902916 48
0.22615531 1.2401414 0.090419121 100
0.21923313 1.2501907 0.11334054 96
0.22720575 1.2386165 0.13137141 94
0.21575677 1.2552376 0.15787962 73
0.21601683 1.2586844 0.010331824 84
0.21416983 1.2613869 0.03119223 94
0.20487085 1.2749932 0.053513627 100
0.22069594 1.251838 0.071659178 64
0.23122445 1.2364326 0.089480512 97
0.23318067 1.2335702 0.10914274 92
0.22782591 1.2414054 0.13182132 94
0.21753749 1.2564594 0.15787962 73
0.2210077 1.2548251 0.01022711 70
0.2348662 1.2344024 0.029412808 67
0.20542863 1.2777836 0.053687938 78
0.22452486 1.249642 0.071171694 81
0.22057191 1.2554674 0.092922069 100
0.23361731 1.2362428 0.10952436 92
0.23048517 1.2408586 0.13137141 94
0.21047452 1.2703476 0.16202073 70
0.21831983 1.2626629 0.010366729 41
0.22430095 1.2537788 0.030564198 32
0.20617938 1.2806958 0.053862248 51
0.22739366 1.2491851 0.070927955 97
0.23669487 1.2353694 0.088854775 100
0.23313546 1.2406564 0.1102876 92
0.23765466 1.2339438 0.1291219 96
0.20799515 1.2779987 0.16409127 69
0.22226349 1.2604923 0.010296919 42
0.21600509 1.2698587 0.031506244 31
0.21571252 1.2702966 0.05264207 53
0.22575971 1.2552599 0.071659178 80
0.24161363 1.2315328 0.087916173 100
0.22496375 1.2564511 0.11372216 89
0.2371107 1.238272 0.13002171 96
0.22479638 1.2567016 0.15684435 74
0.21955699 1.2682996 0.010436539 27
0.20892143 1.2843378 0.032343622 30
0.22516876 1.2598372 0.051421888 55
0.23403808 1.2464625 0.07019674 82
0.24213484 1.2342528 0.088229038 98
0.23534393 1.2444932 0.11066922 92
0.23874718 1.2393613 0.13002171 96
0.22222662 1.2642739 0.15891489 73
0.23229176 1.252746 0.010087491 43
0.18875894 1.3188925 0.03443706 27
0.22249931 1.2676252 0.052119136 54
0.23133793 1.2541952 0.071171694 65
0.24049935 1.2402749 0.089167647 98
0.24239865 1.237389 0.10876112 94
0.23503083 1.248584 0.13227122 94
0.22926414 1.2573464 0.1563267 82
0.23397878 1.2538521 0.010087491 28
0.20596749 1.2967395 0.032971654 29
0.22205934 1.2721016 0.052467756 53
0.24171415 1.2420087 0.069221787 83
0.2399824 1.2446601 0.089793384 83
0.24403203 1.2384598 0.10876112 87
0.24416277 1.2382597 0.1291219 96
0.22462887 1.2681675 0.15943253 73
0.23349437 1.2583083 0.0101573 42
0.24039793 1.2476574 0.029831495 33
0.2151446 1.2866185 0.053862248 51
0.24336365 1.2430819 0.069221787 67
0.25023651 1.2324784 0.087290429 99
0.23926216 1.2494097 0.11105084 91
0.24685907 1.237689 0.128672 97
0.23267424 1.2595736 0.1563267 74
0.22645879 1.2728083 0.010436539 68
0.24414513 1.2453223 0.029622151 67
0.23626587 1.2575673 0.05072464 56
0.24385995 1.2457654 0.069465525 49
0.25390965 1.2301475 0.086664692 86
0.23979127 1.2520885 0.11143246 91
0.24841166 1.2386918 0.128672 97
0.23011801 1.2671216 0.15839726 73
0.24220651 1.2520244 0.0099827768 87
0.24903083 1.2413371 0.029308135 68
0.22617474 1.2771311 0.05264207 53
0.24552256 1.2468312 0.069465525 49
0.2512652 1.2378378 0.087916173 70
0.25309846 1.2349669 0.10723466 81
0.2563422 1.2298869 0.12597258 82
0.23705369 1.2600939 0.15580906 67
0.24059483 1.2581093 0.010087491 71
0.2495262 1.2440194 0.029412808 100
0.24279195 1.2546432 0.050201707 56
0.25029382 1.2428083 0.068734311 67
0.24858791 1.2454996 0.089167647 70
0.24938649 1.2442398 0.10914274 92
0.24639228 1.2489634 0.13092151 96
0.23247492 1.2709191 0.15891489 65
0.24442995 1.255801 0.010017681 72
0.25224608 1.2433747 0.029308135 100
0.22857332 1.2810102 0.05281638 79
0.25300297 1.2421713 0.068490572 50
0.25024956 1.2465488 0.089167647 70
0.25417963 1.2403007 0.10799789 79
0.25947934 1.2318752 0.12597258 90
0.23422539 1.2720244 0.15891489 65
0.2504465 1.2501314 0.0098780617 73
0.2603263 1.2342958 0.028680105 100
0.23466694 1.2754233 0.052119136 81
0.24632946 1.2567302 0.070440479 49
0.26245442 1.2308848 0.086038955 58
0.24343491 1.2613697 0.1125773 96
0.26220566 1.2312834 0.12552269 99
0.23811269 1.2699003 0.15787962 65
0.24791405 1.2579751 0.010017681 87
0.25143594 1.252286 0.029726824 100
0.24587157 1.2612743 0.05055033 84
0.25638935 1.2442845 0.068490572 50
0.2599059 1.2386041 0.087290429 71
0.2554858 1.245744 0.10876112 72
0.26689485 1.2273145 0.12417299 100
0.24189326 1.2677008 0.15684435 66
0.25066587 1.2573227 0.0099827768 87
0.25312126 1.2533252 0.029726824 100
0.24863109 1.2606354 0.05037602 84
0.25596875 1.2486894 0.068978049 67
0.26567897 1.2328811 0.086038955 58
0.2540656 1.2517878 0.10990598 92
0.26543301 1.2332814 0.12552269 82
0.24767691 1.2621888 0.15477379 67
0.25445011 1.2549495 0.0099129668 87
0.26104659 1.2441257 0.029098792 100
0.24516124 1.270191 0.051247578 82
0.2597076 1.2463228 0.068490572 67
0.2611284 1.2439915 0.087916173 70
0.26494452 1.2377298 0.10647142 81
0.25995284 1.2459203 0.128672 97
0.24537537 1.2698396 0.15684435 66
0.26322216 1.2438997 0.0096686333 90
0.26460558 1.2416136 0.028889447 100
0.24879718 1.267737 0.050898954 83
0.25401127 1.2591207 0.07019674 82
0.26057348 1.2482767 0.08854191 70
0.26133317 1.2470213 0.10837951 87
0.27153862 1.2301569 0.12417299 83
0.24694714 1.2707942 0.15684435 66
0.25767288 1.2568989 0.0099129668 87
0.26830971 1.2391822 0.028680105 100
0.24745974 1.2739098 0.051421888 100
0.25265503 1.2652566 0.070927955 48
0.27037916 1.2357354 0.086038955 58
0.25693667 1.2581252 0.11066922 85
0.27615583 1.2261138 0.12282328 93
0.2486971 1.2718489 0.15684435 66
0.25136274 1.2717648 0.010192205 85
0.26602736 1.2471255 0.029098792 100
0.24939686 1.2750678 0.051421888 82
0.26268095 1.2527481 0.068978049 50
0.2741901 1.2334107 0.085413218 58
0.25479671 1.265995 0.11219569 84
0.27093253 1.238884 0.12597258 90
0.25062627 1.2730021 0.15684435 66
0.26328331 1.2555848 0.0098431576 88
0.26363263 1.2549932 0.029517479 100
0.26635686 1.2503794 0.048807215 88
0.26840502 1.2469107 0.068003096 51
0.27380067 1.2377726 0.086038955 58
0.26850823 1.2467358 0.10761628 79
0.27950665 1.2281089 0.12282328 85
0.26613513 1.250755 0.14959741 70
0.26902291 1.2496808 0.0097035384 90
0.26734626 1.2525432 0.029308135 100
0.26400736 1.2582433 0.049504463 86
0.27007145 1.2478907 0.068003096 51
0.27443677 1.2404383 0.086351827 58
0.27513552 1.2392454 0.10570818 81
0.27913749 1.2324133 0.12372308 92
0.26000366 1.2650783 0.15373851 68
0.27471772 1.2437427 0.0095639192 91
0.27605659 1.2414386 0.028575432 100
0.26471239 1.2609613 0.049678773 86
0.2717413 1.248865 0.068003096 51
0.26913333 1.2533531 0.08854191 56
0.26691145 1.2571769 0.10952436 85
0.28466958 1.2266163 0.12192347 85
0.25979239 1.2694283 0.15477379 67
0.27038124 1.2550957 0.0097733475 89
0.27471161 1.2475832 0.028889447 100
0.26045796 1.272311 0.05072464 100
0.26845783 1.2584325 0.069221787 83
0.2836467 1.2320821 0.084474608 59
0.26959419 1.2564611 0.10914274 78
0.28821146 1.2241629 0.12102367 86
0.26438943 1.2654905 -0.0099827768 86
0.25767845 1.277133 0.15684435 66
0.26413557 1.2699565 0.010052586 86
0.28232861 1.2381381 0.028261416 100
0.26517999 1.2681298 0.050201707 85
0.27706185 1.2473493 0.067515619 51
0.2862418 1.2312943 0.084161744 59
0.27226844 1.2557327 0.10876112 87
0.28786379 1.2284575 0.12192347 93
0.26810592 1.2630126 -0.0099129668 87
0.26712173 1.2647338 0.15270324 68
0.27574769 1.2535571 0.0097035384 90
0.27706712 1.2512307 0.028994121 100
0.27085218 1.2621888 0.049504463 86
0.27481252 1.255206 0.068490572 50
0.28298101 1.2408035 0.08572609 58
0.28655672 1.2344989 0.1038001 68
0.28273603 1.2412354 0.12507279 100
0.26408517 1.2741203 0.15529142 75
0.27351552 1.2614828 0.0098431576 88
0.27189389 1.2643656 0.029726824 100
0.27745625 1.2544777 0.048632905 88
0.28040099 1.2492431 0.067515619 68
0.28656307 1.2382894 0.085100345 58
0.28240427 1.2456821 0.1060898 88
0.29202625 1.2285779 0.12147357 77
0.26489943 1.276799 0.15580906 67
0.27328408 1.2659376 0.0099129668 87
0.28529921 1.2444037 0.02847076 100
0.27332431 1.2658654 0.049678773 86
0.28400999 1.2467144 0.067028143 51
0.2824243 1.2495562 0.086977564 57
0.28597954 1.2431844 0.10532656 82
0.29457808 1.2277739 0.12102367 86
0.27043542 1.2710431 0.15373851 68
0.28364721 1.2511071 0.0095988233 76
0.28687385 1.2452788 0.02847076 100
0.27207512 1.2720095 0.050201707 85
0.27790043 1.2614874 0.068978049 50
0.29549736 1.2297025 0.083223134 60
0.28184468 1.2543629 0.10761628 94
0.29609752 1.2286184 0.12102367 86
0.28074154 1.2563555 -0.0097035384 89
0.26835567 1.2787278 0.15580906 67
0.27570379 1.2695624 0.0099478718 87
0.29045701 1.2426931 0.028261416 100
0.28437734 1.2537656 0.048284281 88
0.28343934 1.255474 0.068003096 51
0.29710358 1.230588 0.083223134 60
0.28637177 1.2501333 0.10647142 73
0.28147843 1.2590454 -0.0097384425 88
0.28222045 1.2576939 0.14907977 78
0.2811884 1.2634451 0.0098082526 74
0.28629318 1.2540745 0.028889447 100
0.28312364 1.2598927 0.048807215 88
0.29074854 1.245896 0.066540658 52
0.29674235 1.2348934 0.083848871 59
0.2898438 1.2475568 0.10570818 88
0.27831852 1.2687132 -0.0099129668 87
0.28291503 1.2602756 0.14959741 70
0.28783444 1.2556752 0.0096337283 90
0.29194871 1.2480533 0.02847076 100
0.29068509 1.2503942 0.047761347 90
0.29069188 1.2503816 0.067028143 51
0.29571432 1.2410773 0.084787481 59
0.29727477 1.2381865 0.10341848 61
0.29914317 1.2347252 0.12192347 85
0.28112891 1.2680975 0.15166797 69
0.28755838 1.2600676 0.0097035384 90
0.29919273 1.2383423 0.027842728 100
0.28663602 1.2617898 0.048807215 88
0.2941606 1.247739 0.066540658 69
0.29261509 1.2506249 0.086351827 58
0.29048726 1.2545984 0.10685304 95
0.28189415 1.2706445 -0.0099129668 87
0.28278214 1.2689865 0.15166797 77
0.29310659 1.2539611 0.0095639192 91
0.29124272 1.2574723 0.048284281 88
0.29405186 1.2521802 0.067028143 51
0.29686755 1.2468758 0.10494494 82
0.28560606 1.2680913 -0.0098431576 87
0.2846128 1.2699624 0.15166797 77
0.29191774 1.2601184 0.0096686333 90
0.29502389 1.2542195 0.028680105 100
0.29193237 1.2600906 0.048458595 88
0.29380244 1.2565392 0.067515619 51
0.29113251 1.2616097 0.10799789 79
0.29098606 1.2618878 -0.0097035384 89
0.28987259 1.2640023 0.14959741 70
0.29640672 1.2556984 0.0095639192 91
0.29671571 1.2551067 0.028680105 100
0.29548895 1.2574562 0.048109971 59
0.29182729 1.2644693 0.068490572 50
0.29085359 1.2663342 -0.0097733475 88
0.29249269 1.2631948 0.14907977 78
0.29985803 1.2529854 0.0094941091 92
0.29648873 1.259491 0.028889447 100
0.2980231 1.2565284 0.047935657 89
0.29501802 1.2623307 0.14856213 71
0.29972294 1.2574049 0.047935657 59
0.29320836 1.2700918 0.15063268 70
0.29770619 1.2653682 0.0097035384 90
0.28687316 1.2866385 0.05072464 56
0.29316854 1.2742777 -0.0098780617 100
0.29662162 1.2674978 0.14959741 78
0.29600739 1.2734747 -0.0098431576 100
0.2976636 1.2701917 0.15011504 78
0.29678363 1.2761025 -0.0098780617 100
