# .PCD v0.7 - Point Cloud Data file format
VERSION 0.7
FIELDS x y z intensity
SIZE 4 4 4 4
TYPE F F F F
COUNT 1 1 1 1
WIDTH 791
HEIGHT 1
VIEWPOINT 0 0 0 1 0 0 0
POINTS 791
DATA ascii
0.23652001 0.99203902 0.017801454 5
0.2382258 0.98545992 0.01769674 6
0.23975763 0.97685415 0.01755712 6
0.24364945 0.97795165 0.017592026 5
0.24804206 0.98097259 0.017661836 6
0.2554405 0.99559641 0.017941074 9
0.25891423 0.9946987 0.017941074 11
0.2623848 0.9937889 0.017941074 10
0.2663694 0.9947986 0.017975979 18
0.27403197 1.0093013 0.018255217 22
0.28179896 1.0237626 0.018534455 25
0.28089565 1.0074127 0.018255217 17
0.28223523 0.99872875 0.018115599 9
0.28682077 1.0015823 0.018185407 8
0.28920075 0.99673402 0.018115599 9
0.29606181 1.0072297 0.018325027 9
0.29825971 1.0024091 0.018255217 8
-1.146414 0.15174258 0.060605038 22
-1.1017815 0.15386494 0.058302253 29
-1.1896789 0.17037573 0.020977793 32
-1.0604746 0.15565178 0.01870898 6
-1.0085106 0.15162279 0.017801454 5
-1.0376494 0.15952413 0.018325027 1
0.055818081 0.00023251772 0.047939736 68
0.056388676 0.0069929957 0.047625721 54
0.04587245 0.0077683926 0.015951499 4
0.037186801 0.00048720837 0.048463095 76
0.043279171 0.01563549 0.047625721 67
0.037290692 0.012446702 0.047939736 27
0.029023349 0.005990386 0.048463095 17
0.028621614 0.011105955 0.048253752 17
0.030522585 0.019499481 0.047835063 9
0.037045538 0.034423411 0.046997689 10
0.020966232 0.016422629 0.048253752 8
0.0091127753 0.0052287579 0.049091127 7
0.080224186 0.54259795 -0.0091101564 11
0.038805425 0.55668664 -0.0096686333 11
0.038100839 0.55838299 -0.0096686333 11
0.04839766 0.56489122 -0.009459204 11
0.047720253 0.56655574 -0.009459204 11
-0.36937207 0.83767575 0.016091119 4
-0.42496908 0.84501976 0.017068453 2
-0.40277547 0.84665847 0.016684501 6
-0.41047281 0.85065311 0.016824121 17
-0.39026457 0.8522625 0.016475072 28
-0.37403995 0.85409421 0.016195834 24
-0.38170409 0.85807192 0.016335452 30
-0.37940079 0.86112851 0.016300548 30
-0.38902432 0.86538261 0.016475072 28
-0.36087668 0.86541551 0.015986403 30
-0.36849034 0.86945558 0.016126024 24
-0.3681376 0.87266111 0.016126024 28
-0.36777365 0.8758654 0.016126024 33
-0.36144137 0.87836015 0.016021309 34
-0.36502731 0.88202703 0.016091119 33
-0.34677458 0.88297093 0.015776975 32
-0.36223978 0.88815546 0.016056214 29
-0.35389292 0.89028394 0.015916595 26
-0.36931783 0.89560395 0.016195834 24
-0.35300905 0.8967489 0.015916595 30
-0.33672673 0.89762127 0.015637357 39
-0.3481456 0.90246642 0.015846785 31
-0.34767771 0.90560073 0.015846785 27
-0.35712886 0.90994465 0.016021309 12
-0.33885771 0.91030419 0.015707165 28
-0.32849181 0.9118126 0.015532642 41
-0.33982956 0.91683167 0.015742071 42
-0.3373397 0.91960442 0.015707165 47
-0.3427242 0.92371893 0.015811881 41
-0.32642621 0.92406446 0.015532642 51
-0.31800997 0.92571044 0.015393022 48
-0.32530129 0.93033201 0.015532642 51
-0.3325991 0.93485504 0.015672261 53
-0.33404136 0.93800032 0.015707165 52
-0.32952309 0.94032484 0.015637357 63
-0.32300746 0.94238514 0.015532642 56
-0.32043999 0.94503725 0.015497737 41
-0.32374179 0.94887674 0.015567547 35
-0.31723917 0.95070183 0.015462833 42
-0.30881 0.95191914 0.015323213 60
-0.31012458 0.95533705 0.015358117 59
-0.31142575 0.95876634 0.015393022 59
-0.31271338 0.96220696 0.015427927 42
-0.31012088 0.96462548 0.015393022 43
-1.0181491 1.124836 0.084260888 3
-1.0473611 1.1314459 0.14328404 4
-0.28799909 0.96269721 0.01500907 42
-0.9954899 1.1253841 0.083109498 7
-1.0189056 1.1307685 0.14084367 9
-0.29897028 0.96849895 0.015218498 33
-1.0194595 1.1369576 0.084470235 46
-1.0195129 1.13697 0.14101799 48
-0.29438108 0.97053707 0.015148689 40
-0.98319119 1.1341267 0.082586139 100
-1.0240378 1.1438277 0.14154093 91
-0.29759949 0.97427309 0.015218498 39
-0.99362522 1.1420166 0.083214171 100
-1.0169787 1.1476449 0.14101799 91
-0.29688126 0.97723055 0.015218498 33
-0.97873718 1.1440796 0.082481466 100
-0.99629802 1.1483767 0.13927488 89
-0.29227132 0.97922128 0.015148689 40
-0.9793604 1.1498951 0.082586139 86
-0.99690145 1.1542523 0.13944919 91
-0.27990174 0.97922695 0.01493926 42
-0.9857716 1.1571842 0.083004825 45
-1.0013466 1.1611109 0.13997212 71
-0.29079014 0.98509628 0.015148689 34
-0.97473603 1.1600677 0.082481466 30
-0.98646027 1.1630671 0.13875194 80
-0.29196978 0.98853225 0.015183593 33
-0.96949869 1.1643841 0.08227212 78
-0.98700732 1.1689284 0.13892625 89
-0.29313564 0.99197906 0.015218498 33
-0.96811289 1.1696857 0.08227212 96
-0.97597176 1.1717548 0.1380547 91
-0.28462762 0.99285734 0.015078879 41
-0.9589898 1.1729215 0.081853434 90
-0.96301037 1.173995 0.13700883 100
-0.27612382 0.99367893 0.01493926 36
-0.95757419 1.1781864 0.081853434 100
-0.96543723 1.1803155 0.13735744 100
-0.27533799 0.99656123 0.01493926 42
-0.94073206 1.1792167 0.081016064 100
-0.96975976 1.187185 0.13788038 98
-0.27839512 1.000513 0.01500907 36
-0.93737036 1.1838825 0.08091139 96
-0.97405261 1.1940898 0.13840333 91
-0.28143466 1.0044888 0.015078879 41
-0.9359166 1.1890718 0.08091139 86
-0.94955188 1.1929173 0.13631158 99
-0.27877098 1.0065508 0.015043974 47
-0.94035441 1.1953824 0.081225403 68
-0.94246823 1.1959858 0.13578865 100
-0.27217728 1.0077757 0.01493926 61
-0.93310457 1.1989175 0.08091139 32
-0.94862801 1.2034069 0.13648589 94
-0.27518034 1.0117687 0.01500907 48
-0.91434819 1.1990378 0.079969339 24
-0.95284206 1.2103161 0.13700883 82
-0.28391665 1.0174924 0.015183593 50
-0.91284162 1.2041466 0.079969339 26
-0.94938582 1.2149924 0.13683452 87
-0.29070783 1.0227044 0.015323213 49
-0.91705543 1.2109752 0.080283359 36
-0.93637508 1.2167823 0.13578865 98
-0.28216851 1.0233082 0.015183593 56
-0.91741782 1.216675 0.080388032 90
-0.92908841 1.2202275 0.13526571 99
-0.28132391 1.0260663 0.015183593 16
-0.9197461 1.2227145 0.080597371 96
-0.92377895 1.2239568 0.1349171 92
-0.28806114 1.0313479 0.015323213 22
-0.90671664 1.2242746 0.079969339 82
-0.92218536 1.2290986 0.1349171 63
-0.61125845 1.136812 0.021257032 4
-0.89742392 1.2272043 0.079550654 70
-0.91859299 1.2338911 0.13474278 49
-0.89948744 1.2334268 0.026562562 12
-0.89772147 1.2328622 0.079655327 82
-0.91127151 1.2371944 0.13421984 43
-0.8921532 1.2366369 0.026457848 26
-0.90749854 1.2416021 0.080283359 92
-0.9001537 1.2392255 0.13334829 52
-0.88101357 1.2385567 0.026283324 35
-0.90584344 1.2466868 0.080283359 100
-0.90418738 1.2461445 0.13387123 70
-0.89653689 1.2489566 0.026597468 39
-0.8871904 1.2458619 0.079341307 100
-0.90827459 1.2528429 0.13439415 82
-0.88916785 1.2520975 0.026492752 59
-0.881733 1.2496068 0.079131968 100
-0.91224796 1.2598289 0.1349171 84
-0.88747627 1.2571182 0.026492752 75
-0.87815851 1.2539606 0.079027295 100
-0.89543325 1.2598146 0.1335226 84
-0.87441725 1.2582426 0.026283324 90
-0.88401788 1.2615334 0.07944598 100
-0.88994521 1.2635651 0.13317397 100
-0.87081486 1.2625568 0.02624842 88
-0.88040632 1.2658818 0.079341307 100
-0.89762598 1.2718514 0.13404553 89
-0.85965139 1.2642053 0.026073895 75
-0.86358839 1.2655857 0.078503937 80
-0.90526634 1.2801974 0.1349171 52
-0.87111109 1.2738001 0.02631823 81
-0.85243744 1.2671802 0.077980578 46
-0.89784282 1.2832768 0.13439415 35
-0.87310869 1.2801073 0.026388038 92
-0.85445374 1.2734203 0.078189917 17
-0.89041573 1.2863109 0.13387123 36
-0.85627896 1.2796211 0.0261088 93
-0.86019892 1.2810416 0.07860861 57
-0.86799973 1.2838686 0.13195379 20
-0.8507362 1.2831511 0.026038991 96
-0.86215717 1.2873352 0.078817949 97
-0.86806816 1.2895006 0.1321281 15
-0.84518594 1.2866486 0.025969181 100
-0.85285097 1.2894871 0.078399263 100
-0.87558812 1.2979069 0.13299966 3
-0.84337395 1.2915156 0.025969181 100
-0.83045322 1.2866795 0.077247873 70
-0.8718707 1.3021815 0.13282534 1
-0.84145314 1.2966191 0.025969181 100
-0.82668215 1.2910287 0.0771432 46
-0.83636945 1.294695 0.12968774 3
-0.83400315 1.29933 0.025864467 75
-0.84537536 1.3036793 0.07829459 53
-0.83452946 1.2995312 0.12968774 18
-0.82487148 1.3007944 0.025724847 71
-0.84182864 1.3073411 0.078189917 68
-0.84401113 1.3081837 0.13073361 58
-0.83046216 1.3084972 0.025864467 83
-0.82505888 1.3063896 0.077352546 63
-0.85326105 1.3173907 0.13177948 100
-0.82671362 1.3125794 0.025829561 93
-0.81946176 1.3097215 0.0771432 61
-0.8439272 1.3193636 0.13108224 99
-0.82481128 1.3173819 0.025829561 100
-0.81756943 1.3144984 0.0771432 89
-0.83274573 1.3205409 0.13021068 100
-0.8117606 1.3177004 0.025620133 100
-0.82492548 1.3229952 0.077666558 95
-0.82711858 1.3238773 0.12986206 100
-0.80242985 1.3194398 0.025480513 100
-0.83038837 1.3307981 0.078085244 100
-0.82886857 1.3301809 0.13021068 100
-0.81170124 1.3284744 0.025689943 100
-0.80449861 1.3255203 0.076724514 96
-0.82331663 1.3332381 0.12986206 100
-0.80974358 1.3332242 0.025689943 100
-0.80808693 1.332538 0.077038527 100
-0.81582004 1.3357412 0.12933913 100
-0.78330797 1.3222742 0.17719802 20
-0.81135935 1.3397481 0.025759751 100
-0.79496151 1.3328854 0.076410495 100
-0.8100614 1.339205 0.1289905 100
-0.78676838 1.3294564 0.17792924 18
-0.79831058 1.339826 0.025550323 100
-0.79666787 1.3391318 0.076619841 96
-0.8007254 1.3408465 0.12829325 100
-0.79212135 1.3372103 0.17890419 21
-0.7964136 1.3442941 0.025550323 83
-0.79844743 1.3451616 0.07682918 54
-0.79699224 1.3445408 0.12811895 84
-0.77745157 1.336206 0.17719802 20
-0.81644005 1.3584821 0.025969181 59
-0.81477529 1.3577651 0.077875905 55
-0.82059723 1.3602724 0.1305593 20
-0.77911335 1.3424066 0.1776855 5
-0.80704218 1.3600588 0.025829561 99
-0.79806238 1.3561542 0.077038527 100
-0.81670123 1.3642585 0.130385 60
-0.78438908 1.3502088 0.17866045 15
-0.80680531 1.3655958 0.025864467 100
-0.80515224 1.3648702 0.077561885 100
-0.81279427 1.3682249 0.13021068 100
-0.78599089 1.356459 0.17914793 33
-0.79374856 1.3654674 0.025655037 100
-0.81037146 1.3728337 0.077980578 100
-0.8070547 1.3713639 0.12986206 100
-0.77849108 1.3587062 0.17841671 31
-0.7916618 1.3701544 0.025655037 100
-0.81919795 1.3824718 0.07860861 100
-0.7940349 1.3712158 0.12881619 100
-0.76555568 1.3584764 0.17695428 22
-0.7913813 1.3756568 0.025689943 100
-0.80430943 1.3814942 0.077875905 100
-0.81008679 1.3841027 0.1305593 100
-0.7743488 1.3679664 0.17841671 19
-0.79653758 1.3836524 0.025829561 100
-0.8003493 1.3853896 0.077771232 100
-0.80793494 1.3888466 0.1305593 100
-0.77044708 1.3717624 0.17817298 17
-0.80528778 1.3933628 0.026038991 100
-0.8054511 1.3934379 0.078189917 100
-0.79852599 1.3902526 0.12986206 100
-0.77555233 1.3796859 0.17914793 12
-0.79403454 1.39388 0.025864467 100
-0.81594783 1.4040518 0.078922622 100
-0.80358142 1.3983116 0.1305593 100
-0.78061837 1.3876524 0.18012288 12
-0.79003769 1.3977195 0.025829561 100
-0.80649155 1.4054271 0.078503937 100
-0.80137998 1.4030327 0.1305593 100
-0.76587075 1.3863989 0.17841671 7
-0.79145414 1.4041024 0.025899371 100
-0.80426532 1.4101583 0.078503937 100
-0.81357235 1.4145577 0.13195379 100
-0.76550573 1.3918366 0.17866045 3
-0.7984814 1.4126149 0.026073895 100
-0.80224746 1.4144096 0.078503937 100
-0.80434626 1.4154098 0.13125655 100
-0.80524093 1.4216509 0.02624842 100
-0.80178982 1.4199915 0.07860861 100
-0.8020851 1.4201334 0.13125655 100
-0.79204947 1.4213748 0.026038991 100
-0.80838245 1.4293021 0.079131968 100
-0.79969317 1.4250847 0.13125655 100
-0.78976756 1.4260554 0.026038991 100
-0.80966026 1.4357965 0.079341307 100
-0.80455583 1.4332969 0.13195379 100
-0.78746933 1.4307281 0.026038991 100
-0.79658383 1.4352307 0.078713275 100
-0.80937737 1.441551 0.13265105 100
-0.79947287 1.4425282 0.02631823 100
-0.79604119 1.4408181 0.078817949 100
-0.81415778 1.4498467 0.13334829 100
-0.80069035 1.4490311 0.026388038 100
-0.80082923 1.449101 0.079236634 100
-0.80465597 1.4510248 0.13265105 100
-0.79117793 1.450124 0.02624842 100
-0.80379432 1.456522 0.079550654 100
-0.7987166 1.4539471 0.13230242 100
-0.78903466 1.4543341 0.02624842 100
-0.80163091 1.4607717 0.079550654 100
-0.79833537 1.4590874 0.13247673 100
-0.78663772 1.4590042 0.02624842 100
-0.79921144 1.4654856 0.079550654 100
-0.81008941 1.4710929 0.13387123 100
-0.79817361 1.4715157 0.026527658 99
-0.79298753 1.4688172 0.079341307 100
-0.81445712 1.4799888 0.13456847 100
-0.79925793 1.4780759 0.026597468 100
-0.7940771 1.4753571 0.079550654 100
-0.80844206 1.4828956 0.13421984 100
-0.78617352 1.4771689 0.026388038 77
-0.79160672 1.4800444 0.079550654 97
-0.79714042 1.4829731 0.13334829 100
-0.79815894 1.4895475 0.13369691 22
0.12996158 1.2913036 0.13013174 11
0.15533733 1.2635014 0.011029921 25
0.1570656 1.2613404 0.032971654 29
0.16175675 1.2554744 0.054385185 25
0.13052708 1.2945251 0.10637543 10
0.14168447 1.2805736 0.12707879 35
0.1385631 1.2844766 0.1765146 6
0.15697601 1.2648075 0.011029921 100
0.16987717 1.2485653 0.032029606 91
0.15097675 1.2723604 0.056128297 72
0.14873418 1.2751838 0.079215072 28
0.1752705 1.2417753 0.095425025 25
0.16535929 1.2542531 0.12020966 100
0.18638375 1.2277839 0.13497064 22
0.16310087 1.2570965 0.16667947 30
0.15861902 1.266108 0.011029921 100
0.1764144 1.243551 0.031610917 100
0.15758091 1.267424 0.055431053 100
0.16270664 1.2609267 0.076777689 29
0.17071959 1.2507696 0.096989371 37
0.1596714 1.2647741 0.12249938 100
0.18066189 1.2381669 0.13767004 45
0.14916342 1.2780938 0.17340876 42
0.16889969 1.2563848 0.010785587 100
0.16690034 1.2589365 0.032552965 100
0.16169024 1.2655859 0.055082429 100
0.16311243 1.2637708 0.077021427 29
0.17718932 1.245805 0.095737889 25
0.17826629 1.2444305 0.11715672 100
0.18702403 1.2332534 0.13587044 38
0.154425 1.2748584 0.17185585 50
0.16822982 1.2609355 0.010855397 100
0.18095556 1.2445709 0.031506244 62
0.15984005 1.2717242 0.055605363 98
0.17467353 1.2526492 0.075071514 30
0.17651048 1.2502871 0.096363634 25
0.18241805 1.2426902 0.11639348 100
0.18393928 1.240734 0.13767004 30
0.15153441 1.2824049 0.1739264 35
0.1662797 1.2670137 0.010960111 77
0.18627602 1.2411134 0.03119223 63
0.16646406 1.2667749 0.054908119 50
0.17999992 1.2492425 0.074340299 46
0.17577493 1.254715 0.096989371 25
0.19273007 1.2327538 0.13497064 22
0.14033908 1.3006132 0.17962041 39
0.17166647 1.2635888 0.010855397 65
0.16969734 1.2661577 0.032762308 29
0.1609281 1.2775984 0.055953987 48
0.16356069 1.2741638 0.077996381 86
0.18828458 1.2419081 0.094173551 52
0.18453264 1.246803 0.1167751 13
0.19197655 1.2370914 0.13587044 30
0.16099751 1.2775079 0.1713382 58
0.17823556 1.258541 0.010715778 53
0.1786885 1.2579458 0.032134276 30
0.1795938 1.2567561 0.053513627 52
0.17854619 1.2581328 0.075315252 60
0.19113028 1.2415959 0.093860678 52
0.19689924 1.2340147 0.11334054 13
0.19360918 1.2383384 0.13587044 45
0.1779798 1.2588772 0.16460891 69
0.18484911 1.2535173 0.010576159 54
0.1684429 1.2752416 0.033180997 28
0.17537677 1.2660601 0.054385185 51
0.19230095 1.2436498 0.072877869 63
0.19405165 1.2413317 0.093547814 52
0.20215178 1.2306058 0.11219569 14
0.20002577 1.233421 0.13407083 38
0.18210259 1.2571541 0.16357364 69
0.18653914 1.2547889 0.010576159 54
0.15583187 1.2957467 0.03443706 27
0.17591548 1.2689589 0.054559495 50
0.19514728 1.2433074 0.072634131 78
0.18740439 1.2536348 0.095737889 51
0.19905099 1.2381004 0.11372216 13
0.21099734 1.2221663 0.13047162 40
0.17685226 1.2677095 0.16667947 75
0.18337184 1.2624073 0.010715778 66
0.20290288 1.2361758 0.030459527 32
0.17400253 1.2749909 0.055082429 50
0.19434774 1.2476659 0.073121607 78
0.19726813 1.2437437 0.093547814 78
0.20060518 1.2392616 0.11372216 13
0.21482623 1.2201618 0.12957181 40
0.1727362 1.2766917 0.16926765 73
0.18390426 1.2652922 0.010750682 92
0.20097074 1.2422029 0.030773543 64
0.18168896 1.2682892 0.054210871 76
0.19483733 1.2505008 0.073365346 46
0.20362061 1.2386179 0.092296332 80
0.19524357 1.2499511 0.11601187 13
0.2117663 1.2275975 0.13137141 31
0.18943503 1.2578095 0.16253836 70
0.18554872 1.2665035 0.010750682 92
0.20135671 1.2449677 0.030878214 63
0.18688026 1.2646894 0.053687938 78
0.18468627 1.2676784 0.075802729 100
0.20868319 1.2349867 0.09135773 94
0.20496914 1.2400464 0.11334054 13
0.22366378 1.2145782 0.1273223 24
0.19334093 1.2558879 0.16150309 70
0.19906056 1.2516111 0.010401634 97
0.20772162 1.2397251 0.030459527 65
0.18508923 1.2707846 0.054210871 100
0.20396146 1.2448854 0.072146654 79
0.21147171 1.2345787 0.091044858 81
0.21239296 1.2333144 0.11143246 14
0.24817047 1.1842153 0.11832426 17
0.18821299 1.2664977 0.16460891 69
0.20308784 1.2495928 0.010331824 84
0.21404564 1.2344439 0.03004084 66
0.18800724 1.2704411 0.054036561 100
0.21376532 1.2348316 0.070440479 98
0.20499122 1.2469614 0.093234941 92
0.21286166 1.2360808 0.11181407 14
0.22791758 1.2152665 0.12687239 16
0.19334501 1.2630618 0.163056 70
0.19310066 1.2670441 0.010680873 93
0.21333906 1.2388585 0.030250182 98
0.18394592 1.2797935 0.054908119 100
0.20612735 1.2489021 0.072390392 95
0.20896253 1.2449536 0.092609204 93
0.21792588 1.2324706 0.11066922 14
0.24652308 1.1926441 0.12012386 17
0.191688 1.2690114 0.16460891 69
0.19483784 1.2682868 0.010680873 93
0.22077397 1.2318988 0.029726824 100
0.19497904 1.2680887 0.053513627 100
0.2112577 1.24525 0.071659178 80
0.21635523 1.2380983 0.091044858 100
0.19789153 1.2640026 0.11791996 19
0.22764072 1.2222649 0.12822211 16
0.20352361 1.2561009 0.15995017 72
0.20812905 1.2531992 0.010331824 98
0.2131598 1.2460887 0.030564198 97
0.19902134 1.266072 0.053165004 100
0.20145333 1.2626346 0.07409656 100
0.21799123 1.2392601 0.091044858 100
0.21322513 1.2459965 0.11334054 34
0.22809583 1.2249782 0.128672 24
0.20410672 1.2588843 0.1604678 72
0.20751929 1.2576625 0.010401634 97
0.21941519 1.2407238 0.030145511 98
0.20075509 1.2672942 0.053165004 100
0.21458378 1.2476033 0.071659178 64
0.21849599 1.2420326 0.09135773 94
0.20360553 1.2632353 0.11715672 86
0.22296607 1.2356677 0.13137141 47
0.20248455 1.2648315 0.16202073 70
0.20464945 1.2654169 0.010541254 95
0.22562894 1.235321 0.029726824 100
0.20477185 1.2652413 0.05281638 100
0.22079375 1.2422574 0.070684217 65
0.21223825 1.2545304 0.093547814 100
0.21767911 1.2467253 0.11295892 100
0.2301656 1.2288131 0.1291219 80
0.20421395 1.2660416 0.16202073 70
0.2108466 1.2599823 0.010401634 83
0.22603706 1.2380364 0.029831495 99
0.19734448 1.2794893 0.054210871 100
0.22010204 1.2466109 0.071171694 65
0.22733796 1.2361569 0.089793384 100
0.21814445 1.249439 0.11334054 96
0.23612523 1.2234619 0.1273223 73
0.20586079 1.2671856 0.16202073 70
0.20350021 1.2743489 0.010680873 80
0.22314891 1.2457491 0.030250182 98
0.21040723 1.2642953 0.052467756 100
0.21502325 1.2575765 0.072634131 100
0.2289671 1.2372804 0.089793384 100
0.21759659 1.2538309 0.11410378 100
0.22998554 1.2357981 0.13047162 96
0.21197411 1.2620146 0.15995017 72
0.21202239 1.2656424 0.010471444 82
0.22368634 1.2485373 0.030354854 65
0.21437967 1.2621856 0.052119136 100
0.21896398 1.2554626 0.072146654 63
0.23060018 1.2383982 0.089793384 100
0.22702995 1.243634 0.11143246 91
0.23271129 1.2353022 0.13002171 96
0.21804711 1.2568072 0.15787962 73
0.22160029 1.2552267 0.01022711 42
0.21752256 1.2612518 0.031087559 31
0.20493254 1.2798542 0.053862248 77
0.22177321 1.2549713 0.071902916 48
0.22780839 1.2460539 0.091044858 100
0.23638794 1.2333772 0.10876112 94
0.22778389 1.2460902 0.13272113 100
0.21650001 1.2627627 0.15943253 73
0.21660584 1.2663299 0.010436539 41
0.22592142 1.2524617 0.030459527 32
0.21560201 1.2678244 0.052467756 53
0.22900251 1.2478747 0.070684217 98
0.23277649 1.2422564 0.090106249 96
0.23581794 1.2377286 0.10952436 92
0.24357376 1.2261823 0.12687239 90
0.21714494 1.2655274 0.15995017 72
0.2183404 1.2674906 0.010436539 41
0.23425478 1.2436191 0.029831495 33
0.21402624 1.2739619 0.05299069 52
0.23287481 1.2456889 0.07019674 82
0.23880988 1.2367864 0.088854775 98
0.23418546 1.243723 0.11066922 85
0.24624896 1.2256277 0.12642249 99
0.24274346 1.230886 -0.0096686333 11
0.21351868 1.2747233 0.16253836 70
0.21787217 1.2719808 0.010506349 40
0.20284781 1.2946887 0.032971654 29
0.2190856 1.2701467 0.052467756 53
0.22029757 1.268315 0.073365346 100
0.24698114 1.2279851 0.086977564 100
0.23584101 1.2448225 0.11066922 85
0.23816356 1.2413121 0.13047162 96
0.22061244 1.2678391 0.15995017 72
0.22840711 1.2597647 0.01022711 28
0.20468143 1.2958972 0.032971654 29
0.22739491 1.2613062 0.051421888 55
0.23293474 1.2528694 0.070927955 48
0.24424469 1.2356451 0.088229038 98
0.24288827 1.2377107 0.10876112 94
0.24408913 1.235882 0.128672 97
0.22659361 1.2625265 0.15787962 73
0.23121041 1.2592089 0.010192205 28
0.21306175 1.2870595 0.032343622 30
0.23237514 1.2574215 0.050898954 55
0.23678973 1.2506469 0.070440479 65
0.23832268 1.2482945 0.090419121 100
0.24452275 1.23878 0.10876112 94
0.24252543 1.241845 0.13002171 96
0.22620541 1.2668895 0.15891489 73
0.2340059 1.2586395 0.0101573 42
0.24089831 1.2479813 0.029831495 33
0.23083273 1.2635463 0.051421888 55
0.24493718 1.2417358 0.068978049 50
0.24213952 1.246062 0.089793384 83
0.23976436 1.2497349 0.11105084 91
0.25052369 1.2330971 0.1273223 97
0.2268928 1.2696389 0.15943253 73
0.23787355 1.2563736 0.010087491 57
0.25443444 1.2305675 0.028680105 69
0.22502494 1.2763951 0.05264207 53
0.24122503 1.2511511 0.07019674 66
0.25233826 1.2338338 0.087290429 85
0.25098389 1.2359443 0.10761628 87
0.25214201 1.2341397 0.1273223 97
0.22237855 1.2805188 0.16253836 70
0.23957321 1.2574601 0.010087491 71
0.25711673 1.2299118 0.028575432 70
0.2364265 1.2624015 0.051073264 83
0.24077386 1.2555748 0.070684217 65
0.24971485 1.2415348 0.08854191 70
0.23573911 1.2634809 0.11372216 89
0.25481075 1.2335328 0.12687239 99
0.23246419 1.2686234 0.15839726 73
0.24554965 1.251779 0.0099478718 58
0.24271974 1.2562572 0.030145511 98
0.23814723 1.2634931 0.051073264 83
0.24141026 1.2583294 0.070927955 48
0.25347316 1.2392404 0.087916173 84
0.25529286 1.2363608 0.10723466 81
0.25330749 1.2395025 0.12822211 89
0.23111063 1.274628 0.15995017 64
0.24935791 1.2494504 0.0098780617 73
0.24229687 1.2607111 0.030354854 97
0.24198866 1.2612026 0.05072464 84
0.25155339 1.2459491 0.068978049 50
0.25721174 1.2369255 0.087290429 71
0.25275064 1.2440399 0.10876112 100
0.25080711 1.2471393 0.13002171 96
0.23800555 1.2675546 0.15736198 74
0.24038231 1.2674216 0.01022711 70
0.25448009 1.2447726 0.029308135 100
0.23940781 1.2689872 0.051421888 82
0.25732931 1.240195 0.068003096 51
0.25249857 1.247956 0.089167647 56
0.25639915 1.2416894 0.10799789 79
0.26165909 1.2332391 0.12597258 90
0.23863634 1.2702266 0.15787962 65
0.25052679 1.2548884 0.0099478718 73
0.25613916 1.2458012 0.029308135 100
0.23591676 1.2785441 0.052293446 80
0.25479996 1.2479696 0.068978049 50
0.26247278 1.2355462 0.086664692 71
0.24773109 1.259415 0.11181407 84
0.26634988 1.2292687 0.12462288 100
0.23429355 1.2811723 0.16098544 64
0.24490732 1.267866 0.010192205 85
0.2578018 1.2468241 0.029308135 100
0.24185792 1.2728422 0.051596198 82
0.23987487 1.2760782 0.072877869 94
0.26822811 1.2298099 0.085413218 58
0.2555961 1.2504234 0.10952436 78
0.26897296 1.2285944 0.12417299 92
0.24213615 1.2723882 0.15787962 65
0.25599697 1.2535501 0.0098780617 88
0.25946802 1.2478411 0.029308135 100
0.25189573 1.2602954 0.050201707 85
0.25814399 1.2500188 0.068978049 50
0.26778239 1.2341664 0.086038955 72
0.25829485 1.2497706 0.10914274 85
0.26348862 1.2412285 0.1273223 89
0.24790621 1.2668569 0.15580906 67
0.26388413 1.2442997 0.0096686333 90
0.25494787 1.2591136 0.029936166 99
0.2515507 1.264745 0.05055033 100
0.2577706 1.2544342 0.069465525 49
0.26328224 1.2452974 0.087916173 56
0.26402768 1.2440617 0.10761628 79
0.26714844 1.2388884 0.12642249 82
0.24565095 1.2745252 0.15787962 65
0.25629917 1.2607384 0.0099827768 87
0.2689651 1.2395751 0.028680105 100
0.24918681 1.2726222 0.051247578 100
0.26354107 1.2486379 0.068490572 50
0.26291421 1.2496854 0.08854191 56
0.26165134 1.2517955 0.10914274 78
0.27278993 1.2331843 0.12462288 92
0.25138226 1.2689538 0.15580906 67
0.26209766 1.2548828 0.0098431576 88
0.27264529 1.2371186 0.02847076 100
0.25602913 1.2651033 0.05037602 100
0.26521358 1.249635 0.068490572 50
0.27064148 1.2404934 0.086664692 71
0.26133025 1.2561753 0.10990598 85
0.28037792 1.2240953 0.12192347 85
0.26107672 1.2566023 -0.0098780617 87
0.247208 1.2799599 0.15891489 65
0.25770244 1.2662227 0.010052586 86
0.27225015 1.2415257 0.028680105 100
0.25978157 1.2626932 0.050027397 85
0.26487455 1.2540469 0.068978049 50
0.27529323 1.2363596 0.08572609 58
0.26103622 1.2605631 0.11066922 85
0.28097558 1.2267128 0.12237337 85
0.26277706 1.2576078 -0.0098780617 87
0.25683385 1.2676973 0.15477379 67
0.26448086 1.2586074 0.0098780617 88
0.26785174 1.2528389 0.029308135 100
0.26451883 1.2585425 0.049504463 86
0.26856899 1.2516115 0.068490572 50
0.27891609 1.2339046 0.085100345 58
0.26473138 1.2581787 0.10990598 78
0.27765548 1.2360618 0.12462288 83
0.26247162 1.2620459 0.15270324 68
0.2712025 1.2509509 0.0097035384 90
0.26953888 1.2538208 0.029308135 100
0.26422748 1.2629834 0.049853086 100
0.26826075 1.2560257 0.068978049 50
0.27855572 1.238266 0.08572609 58
0.27431393 1.2455834 0.10685304 73
0.28026131 1.2353237 0.12417299 83
0.25644016 1.2764173 0.15684435 66
0.27188623 1.2536547 0.0097384425 75
0.27521187 1.2478712 0.028889447 100
0.26793641 1.2605236 0.049504463 86
0.27787536 1.2432393 0.067028143 51
0.28019193 1.2392106 0.08572609 58
0.27401838 1.2499467 0.10761628 79
0.28383011 1.2328837 0.12327318 85
0.26206172 1.27074 0.15477379 67
0.2706039 1.2598336 0.0098431576 88
0.28083989 1.2418879 0.02847076 100
0.26372749 1.2718892 0.05055033 100
0.27756187 1.2476349 0.067515619 51
0.28574628 1.2332861 0.084474608 59
0.2679137 1.26455 0.11066922 92
0.28930956 1.227039 0.12147357 86
0.26763159 1.2650446 -0.0099478718 86
0.26572567 1.2683859 0.15373851 76
0.27625421 1.253844 0.0097035384 90
0.27855474 1.2497779 0.028889447 100
0.27136776 1.2624809 0.049504463 86
0.27434325 1.2572217 0.068734311 50
0.28639233 1.235925 0.084787481 59
0.27930924 1.2484443 0.10685304 73
0.28898731 1.2313384 0.12237337 85
0.27133071 1.2625463 -0.0098780617 87
0.26936969 1.2660124 0.15270324 68
0.28088066 1.249565 0.0095988233 76
0.28218597 1.247239 0.028680105 100
0.2721135 1.265188 0.049678773 86
0.27896008 1.2529875 0.068003096 51
0.28898704 1.2351196 0.084474608 59
0.28098097 1.2493863 0.10685304 95
0.28964558 1.2339461 0.12282328 85
0.27677527 1.2568808 0.14959741 70
0.28547385 1.2452596 0.0094941091 92
0.27996811 1.2551515 0.029098792 100
0.2748127 1.2644141 0.049504463 86
0.28450933 1.2469926 0.067028143 51
0.28580874 1.244658 0.086038955 58
0.2893396 1.2383144 0.10418171 75
0.29600534 1.2263384 0.12057377 77
0.27471837 1.2645835 0.15166797 69
0.28520161 1.2496815 0.0095639192 91
0.28745469 1.2456 0.02847076 100
0.27557731 1.2671158 0.049678773 86
0.28617597 1.2479165 0.067028143 51
0.28746721 1.2455773 0.086038955 58
0.28433427 1.2512527 0.10685304 81
0.29854161 1.2255161 0.12012386 77
0.27644646 1.2655413 0.15166797 69
0.28767079 1.2487574 0.0095290141 76
0.28511116 1.2534287 0.028889447 100
0.27714038 1.2679756 0.049678773 86
0.2838631 1.2557064 0.068003096 51
0.29560715 1.2342732 0.083848871 59
0.28301728 1.2572501 0.10799789 79
0.27614796 1.2697867 0.15270324 68
0.2864792 1.2549412 0.0096337283 90
0.29252198 1.243821 0.028261416 100
0.27983162 1.2671744 0.049504463 86
0.2874558 1.253144 0.067515619 51
0.29911569 1.2316871 0.083223134 60
0.28659448 1.254729 0.10723466 81
0.29970729 1.2305983 0.12102367 86
0.28158379 1.2639499 0.15063268 70
0.29015505 1.2523828 0.0095639192 91
0.28194699 1.2676204 0.029622151 100
0.28165567 1.2681612 0.049504463 86
0.28263846 1.2663367 0.069221787 33
0.2951887 1.2430382 0.085100345 58
0.29116604 1.2505059 0.1060898 81
0.2995488 1.2349439 0.12192347 85
0.28162 1.2682275 -0.0098780617 87
0.28431219 1.2632296 0.15011504 78
0.29372483 1.2497592 0.0094941091 92
0.29403707 1.2491747 0.02847076 100
0.28621244 1.2638228 0.048981529 87
0.2918551 1.2532594 0.067271881 51
0.29684144 1.2439247 0.085100345 58
0.29932004 1.2392848 0.10341848 76
0.28336078 1.2691612 -0.0098780617 87
0.28603548 1.264154 0.15011504 78
0.29446504 1.2524179 0.0095290141 76
0.29945078 1.2430055 0.028052073 100
0.28234217 1.2753043 0.050027397 85
0.29447275 1.2524034 0.067028143 51
0.29544586 1.2505662 0.10570818 81
0.29047483 1.259951 0.14856213 71
0.29429084 1.2568476 0.0095988233 76
0.28596056 1.2727078 0.049678773 86
0.2980378 1.2497138 0.10532656 75
0.28685203 1.2710105 -0.0098780617 87
0.29039004 1.2642745 0.14959741 70
0.29792365 1.2542341 0.0095290141 76
0.29240477 1.2648358 0.048807215 58
0.29426482 1.2612627 0.068003096 51
0.29345202 1.2628241 0.10799789 72
0.28776675 1.2737454 -0.0099129668 97
0.29398745 1.2617955 0.14856213 79
0.29534033 1.2633941 0.029098792 100
0.29747778 1.2592528 0.14752686 79
0.2987982 1.2606802 0.028889447 100
0.29910159 1.2600875 0.14752686 71
0.29390693 1.2745688 0.049504463 57
0.2982451 1.270124 0.0097733475 100
0.29554772 1.2754824 -0.0098780617 100
0.29462573 1.2773139 0.1521856 77
0.29552796 1.2799461 -0.0099478718 100
