# .PCD v0.7 - Point Cloud Data file format
VERSION 0.7
FIELDS x y z intensity
SIZE 4 4 4 4
TYPE F F F F
COUNT 1 1 1 1
WIDTH 905
HEIGHT 1
VIEWPOINT 0 0 0 1 0 0 0
POINTS 905
DATA ascii
0.058583494 1.4586016 0.025480513 33
0.059163105 1.3605068 0.023770178 47
0.063113034 1.3383086 0.023386225 44
0.072894238 1.443941 0.02523618 42
0.080521107 1.4916006 0.026073895 36
0.07757245 1.3535725 0.023665464 26
0.062382106 1.0199383 0.01783636 26
0.063576154 0.98580158 0.017242977 25
0.067596905 0.99154711 0.017347692 32
0.071312495 0.99730134 0.017452406 43
0.073746182 0.98308766 0.017208073 43
0.07638102 0.97486335 0.017068453 42
0.080280572 0.97856289 0.017138263 25
0.084035501 0.98426861 0.017242977 30
0.088174701 0.98992944 0.017347692 38
0.089984797 0.97370189 0.017068453 43
0.093383104 0.97338188 0.017068453 42
0.096610434 0.97306687 0.017068453 34
0.10079084 0.97867376 0.017173167 27
0.10509295 0.98827654 0.017347692 31
0.10696453 0.97198313 0.017068453 28
0.11018716 0.97162312 0.017068453 25
0.11334582 0.96924639 0.017033549 24
0.11703703 0.97283596 0.017103359 23
0.12134025 0.97835392 0.017208073 24
0.12433121 0.97596252 0.017173167 24
0.12790745 0.97550029 0.017173167 33
0.13167472 0.97903442 0.017242977 34
0.13580981 0.98250699 0.017312787 34
0.1399083 0.98799103 0.017417502 38
0.14105788 0.97166502 0.017138263 34
0.14398542 0.96921396 0.017103359 32
0.14934337 0.98054111 0.017312787 33
0.15413238 0.9899199 0.017487312 31
0.1574447 0.98737359 0.017452406 29
0.15975377 0.98092496 0.017347692 31
0.16334797 0.98033285 0.017347692 32
0.16659798 0.9797858 0.017347692 31
0.17087138 0.98513877 0.017452406 30
0.17535496 0.99044353 0.01755712 28
0.17667826 0.97801834 0.017347692 25
0.17972875 0.97542906 0.017312787 24
0.18478091 0.98262477 0.017452406 23
0.18820979 0.98197377 0.017452406 21
0.19278619 0.98719871 0.01755712 20
0.19232976 0.96690702 0.017208073 14
0.19768855 0.97602922 0.017382598 11
0.20230573 0.98120874 0.017487312 13
0.20614019 0.98245364 0.017522216 16
0.21040328 0.98563939 0.017592026 16
0.21180427 0.97715628 0.017452406 16
0.21650518 0.98226947 0.01755712 17
0.22036986 0.983459 0.017592026 11
0.22513358 0.98853308 0.01769674 9
0.22983068 0.99155748 0.01776655 9
0.23191547 0.98490977 0.017661836 16
0.23535204 0.98409426 0.017661836 12
0.23689809 0.97549385 0.017522216 6
0.23900551 0.97086138 0.017452406 4
0.24481691 0.97972137 0.01762693 1
-1.1027777 0.14655431 0.058302253 22
-1.1406988 0.15970574 0.020105172 5
-1.1017277 0.15424952 0.058302253 29
-1.1064847 0.15885553 0.019511791 4
-1.0445931 0.15369326 0.018429741 6
-1.0222992 0.15406074 0.018045789 5
-1.0375657 0.16006741 0.018325027 1
-0.041115049 1.4812038 0.025864467 53
-0.034731731 1.4313606 0.024991846 51
-0.02956902 1.4234761 0.024852227 51
-0.02380532 1.3775845 0.024049416 52
-0.018224517 1.321673 0.023072081 53
-0.012210691 1.1857564 0.020698555 53
-0.0085887872 1.2617786 0.022024937 56
-0.0049325852 1.345786 0.023490939 52
-0.00023348948 1.3377962 0.023351319 49
0.057842314 0.003679812 0.047730394 65
0.049365461 0.0020281076 0.04804441 38
0.044494689 0.00044167042 0.048253752 25
0.044016242 0.0055419207 0.04804441 100
0.04467535 0.01229763 0.047730394 76
0.044261515 0.017381668 0.047521047 58
0.038278222 0.014190078 0.047835063 28
0.028890014 0.0060813427 0.048463095 17
0.03867048 0.026010931 0.047311705 20
0.031528592 0.021232188 0.047730394 9
0.012919962 0.00011378527 0.0491958 7
0.019555092 0.014973104 0.048358422 8
0.087134778 0.49593502 0.0093893949 15
0.10174501 0.50658953 -0.0090752514 11
0.080637395 0.50314814 -0.0094242999 11
0.086676031 0.50871718 -0.0092846798 11
0.084054887 0.5134207 -0.0092846798 11
0.10066956 0.52471179 -0.0089356322 12
0.08354947 0.56397897 0.0089007271 16
0.02711767 0.54329509 0.0099478718 14
0.055728585 0.55774641 0.0093893949 15
0.016620934 0.5475387 0.010087491 14
0.062513232 0.57264656 0.0091799656 15
0.050690293 0.56988585 0.0093893949 15
0.07601738 0.58195412 0.0089007271 16
0.049339771 0.57328916 0.0093893949 15
0.048656166 0.57503802 0.0093893949 15
0.062908649 0.58253527 0.0091101564 16
0.047307312 0.57854277 0.0093893949 15
0.046608925 0.58038652 0.0093893949 15
0.0084742904 0.56817794 0.010087491 14
0.022816777 0.57551181 0.0098082526 14
0.025898099 0.57872438 0.0097384425 15
0.028962553 0.58200395 0.0096686333 15
0.0095096231 0.57700837 0.010017681 14
0.020152688 0.5828914 0.0098082526 14
0.0044329166 0.57937258 0.010087491 14
0.018859327 0.58659494 0.0098082526 14
0.0031154156 0.58318597 0.010087491 14
-0.0051444173 0.58263373 0.01022711 14
0.005618155 0.58827484 0.010017681 14
-0.013970375 0.58381212 0.010366729 13
-0.006980896 0.58816576 0.01022711 14
-0.030482233 0.58284491 0.010645968 13
-0.034910142 0.58355629 0.010715778 13
0.010159731 0.60020328 0.0098780617 14
-0.017133951 0.59368312 0.010366729 13
-0.017745912 0.59566391 0.010366729 13
0.0046415329 0.60451531 0.0099478718 14
-0.011286557 0.60192621 0.01022711 14
-0.027181208 0.59925026 0.010506349 13
-0.054677725 0.5935235 0.010995016 12
-0.012987494 0.60771489 0.01022711 14
-0.032784343 0.60420942 0.010576159 13
-0.025630176 0.60830605 0.010436539 13
-0.045490503 0.60507965 0.010785587 13
-0.055678725 0.60441864 0.010960111 25
-0.035042346 0.6123625 0.010576159 13
-0.039454341 0.61337864 0.010645968 13
-0.5194506 0.74124831 0.018674076 3
-0.51554173 0.74488908 0.018604266 8
-0.50762576 0.74876922 0.018464645 17
-0.50369149 0.75234354 0.018394837 21
-0.49975008 0.75625801 0.018325027 15
-0.49979168 0.75992239 0.018325027 14
-0.48982221 0.76364797 0.018150503 12
-0.48183924 0.76729864 0.018010883 12
-0.47984296 0.77053922 0.017975979 14
-0.48583382 0.77415812 0.018080693 14
-0.48581165 0.77795458 0.018080693 12
-0.46578187 0.78134686 0.017731644 10
-0.47373658 0.78483111 0.017871264 12
-0.459683 0.78815287 0.01762693 14
-0.46160895 0.7918967 0.017661836 12
-0.4735207 0.79572928 0.017871264 10
-0.46742803 0.7991302 0.01776655 15
-0.43734014 0.80171835 0.017242977 21
-0.43522501 0.80509347 0.017208073 24
-0.43709469 0.8086105 0.017242977 21
-0.43895179 0.812141 0.017277882 19
-0.43480349 0.81540859 0.017208073 24
-0.43064451 0.8186478 0.017138263 26
-0.41249681 0.82111609 0.016824121 23
-0.42829412 0.82520896 0.017103359 16
-0.42410326 0.82838422 0.017033549 15
-0.41592145 0.83110911 0.016893929 22
-0.41570222 0.83448046 0.016893929 16
-0.40550911 0.83698326 0.016719405 25
-0.39928657 0.83987778 0.01661469 22
-0.40699911 0.8439731 0.016754311 21
-0.40673506 0.84731317 0.016754311 21
-0.39850277 0.84981471 0.01661469 22
-0.37829787 0.8513788 0.016265642 27
-0.38994175 0.85587221 0.016475072 24
-0.38167328 0.85839719 0.016335452 22
-0.39329952 0.86282378 0.016544882 23
-0.38103342 0.86489928 0.016335452 30
-0.37275881 0.8671487 0.016195834 28
-0.36843812 0.86993647 0.016126024 28
-0.37603247 0.87403482 0.016265642 27
-0.38758212 0.87864774 0.016475072 45
-0.37329805 0.88026005 0.016230738 50
-0.35901427 0.88177395 0.015986403 39
-0.36855829 0.88604087 0.016160928 36
-0.37806284 0.89053428 0.016335452 41
-0.39151132 0.8956244 0.016579786 48
-0.38710469 0.89836735 0.016509976 74
-0.36882877 0.89913297 0.016195834 84
-0.37035167 0.90262467 0.016230738 54
-0.38768733 0.90846562 0.016544882 13
-1.0317228 1.1281974 0.084993593 3
-1.0395253 1.1299645 0.1425868 4
-1.036288 1.1350572 0.028412517 7
-1.0148916 1.1301332 0.084156215 7
-1.0246675 1.1323829 0.14136662 11
-1.0135214 1.135857 0.028028565 11
-1.0057824 1.1340461 0.08373753 52
-1.0213888 1.1376979 0.1411923 50
-0.99472529 1.1371508 0.027714422 35
-0.98701388 1.135318 0.082795486 100
-1.0297878 1.1454844 0.14206386 95
-0.99738711 1.143209 0.02778423 41
-0.99356037 1.1422861 0.083214171 100
-1.0052917 1.1451155 0.13997212 87
-0.97859424 1.1443274 0.027470088 36
-0.99613124 1.1486219 0.083423518 100
-0.9981671 1.1491205 0.13944919 92
-0.97721201 1.1499275 0.027470088 23
-0.98504227 1.1518754 0.082900152 80
-0.99676722 1.1547923 0.13944919 91
-0.96618229 1.1528084 0.027295563 28
-0.98369986 1.1572313 0.082900152 37
-0.99734634 1.1606768 0.13962349 73
-0.96871096 1.1590912 0.027365373 45
-0.97073025 1.1596085 0.08227212 36
-0.99211317 1.1650867 0.13927488 82
-0.97508508 1.1664023 0.027504992 56
-0.97709316 1.1669242 0.082690813 78
-0.9810831 1.1679614 0.13840333 91
-0.96215993 1.1684008 0.027295563 71
-0.97963113 1.1730038 0.082900152 97
-0.96626848 1.1694832 0.13718314 94
-0.95496434 1.1721281 0.027190849 83
-0.96084899 1.1737005 0.081958108 92
-0.96871442 1.1758021 0.13753176 100
-0.9554103 1.1781646 0.027225753 92
-0.96128684 1.179758 0.082062781 100
-0.96913987 1.1818871 0.13770607 99
-0.95397645 1.183417 0.027225753 93
-0.94058913 1.1797371 0.081016064 100
-0.97153515 1.1882436 0.1380547 99
-0.9525972 1.1884021 0.027225753 92
-0.93729812 1.184142 0.08091139 94
-0.96438175 1.1916835 0.13753176 94
-0.94342953 1.1914721 0.027086135 93
-0.9454543 1.1920435 0.081434749 88
-0.94564313 1.1920967 0.13596296 100
-0.94586903 1.1975212 0.027155945 63
-0.94020575 1.1959026 0.081225403 72
-0.94998223 1.1986967 0.13648589 100
-0.95973378 1.2071899 0.027435184 38
-0.92528099 1.1972129 0.080492698 26
-0.9503904 1.2044842 0.1366602 92
-0.94092911 1.2073909 0.027121039 50
-0.92186421 1.2017978 0.080388032 26
-0.95842367 1.2125232 0.13753176 84
-0.93555957 1.2114533 0.027051231 71
-0.91843349 1.206364 0.080283359 26
-0.93777138 1.2121105 0.13578865 87
-0.9206056 1.212602 0.026806897 78
-0.92263895 1.2132139 0.080597371 40
-0.93049544 1.2155786 0.13526571 99
-0.90757471 1.2142348 0.026597468 81
-0.92299336 1.2189341 0.080702044 94
-0.93274277 1.2219055 0.13561434 100
-0.91747981 1.222858 0.026806897 88
-0.91187507 1.2211283 0.080178685 92
-0.92734867 1.2259034 0.13526571 92
-0.91207272 1.2267849 0.026737086 83
-0.90457219 1.2244416 0.079864666 85
-0.93335527 1.2334342 0.13596296 61
-0.91046935 1.2318858 0.026737086 81
-0.91440278 1.2331297 0.080492698 68
-0.91653126 1.2338029 0.13456847 43
-0.90503913 1.2357616 0.026667276 83
-0.91087514 1.2376298 0.080388032 78
-0.89972311 1.23406 0.13317397 46
-0.88818556 1.2359077 0.026388038 92
-0.8997336 1.2396487 0.079864666 100
-0.90757138 1.2421877 0.13404553 49
-0.88275009 1.2396791 0.02631823 99
-0.89049393 1.2422178 0.07944598 100
-0.92106038 1.2522379 0.13544002 63
-0.89265686 1.2479513 0.026527658 100
-0.89089924 1.2473689 0.079550654 100
-0.91197294 1.2543507 0.13474278 82
-0.8985638 1.2555262 0.026667276 99
-0.88733035 1.251761 0.07944598 100
-0.90460604 1.2575514 0.13421984 82
-0.87792224 1.2541585 0.02631823 99
-0.88563997 1.2567753 0.07944598 100
-0.89157397 1.2587873 0.13317397 84
-0.86487418 1.2552476 0.0261088 92
-0.88959974 1.2637274 0.07976 100
-0.89551288 1.2657554 0.13369691 100
-0.87450737 1.2641153 0.02631823 89
-0.86899787 1.2622043 0.078713275 100
-0.89753836 1.272104 0.13404553 85
-0.87654787 1.2704086 0.026388038 79
-0.86161715 1.2651712 0.078399263 82
-0.90517718 1.2804513 0.1349171 50
-0.87290782 1.2747166 0.026353134 75
-0.86176246 1.2707634 0.078503937 44
-0.88648671 1.2795331 0.13334829 37
-0.86172587 1.2763051 0.02617861 93
-0.8637659 1.2770367 0.078713275 17
-0.87907308 1.2825265 0.13282534 39
-0.84858173 1.277384 0.025969181 93
-0.86753052 1.2842585 0.079027295 55
-0.88280386 1.2897995 0.13334829 20
-0.85431176 1.285017 0.0261088 99
-0.85822624 1.2864528 0.07860861 100
-0.86040443 1.2872515 0.13143086 15
-0.84884602 1.2882817 0.026038991 100
-0.85088736 1.2890379 0.07829459 100
-0.89044219 1.3036933 0.13439415 3
-0.84702832 1.2931614 0.026038991 100
-0.83597416 1.2890217 0.077561885 63
-0.87177783 1.3024297 0.13282534 1
-0.83406359 1.2935462 0.025829561 93
-0.84732193 1.2985615 0.07829459 48
-0.83087045 1.2923384 0.12916481 3
-0.83596343 1.2998023 0.025899371 81
-0.84733409 1.3041489 0.078399263 55
-0.84392709 1.3028466 0.1305593 20
-0.83224028 1.3039165 0.025864467 71
-0.83614546 1.3054249 0.077875905 68
-0.84763426 1.3098627 0.13108224 58
-0.83223099 1.3094652 0.025899371 81
-0.81566232 1.3029988 0.07682918 69
-0.86058956 1.3205333 0.13247673 100
-0.83406001 1.3157539 0.025969181 100
-0.82308358 1.3114257 0.077352546 70
-0.83271033 1.3152217 0.13003637 97
-0.81728476 1.3146616 0.025689943 100
-0.82489628 1.3176937 0.077561885 95
-0.82339495 1.3170956 0.12933913 97
-0.811665 1.317938 0.025620133 100
-0.82853466 1.3247263 0.077875905 89
-0.82887024 1.3248615 0.13003637 100
-0.80974406 1.3226877 0.025620133 100
-0.8154884 1.3250227 0.077247873 97
-0.83246225 1.3319219 0.1305593 100
-0.77590746 1.3089345 0.17573559 15
-0.81150621 1.3289497 0.025689943 100
-0.79691416 1.3229591 0.076305822 100
-0.82311994 1.3337176 0.12986206 100
-0.77769095 1.3150672 0.17622307 16
-0.80954689 1.3336987 0.025689943 100
-0.80420047 1.3314822 0.07682918 100
-0.81194156 1.3346918 0.1289905 100
-0.79044992 1.3257809 0.17817298 19
-0.80398077 1.3366601 0.025620133 100
-0.79680389 1.3336565 0.076515168 100
-0.79903394 1.3345897 0.12794463 100
-0.76296288 1.3194935 0.17476064 16
-0.79094273 1.3367121 0.025410704 100
-0.80402666 1.3422418 0.077038527 96
-0.81357199 1.3462758 0.12951343 100
-0.77017933 1.3279371 0.17597933 16
-0.79815251 1.3453139 0.025585229 75
-0.79467303 1.343829 0.076619841 51
-0.8097195 1.35025 0.12933913 84
-0.75909477 1.3286463 0.17476064 15
-0.81817383 1.3595119 0.026004085 63
-0.81283838 1.357213 0.077771232 55
-0.83696204 1.3676071 0.1321281 22
-0.77719039 1.3418531 0.17744176 3
-0.80693918 1.3602955 0.025829561 100
-0.8071174 1.360373 0.077561885 100
-0.80563551 1.3597285 0.12933913 60
-0.79702991 1.3559848 0.18036664 21
-0.79937762 1.3626163 0.025724847 100
-0.81053442 1.367516 0.077875905 100
-0.80904144 1.3668604 0.12986206 100
-0.79315871 1.359885 0.18012288 36
-0.79364461 1.3657019 0.025655037 100
-0.81209213 1.3738806 0.078085244 100
-0.81059247 1.3732157 0.13021068 100
-0.76568514 1.3533061 0.17671055 31
-0.79520756 1.3720222 0.025724847 100
-0.80815285 1.3778156 0.077980578 100
-0.80847853 1.3779614 0.13021068 100
-0.76907676 1.3603278 0.17744176 22
-0.80403227 1.3816535 0.025934275 100
-0.79874223 1.3792639 0.077561885 100
-0.81361109 1.3859805 0.13090792 100
-0.77062625 1.3665631 0.17792924 20
-0.80370837 1.3872058 0.025969181 100
-0.80569369 1.388111 0.078085244 100
-0.80057544 1.3857774 0.12986206 100
-0.77034193 1.3719928 0.17817298 14
-0.79235488 1.3879821 0.025794657 100
-0.81249028 1.3972518 0.07860861 100
-0.80554873 1.3940561 0.1305593 100
-0.76452035 1.3751678 0.1776855 15
-0.79018956 1.392664 0.025794657 100
-0.81391507 1.403687 0.078817949 100
-0.80336207 1.398784 0.1305593 100
-0.7804026 1.3881168 0.18012288 14
-0.78811735 1.3971047 0.025794657 100
-0.80818921 1.4065113 0.07860861 100
-0.81209403 1.4083414 0.13160518 100
-0.76396567 1.3857862 0.17817298 7
-0.7967667 1.4069014 0.026004085 100
-0.80234796 1.4095408 0.078399263 100
-0.81165868 1.4139439 0.13177948 100
-0.77078086 1.3946123 0.17939167 3
-0.80186683 1.4148073 0.026143705 100
-0.8038252 1.4157414 0.07860861 100
-0.80412096 1.4158826 0.13125655 100
-0.7924003 1.4160535 0.026004085 100
-0.80696195 1.4230616 0.078922622 100
-0.79826754 1.4188774 0.13090792 100
-0.79733235 1.4242294 0.026143705 100
-0.81365734 1.4321563 0.07944598 100
-0.80316335 1.4270608 0.13160518 100
-0.79324466 1.4280487 0.0261088 100
-0.79878241 1.4307617 0.078713275 100
-0.81159693 1.4370394 0.13265105 100
-0.79452485 1.4345055 0.02617861 100
-0.78393418 1.4292712 0.077980578 100
-0.82354933 1.4488504 0.13404553 100
-0.80293471 1.4445484 0.026388038 100
-0.7941367 1.4401618 0.078713275 100
-0.80334085 1.4447508 0.13230242 100
-0.79342586 1.4456728 0.02624842 100
-0.8078478 1.4529263 0.079655327 100
-0.80097729 1.4494708 0.13230242 100
-0.78749257 1.4485487 0.02617861 100
-0.80367452 1.4567583 0.079550654 100
-0.80570441 1.4577881 0.13299966 100
-0.78867608 1.4550352 0.02624842 100
-0.803047 1.4623891 0.079655327 100
-0.81038994 1.4661467 0.13369691 100
-0.79693848 1.4652069 0.026457848 100
-0.79352266 1.4634438 0.079236634 100
-0.81680399 1.4754602 0.13456847 100
-0.80159861 1.4735978 0.026597468 100
-0.79818028 1.4718182 0.079655327 100
-0.80372959 1.474707 0.1335226 100
-0.78851122 1.4727341 0.026388038 99
-0.79572231 1.4765201 0.079655327 100
-0.79420525 1.4757235 0.13282534 100
-0.78087121 1.4743626 0.026283324 74
-0.79690248 1.4828472 0.079864666 85
-0.80242342 1.485769 0.13387123 92
-0.80180019 1.4911878 0.13404553 21
0.12531066 1.297641 0.13165821 11
0.21520406 1.185956 0.12327318 8
0.090919673 1.340369 0.19618483 5
0.15667215 1.2620084 0.010995016 25
0.15340993 1.2660891 0.03328567 28
0.16681787 1.2493173 0.053687938 26
0.15035421 1.2699114 0.10136953 11
0.14790311 1.2729775 0.12517071 48
0.19589895 1.2129402 0.13092151 16
0.14950955 1.270968 0.17185585 7
0.15963519 1.2618121 0.010960111 90
0.17004424 1.248698 0.032029606 60
0.15610677 1.2662575 0.055431053 74
0.1587835 1.2628851 0.077265166 29
0.16683865 1.2527366 0.097615108 24
0.16552836 1.2543874 0.12020966 100
0.17927444 1.237069 0.13767004 30
0.15846682 1.2632841 0.16875002 36
0.17001837 1.2521775 0.010715778 100
0.1618278 1.2625709 0.032866981 100
0.1479758 1.2801484 0.056825545 100
0.16296375 1.2611294 0.076777689 29
0.16852605 1.2540711 0.097615108 37
0.16114569 1.2634364 0.12211776 100
0.1857318 1.2322379 0.13587044 38
0.15182096 1.275269 0.17237349 42
0.17161942 1.2534349 0.010715778 100
0.17823547 1.244982 0.031610917 100
0.14966971 1.2814788 0.056825545 100
0.1743826 1.2499045 0.074827775 30
0.16769832 1.2584445 0.098240845 24
0.17246452 1.2523551 0.11906482 100
0.19207105 1.2273049 0.13407083 38
0.15588009 1.2735441 0.1713382 43
0.16717419 1.2626477 0.010890301 100
0.1774447 1.2494309 0.03182026 91
0.15512511 1.2781534 0.056302611 96
0.17240593 1.2559152 0.07555899 30
0.17182982 1.2566565 0.097615108 24
0.17896912 1.2474692 0.11753834 92
0.19606102 1.2254741 0.13317102 31
0.15052792 1.2840693 0.17444403 42
0.17003176 1.2623315 0.010855397 65
0.18025687 1.2490826 0.031715591 61
0.16776809 1.2652645 0.054733805 50
0.16431662 1.2697366 0.077508904 87
0.18068713 1.2485251 0.095737889 25
0.18447644 1.2436152 0.13811995 22
0.15223482 1.2853912 0.17444403 42
0.16940689 1.2668959 0.010925206 65
0.17108503 1.2647048 0.032657638 29
0.17564344 1.2587535 0.053862248 51
0.1770145 1.2569635 0.075315252 45
0.19445515 1.2341932 0.092609204 40
0.19186187 1.237579 0.1144854 13
0.1850298 1.2464988 0.13856985 29
0.16117468 1.2776437 0.1713382 58
0.17589948 1.2617891 0.010785587 52
0.16063556 1.2818549 0.033704355 28
0.16882244 1.2710924 0.055082429 50
0.18584242 1.248718 0.073852822 46
0.18762472 1.2463751 0.094799288 51
0.19222575 1.2403266 0.11486702 13
0.19015142 1.2430534 0.13722014 45
0.17806512 1.258942 0.16460891 69
0.18011415 1.2599649 0.010715778 39
0.15288725 1.2960308 0.03454173 27
0.16465941 1.2804368 0.055953987 48
0.18999153 1.2468809 0.073365346 62
0.18699279 1.2508532 0.095425025 51
0.19868353 1.2353672 0.11334054 13
0.20949975 1.2210395 0.13047162 40
0.17869571 1.2618438 0.16512655 76
0.17454371 1.2707886 0.010925206 39
0.1953685 1.2430122 0.030982886 31
0.17232999 1.2737412 0.055082429 50
0.18443024 1.2576017 0.074827775 100
0.20162383 1.2346687 0.091983467 53
0.19551796 1.2428129 0.11486702 13
0.20865938 1.2252846 0.13137141 31
0.17337573 1.2723465 0.16823238 67
0.1811564 1.265744 0.010785587 65
0.19472015 1.2475135 0.03119223 31
0.17893606 1.2687281 0.054385185 51
0.18977469 1.2541605 0.07409656 76
0.19507521 1.2470363 0.094173551 65
0.19373754 1.2488343 0.11601187 13
0.21265689 1.2234057 0.13047162 32
0.18329164 1.2628741 0.16460891 69
0.19349745 1.2524897 0.010471444 82
0.18799731 1.2599335 0.031924933 61
0.18059194 1.2699559 0.054385185 76
0.1913822 1.2553524 0.07409656 61
0.20605019 1.2355008 0.091670595 81
0.20349416 1.2389601 0.11334054 13
0.21763647 1.21982 0.1291219 32
0.18722412 1.2609799 0.16357364 69
0.19509941 1.2536693 0.010471444 96
0.19435024 1.2546902 0.031506244 62
0.18460926 1.2679656 0.054036561 100
0.20003983 1.2469362 0.072634131 78
0.20058405 1.2461946 0.093547814 100
0.20969698 1.2337751 0.11181407 14
0.2122128 1.2303466 0.13182132 15
0.19114 1.2590652 0.16253836 70
0.19434997 1.2580757 0.010541254 95
0.20772162 1.2397251 0.030459527 65
0.18156919 1.2756155 0.054733805 75
0.2074686 1.2400724 0.071415432 64
0.20100176 1.2489471 0.093860678 91
0.21817389 1.225381 0.10952436 14
0.23095584 1.2078397 0.12507279 16
0.18707529 1.268059 0.16512655 68
0.19145438 1.2658577 0.010680873 93
0.21412671 1.2345026 0.03004084 66
0.18926203 1.2688897 0.053862248 100
0.20686749 1.2445419 0.071902916 48
0.20854688 1.2422193 0.092296332 100
0.20949191 1.2409124 0.11295892 13
0.25768369 1.1742647 0.11517494 9
0.19003519 1.2678205 0.16460891 69
0.19776601 1.2605467 0.010541254 81
0.20867941 1.245348 0.03066887 96
0.19091839 1.2700832 0.053862248 100
0.20496953 1.2505145 0.072634131 63
0.21357113 1.2385354 0.09135773 94
0.20418486 1.2516073 0.11524864 13
0.23402029 1.2100563 0.12507279 8
0.19957536 1.2580268 0.16098544 72
0.19956633 1.2618344 0.010541254 95
0.21505979 1.2400893 0.030250182 98
0.1927537 1.2713959 0.053862248 100
0.19751781 1.2647095 0.074584037 76
0.21414441 1.241374 0.091670595 100
0.20937008 1.2480748 0.11410378 20
0.23563531 1.2112116 0.12507279 16
0.1991244 1.2624546 0.16202073 70
0.2058191 1.256464 0.010401634 83
0.21200624 1.2477192 0.03066887 96
0.19441834 1.2725779 0.053862248 100
0.20489293 1.2577732 0.073365346 46
0.21570939 1.2424852 0.091670595 100
0.20755553 1.2540098 0.11524864 40
0.22359368 1.2313416 0.13047162 24
0.19852781 1.2667696 0.163056 70
0.20760441 1.2577223 0.010401634 97
0.21949735 1.2407815 0.030145511 65
0.19626278 1.2738777 0.053862248 100
0.21694833 1.2444124 0.071171694 81
0.21630836 1.245324 0.091983467 93
0.20707574 1.2584753 0.11601187 86
0.23312467 1.2213702 0.1273223 48
0.19702092 1.2727978 0.16460891 69
0.20922363 1.2588551 0.010401634 97
0.22334462 1.238598 0.029936166 66
0.20477185 1.2652413 0.05281638 100
0.22079375 1.2422574 0.070684217 81
0.2201457 1.243187 0.09135773 94
0.20083851 1.2708838 0.1186832 100
0.22347915 1.238405 0.13182132 78
0.2031092 1.2676264 0.16253836 70
0.20638087 1.2666193 0.010541254 81
0.21702737 1.2512324 0.03066887 96
0.20423535 1.2697202 0.053165004 100
0.21679673 1.2515657 0.071902916 48
0.22741932 1.2362133 0.089793384 100
0.21822813 1.2494969 0.11334054 96
0.22733381 1.2363368 0.13092151 88
0.21364203 1.2561251 0.15839726 81
0.21255901 1.2611632 0.010401634 83
0.22654182 1.2408106 0.029936166 99
0.2149201 1.2577267 0.051770512 100
0.21277508 1.2608488 0.073121607 62
0.2289671 1.2372804 0.089793384 97
0.22649032 1.2408855 0.11105084 91
0.22777852 1.2390105 0.13137141 94
0.20869231 1.2667915 0.16150309 70
0.21436149 1.2623968 0.010401634 83
0.22826961 1.241993 0.029936166 66
0.20885465 1.2704756 0.05299069 100
0.22687525 1.2440386 0.070440479 65
0.22734413 1.2433507 0.090731993 100
0.22600684 1.2453126 0.11181407 98
0.23059729 1.2385781 0.13092151 96
0.21377972 1.2632502 0.15995017 72
0.21935865 1.2585388 0.010296919 42
0.21640313 1.2629058 0.03119223 31
0.20939943 1.2732542 0.053165004 79
0.22733638 1.2467514 0.070684217 81
0.2267012 1.24769 0.09135773 94
0.22758481 1.2463844 0.11181407 98
0.23433745 1.236407 0.13002171 96
0.21541724 1.2643626 0.15995017 72
0.21223351 1.2730287 0.010576159 40
0.23157254 1.2442275 0.029936166 33
0.20680356 1.2811155 0.053862248 51
0.22687271 1.2512269 0.071171694 65
0.23506132 1.2390318 0.089480512 97
0.22933301 1.2475629 0.11181407 98
0.24039435 1.2310894 0.12822211 97
0.21507758 1.2687931 0.16098544 80
0.2183404 1.2674906 0.010436539 41
0.21542084 1.27187 0.031610917 30
0.22507802 1.2573842 0.051247578 55
0.22406578 1.2589025 0.072146654 63
0.2366184 1.2400736 0.089480512 97
0.23091844 1.2486236 0.11181407 91
0.23976317 1.2353565 0.1291219 88
0.21459028 1.2731159 0.16202073 78
0.22457853 1.2620313 0.010296919 28
0.19963408 1.2997469 0.03328567 28
0.22247019 1.2652191 0.051944822 54
0.22257468 1.265061 0.072877869 100
0.24270225 1.2346286 0.088229038 98
0.23375782 1.2481524 0.11143246 91
0.2436209 1.2332397 0.12822211 81
0.22709352 1.2582287 0.15684435 74
0.2306872 1.2564772 0.0101573 42
0.21463686 1.2809302 0.032029606 30
0.22310752 1.2680249 0.052119136 54
0.23628688 1.247946 0.07019674 66
0.23565438 1.2489097 0.090731993 95
0.24404722 1.2361231 0.10837951 94
0.23989311 1.2424519 0.13047162 96
0.22879973 1.2593529 0.15684435 82
0.22692999 1.2659668 0.010331824 28
0.21206188 1.2887918 0.032448292 29
0.22702289 1.2658241 0.051770512 54
0.24554151 1.2373949 0.068490572 50
0.24164072 1.2433833 0.089480512 97
0.24353302 1.2404783 0.10914274 85
0.24898964 1.2321014 0.1273223 89
0.21785676 1.2798957 0.163056 94
0.23626238 1.2553359 0.010087491 43
0.23989746 1.2497127 0.029936166 33
0.22659233 1.2702949 0.052119136 54
0.24933019 1.2351207 0.068003096 51
0.25080177 1.2328442 0.087290429 85
0.23984811 1.249789 0.11105084 84
0.24848863 1.2364225 0.12822211 97
0.22068742 1.2794296 0.16253836 78
0.23363954 1.2631607 0.01022711 56
0.24912274 1.2390245 0.029203463 68
0.22618911 1.2747748 0.052467756 80
0.2434527 1.2478633 0.069709264 66
0.25455242 1.2305604 0.086664692 71
0.24364486 1.2475638 0.1102876 85
0.25222301 1.2341917 0.1273223 97
0.22872624 1.2708197 0.15943253 73
0.24395368 1.2507668 0.0099478718 87
0.25826955 1.228278 0.02847076 70
0.2482816 1.243968 0.049155839 87
0.24192461 1.2539542 0.070440479 49
0.25828344 1.2282562 0.086038955 58
0.25585651 1.2320687 0.10647142 88
0.24756628 1.2450917 0.13002171 88
0.23670089 1.2621601 0.1563267 74
0.25409561 1.2382554 0.0096686333 75
0.2491214 1.2461269 0.029517479 67
0.23176116 1.2735987 0.052119136 81
0.24459159 1.2532951 0.07019674 82
0.25136265 1.2425802 0.08854191 56
0.25004894 1.2446591 0.10914274 85
0.25434852 1.2378552 0.1277722 97
0.23730266 1.2648294 0.15684435 66
0.24192151 1.2613096 0.010122396 85
0.25184628 1.2454821 0.029412808 100
0.22928715 1.2814584 0.05281638 79
0.24100757 1.2627672 0.071415432 96
0.25301406 1.2436197 0.08854191 84
0.2485787 1.2506931 0.1102876 85
0.26633614 1.2223743 0.12327318 85
0.23903185 1.265918 0.15684435 66
0.2436384 1.262382 0.010122396 85
0.25983864 1.2363452 0.028784776 100
0.23738977 1.2724247 0.051770512 81
0.25531399 1.2436171 0.068490572 50
0.25884342 1.2379446 0.087290429 71
0.24403545 1.2617439 0.1125773 82
0.25865144 1.2382531 0.1273223 97
0.23464134 1.276842 0.15995017 64
0.245359 1.2634485 0.010122396 85
0.25307459 1.2509509 0.029622151 100
0.24019212 1.2718176 0.051596198 82
0.25279775 1.2513994 0.069465525 49
0.26462945 1.2322347 0.086038955 58
0.25606728 1.2461035 0.10876112 72
0.2643826 1.2326345 0.12552269 82
0.24453124 1.2647892 0.15580906 67
0.25552356 1.2509186 0.0098431576 88
0.26109719 1.2418162 0.028994121 100
0.24827603 1.2627548 0.05055033 84
0.25456417 1.2524854 0.069465525 49
0.26013628 1.2433854 0.087916173 56
0.25268817 1.2555492 0.11066922 78
0.26506254 1.2353402 0.12597258 99
0.25038207 1.2593154 0.15373851 76
0.26447207 1.2399805 0.0095988233 76
0.25444975 1.2564772 0.029831495 100
0.24792892 1.2672105 0.050898954 83
0.26037297 1.2467276 0.068490572 50
0.2658931 1.2376413 0.086664692 57
0.25642359 1.2532282 0.10990598 92
0.26466495 1.2396629 0.12687239 90
0.24807969 1.2669624 0.15580906 67
0.25880387 1.2529119 0.0098431576 88
0.26225269 1.2471924 0.029203463 100
0.24340636 1.2784467 0.051944822 81
0.25580502 1.2578851 0.069953002 49
0.26438525 1.2436559 0.087603301 57
0.26208282 1.2474742 0.10837951 65
0.27326807 1.2289249 0.12372308 83
0.24573901 1.2745783 0.15787962 65
0.25843805 1.2573575 0.0099129668 87
0.26392016 1.248194 0.029203463 100
0.24825168 1.2743845 0.051421888 82
0.26056725 1.2537985 0.069221787 67
0.26908278 1.2395644 0.086664692 57
0.26072752 1.2535306 0.10952436 78
0.2778731 1.224871 0.12237337 85
0.24750218 1.2756373 0.15787962 65
0.2591204 1.2600919 0.0099478718 73
0.26355234 1.2526248 0.029412808 100
0.25103104 1.2737215 0.051247578 82
0.2612446 1.2565129 0.069465525 49
0.27778113 1.2286512 0.084474608 59
0.26041305 1.2579139 0.1102876 78
0.27946255 1.2258182 0.12237337 85
0.25518504 1.2667224 0.15477379 67
0.26184753 1.2593811 0.0099129668 100
0.26523876 1.2536216 0.029412808 100
0.2618894 1.25931 0.049678773 86
0.26093018 1.2609391 0.069953002 49
0.27737921 1.233003 0.085100345 58
0.26510635 1.2538465 0.10914274 78
0.27710024 1.2334769 0.12417299 83
0.26476231 1.2544308 0.15063268 70
0.26960915 1.2500237 0.0097035384 90
0.27095813 1.2477143 0.028994121 100
0.26058441 1.2654738 0.050201707 85
0.26464811 1.258517 0.069465525 49
0.27401537 1.2424804 0.086664692 57
0.27273837 1.2446666 0.10685304 81
0.27577102 1.2394748 0.12552269 82
0.25671121 1.2721047 0.15580906 67
0.2762993 1.2423484 0.0095290141 92
0.27663276 1.241773 0.028575432 100
0.25632229 1.2768245 0.051247578 100
0.2643646 1.2629452 0.069953002 49
0.27863744 1.2383133 0.08572609 58
0.26849115 1.2558236 0.10914274 85
0.28425062 1.2286263 0.12237337 85
0.25846568 1.2731254 0.15580906 67
0.26898107 1.2589043 0.0098431576 88
0.27828121 1.2427244 0.028575432 100
0.2590861 1.2761192 0.051073264 83
0.26806551 1.2604971 0.069465525 49
0.28519583 1.2306947 0.084161744 59
0.27214545 1.2533991 0.10837951 94
0.28682426 1.2278615 0.12192347 76
0.26499498 1.2658391 -0.0099827768 96
0.2621491 1.2707903 0.15477379 67
0.26771799 1.2650938 0.0099478718 73
0.27795446 1.24714 0.028784776 100
0.27170986 1.2580925 0.049155839 87
0.27567878 1.2511314 0.068003096 51
0.28974083 1.2264681 0.083223134 60
0.27675176 1.2492495 0.10723466 73
0.28649366 1.2321632 0.12282328 76
0.26969892 1.2616194 -0.0098780617 87
0.26964012 1.2617226 0.15166797 69
0.28027624 1.2469294 0.0095639192 91
0.28158805 1.2446098 0.028575432 100
0.2724345 1.2607951 0.049330149 87
0.27931431 1.2486303 0.067515619 51
0.28452882 1.2394099 0.085413218 58
0.27939275 1.2484915 0.10685304 81
0.28906783 1.2313839 0.12237337 85
0.27043229 1.2643355 -0.0099129668 97
0.27135825 1.2626983 0.15166797 69
0.28683424 1.2391477 0.0093893949 77
0.27542943 1.2594792 0.029412808 100
0.27609888 1.2582858 0.048981529 87
0.27904436 1.2530348 0.068003096 51
0.28520256 1.2420565 0.08572609 58
0.28202513 1.247721 0.10647142 81
0.28972656 1.2339915 0.12282328 76
0.27497002 1.2602981 0.15063268 70
0.28361237 1.2488008 0.0095639192 91
0.28490797 1.2464721 0.028575432 100
0.27296165 1.2679441 0.049853086 85
0.2845926 1.2470388 0.067028143 51
0.28205001 1.2516088 0.087290429 57
0.28083083 1.2538003 0.10761628 79
0.29324266 1.2314914 0.12192347 85
0.27480468 1.2646315 0.15166797 69
0.28238699 1.2549802 0.0096686333 60
0.29043251 1.2403997 0.028156744 100
0.27470148 1.2689081 0.049853086 85
0.28625938 1.2479625 0.067028143 51
0.29232204 1.2369754 0.084474608 59
0.28157273 1.2564558 0.10799789 87
0.2995626 1.2238538 0.11967396 87
0.27369198 1.2707376 -0.0099827768 86
0.27466628 1.2689719 0.15270324 68
0.27727461 1.2681432 0.0099129668 87
0.28623906 1.2517692 0.028784776 100
0.28496858 1.2540898 0.048284281 88
0.27735966 1.2679877 0.069709264 83
0.293872 1.2378274 0.084474608 59
0.28695858 1.250455 0.10647142 81
0.2973257 1.2315191 0.12147357 86
0.27919522 1.2646351 -0.0098431576 87
0.28188878 1.2597152 0.14959741 70
0.28855684 1.2515184 0.0095639192 91
0.28506333 1.2579527 0.029098792 100
0.28570929 1.256763 0.048458595 88
0.28288844 1.2619584 0.068734311 67
0.29550657 1.2387186 0.084474608 59
0.29051083 1.2479196 0.10570818 81
0.2952188 1.2392486 0.12327318 76
0.27901512 1.2690921 -0.0099129668 87
0.28913063 1.2504616 0.14649157 72
0.29308334 1.247146 0.009459204 77
0.29055572 1.2518404 0.028680105 100
0.28268719 1.2664537 0.049330149 87
0.28366619 1.2646356 0.068978049 50
0.29901725 1.2361255 0.083848871 59
0.29590368 1.2419081 0.10418171 82
0.29962996 1.2349876 0.12192347 76
0.28075892 1.270035 -0.0099129668 97
0.2834824 1.264977 0.15063268 70
0.2919248 1.2533319 0.0095639192 91
0.29317996 1.2509812 0.028575432 100
0.27503735 1.2849593 0.051073264 83
0.29474446 1.2480512 0.066540658 52
0.29506332 1.2474539 0.08572609 58
0.29015478 1.2566469 0.10723466 81
0.28156412 1.2727357 -0.0099478718 86
0.2852118 1.2659042 0.15063268 70
0.28995642 1.2613442 0.0097035384 90
0.29401031 1.2536845 0.028680105 100
0.28624654 1.2683539 0.049330149 87
0.2964983 1.2489835 0.066540658 69
0.29653198 1.2489198 0.10532656 75
0.28793484 1.2651639 0.15011504 78
0.29074389 1.2640196 0.0097384425 75
0.29909778 1.248101 0.047238413 91
0.29817182 1.2498655 0.066540658 52
0.29181919 1.2619706 0.10799789 72
0.28795618 1.2693317 -0.0098431576 87
0.2905626 1.2643651 0.14959741 70
0.29792365 1.2542341 0.0095290141 92
0.29426482 1.2612627 0.068003096 51
0.29146019 1.2666504 -0.0097733475 99
0.29398745 1.2617955 0.14856213 71
0.296864 1.260442 0.0096337283 90
0.2990045 1.2562948 0.028680105 100
0.28769243 1.2782116 -0.0099827768 96
0.29659173 1.2609695 0.1480445 79
0.29768085 1.2630749 0.048458595 59
0.29860497 1.261269 0.067759357 68
0.29390687 1.2704499 0.15063268 78
0.29129073 1.2799439 0.050027397 57
0.29305625 1.2764637 -0.0099129668 100
0.29390725 1.2747865 0.15166797 69
0.29931819 1.2684252 0.0097384425 100
0.2975212 1.2719982 -0.0098082526 100
0.29481372 1.2818245 -0.0099827768 100
0.29837391 1.2791266 -0.0099129668 100
0.29943487 1.2906358 0.05055033 28
