# .PCD v0.7 - Point Cloud Data file format
VERSION 0.7
FIELDS x y z intensity
SIZE 4 4 4 4
TYPE F F F F
COUNT 1 1 1 1
WIDTH 875
HEIGHT 1
VIEWPOINT 0 0 0 1 0 0 0
POINTS 875
DATA ascii
0.0015831204 0.75588322 0.013194019 11
0.0041657938 0.74587476 0.013019496 9
0.0067993752 0.76385337 0.013333638 11
0.0091931075 0.74183005 0.012949686 11
0.011496005 0.73179823 0.012775161 12
0.014333054 0.73974848 0.012914781 11
0.017149013 0.75569028 0.013194019 11
0.019520083 0.73562896 0.012844971 13
0.021780392 0.72956377 0.012740256 14
0.024326913 0.72948331 0.012740256 16
0.026452728 0.72140521 0.012600637 16
0.029419033 0.72929567 0.012740256 16
0.032360654 0.7411809 0.012949686 15
0.034099877 0.72308612 0.012635542 18
0.036295883 0.71897477 0.012565733 18
0.039128732 0.72483402 0.012670447 20
0.041875392 0.73068959 0.012775161 22
0.045535274 0.74449515 0.013019496 24
0.046974286 0.72837567 0.012740256 30
0.049507592 0.72620356 0.012705352 32
0.052185185 0.72802085 0.012740256 28
0.054126397 0.71985799 0.012600637 28
0.058364678 0.74159354 0.012984591 28
0.058207501 0.70950794 0.012426114 30
0.060683791 0.7093004 0.012426114 32
0.063868999 0.71705151 0.012565733 30
0.067293413 0.72678006 0.012740256 36
0.068623222 0.71661216 0.012565733 38
0.070729114 0.7123884 0.012495923 32
0.072315373 0.70217854 0.012321399 30
0.076248609 0.71584094 0.012565733 32
0.078746893 0.71557045 0.012565733 30
0.08034151 0.70734352 0.012426114 34
0.081414431 0.69514203 0.012216684 34
0.083361343 0.69088304 0.012146875 34
0.086882569 0.70052522 0.012321399 28
0.089074276 0.69823408 0.012286494 30
0.093206614 0.71181422 0.012530828 30
0.091425978 0.67977494 0.011972351 27
0.095985986 0.69529891 0.012251589 26
0.097851694 0.69099975 0.012181779 25
0.10141229 0.69856977 0.012321399 24
0.10267336 0.69029981 0.012181779 25
0.10297466 0.67609888 0.011937446 34
0.10625804 0.68166286 0.01204216 36
0.11021129 0.69116151 0.012216684 40
0.11230144 0.68879896 0.012181779 36
0.11700579 0.70221025 0.012426114 38
0.11811405 0.69391221 0.012286494 44
0.11858473 0.68368632 0.01211197 42
0.122365 0.69114447 0.012251589 26
0.12655424 0.70055234 0.012426114 22
0.12682472 0.68830681 0.012216684 21
0.12590361 0.6701721 0.011902541 19
0.12899433 0.67365652 0.011972351 14
0.130696 0.669254 0.011902541 14
-1.1820837 0.16697267 0.020838173 25
-1.0904573 0.15791447 0.019232552 4
-1.0127821 0.15009655 0.017871264 6
-1.010275 0.15333085 0.01783636 4
-1.1519427 0.17935964 0.020349506 51
-0.42337966 1.2268009 0.022653224 1
-0.38700488 1.1335758 0.020907983 1
-0.41480473 1.2297268 0.022653224 1
-0.37491456 1.1376318 0.020907983 1
-0.37113997 1.1388687 0.020907983 1
-0.36083704 1.121186 0.020558935 1
-0.36318019 1.141432 0.020907983 1
-0.35060367 1.1160467 0.020419316 1
-0.35045877 1.1286616 0.020628745 1
-0.33342788 1.0878766 0.019860838 1
-0.32981852 1.0889763 0.019860838 1
-0.32830712 1.0977843 0.020000458 1
-0.32466495 1.0988669 0.020000458 1
-0.32082719 1.0999936 0.020000458 1
-0.30721402 1.0664635 0.019372171 1
-0.29674527 1.0444994 0.018953314 2
-0.29760084 1.0608807 0.019232552 4
-0.29530966 1.0677464 0.019337267 6
-0.28966063 1.0610033 0.019197647 6
-0.28179595 1.0465606 0.018918408 6
-0.2798644 1.0532873 0.019023122 4
-0.2734699 1.0446334 0.0188486 3
-0.27450433 1.0629601 0.019162742 2
-0.27060655 1.063959 0.019162742 1
-0.14848134 1.4823552 0.026004085 39
-0.14343126 1.4868704 0.026073895 34
-0.1304519 1.4559448 0.025515418 29
-0.10204446 1.1854348 0.020768363 28
-0.090501249 1.0961026 0.019197647 25
-0.10006975 1.2658573 0.022164555 20
-0.10288075 1.3619117 0.023839988 18
-0.057898745 0.80379468 0.014066639 22
-0.090044782 1.3107105 0.022932462 12
-0.053336818 0.81813836 0.014310974 16
-0.049618792 0.80434823 0.014066639 8
-0.047159258 0.81050551 0.014171354 6
-0.042582791 0.77871782 0.013612877 10
-0.040477596 0.7908442 0.013822306 10
-0.037907276 0.79497552 0.013892115 7
-0.034778979 0.787112 0.013752496 8
-0.031706043 0.77923644 0.013612877 7
-0.028688516 0.77134913 0.013473257 5
-0.025859691 0.76344579 0.013333638 7
-0.023558922 0.77552408 0.013543067 8
-0.021176869 0.7775932 0.013577973 8
-0.01832005 0.77166498 0.013473257 10
-0.015464393 0.76372707 0.013333638 11
-0.012865402 0.76777524 0.013403448 10
-0.0099465773 0.75981915 0.013263829 11
-0.0074094255 0.77184683 0.013473257 12
-0.0047029168 0.76986837 0.013438353 14
-0.0019631942 0.74988317 0.013089305 13
0.054341137 0.0011826754 0.047939736 63
0.049006283 0.01049155 0.015881689 4
0.04544431 0.016588211 0.047521047 78
0.038481295 0.011642277 0.047939736 36
0.033459365 0.010218799 0.048149079 17
0.03532511 0.01861757 0.047730394 19
0.032705426 0.020418704 0.047730394 9
0.03465265 0.028788328 0.047311705 10
0.0088962317 0.0029364824 0.0491958 7
-0.3340804 0.5725466 0.015811881 9
-0.34452987 0.57348847 0.015986403 43
-0.34911954 0.5757677 0.016056214 76
-0.34001172 0.58098447 0.015881689 76
-0.33870858 0.58450097 0.015846785 58
-0.33148342 0.58905745 0.015707165 57
-0.3419109 0.59015918 0.015881689 58
-0.34256405 0.59342945 0.015881689 81
-0.34906405 0.59540248 0.015986403 100
-0.33195961 0.60175717 0.015672261 100
-0.32861036 0.60557252 0.015602452 100
-0.33311266 0.6079185 0.015672261 100
-0.3415454 0.60958564 0.015811881 37
-0.34209991 0.61269867 0.015811881 37
-0.36628973 0.61172926 0.016230738 11
-0.3943845 0.60993016 0.016719405 9
-0.41861027 0.6093002 0.017138263 7
-0.45077544 0.60773051 0.01769674 5
-0.45528573 0.6105985 0.01776655 5
-0.47952145 0.61025363 0.018185407 5
-0.50577515 0.60995203 0.01863917 10
-0.53599948 0.60924613 0.019162742 15
-0.54447061 0.61189437 0.019302361 15
-0.84595054 0.64222151 0.024468273 34
-0.82848126 0.64891362 0.02415413 64
-0.83084744 0.65307611 0.024189034 34
-0.82130092 0.65894502 0.024014512 39
-0.80969948 0.66442192 0.023805082 58
-0.84198529 0.66704619 0.024363559 46
-0.82637817 0.67303002 0.02408432 39
-0.83271009 0.67767566 0.024189034 25
-0.8549456 0.68062353 0.024572989 13
-0.90716261 0.6826629 0.025480513 9
-0.97532517 0.68365282 0.026667276 15
-0.98159379 0.68839228 0.026771991 15
-1.005836 0.69254589 0.027190849 4
-1.0467341 1.1342347 0.028587041 3
-1.031158 1.1306816 0.084993593 5
-1.0331304 1.1311315 0.14206386 6
-1.0161688 1.1333065 0.028063469 10
-1.0006416 1.1297046 0.083423518 15
-1.0220919 1.1346805 0.1411923 27
-0.99159795 1.1329981 0.027644612 23
-0.99944013 1.1348448 0.083423518 82
-1.0286312 1.1417184 0.14188954 81
-0.99025708 1.1386459 0.027644612 38
-0.99032289 1.1386616 0.083004825 100
-1.0214453 1.1461105 0.14136662 95
-0.99291259 1.1446954 0.027714422 43
-0.99297363 1.1447102 0.083214171 100
-1.0027645 1.1470878 0.13979781 86
-0.98563832 1.1491789 0.027609708 25
-0.98570639 1.1491957 0.082900152 99
-0.99356788 1.1511369 0.13910057 91
-0.9707939 1.1508685 0.027365373 26
-0.98444051 1.1542861 0.082900152 58
-0.99809355 1.1577054 0.13962349 78
-0.96364099 1.1546971 0.027260659 38
-0.97534686 1.1576722 0.082481466 40
-0.99673074 1.1631069 0.13962349 69
-0.9739756 1.1627083 0.027470088 53
-0.97211879 1.1622299 0.082376793 54
-0.99155992 1.1672395 0.13927488 91
-0.96865684 1.1672791 0.027400278 67
-0.97260326 1.1683116 0.082481466 100
-0.97660094 1.1693573 0.1380547 91
-0.95186776 1.168213 0.027121039 75
-0.96355182 1.171311 0.082062781 92
-0.96756488 1.172375 0.13735744 99
-0.94460517 1.1721562 0.027016325 81
-0.96014208 1.1763368 0.081958108 100
-0.96223205 1.1768991 0.13700883 100
-0.95483893 1.1802661 0.027225753 92
-0.94337088 1.1771396 0.081120729 100
-0.96664101 1.1834838 0.13753176 100
-0.95339769 1.1855166 0.027225753 92
-0.93616539 1.1807538 0.080806717 100
-0.96710891 1.1893061 0.13770607 91
-0.94430894 1.1883433 0.027086135 93
-0.93864173 1.1867567 0.081016064 90
-0.95611697 1.1916491 0.13683452 94
-0.9388445 1.1929849 0.027016325 77
-0.94087297 1.1935613 0.081225403 82
-0.94682068 1.195251 0.13613728 100
-0.94896406 1.201237 0.027225753 57
-0.94713777 1.2007116 0.081644088 48
-0.94348758 1.1996615 0.13596296 100
-0.94552988 1.2059072 0.027190849 39
-0.92069811 1.1986694 0.080283359 22
-0.95919377 1.2098899 0.13753176 85
-0.93065053 1.2069026 0.026946515 68
-0.91926855 1.203544 0.080283359 26
-0.94817203 1.2120727 0.1366602 82
-0.93095511 1.2128994 0.026981421 74
-0.91384262 1.2077818 0.080074012 30
-0.9312709 1.2129939 0.13526571 91
-0.91799456 1.2143322 0.026771991 75
-0.92194086 1.2155267 0.080597371 68
-0.92597979 1.2167492 0.1349171 100
-0.90886503 1.2168552 0.026632372 83
-0.9204554 1.2204053 0.080597371 100
-0.92449027 1.2216413 0.1349171 100
-0.90928525 1.2222824 0.026667276 89
-0.90178412 1.2199576 0.079655327 93
-0.92298442 1.2265284 0.1349171 84
-0.90753788 1.2278824 0.026667276 79
-0.90195113 1.2261274 0.07976 78
-0.92882389 1.2345693 0.13561434 52
-0.909823 1.2339245 0.026737086 78
-0.90233403 1.2315446 0.079864666 74
-0.90828711 1.2334363 0.13387123 43
-0.8966915 1.2355962 0.026527658 85
-0.90253383 1.2374765 0.079969339 86
-0.90088886 1.2369471 0.13334829 48
-0.88373059 1.2366774 0.02631823 96
-0.90287489 1.2429088 0.080074012 100
-0.90312165 1.2429891 0.13369691 54
-0.88209289 1.2416792 0.02631823 100
-0.88983315 1.2442286 0.07944598 100
-0.91660076 1.2530448 0.13509139 78
-0.88810986 1.2489531 0.026457848 100
-0.88067287 1.2464763 0.079027295 100
-0.91121024 1.2566465 0.13474278 82
-0.88626021 1.2544714 0.026457848 93
-0.88451034 1.2538812 0.079341307 100
-0.89045209 1.2558855 0.13299966 80
-0.87707502 1.25665 0.02631823 92
-0.88289779 1.2586355 0.079341307 100
-0.89449018 1.2625887 0.1335226 95
-0.87150115 1.2605724 0.02624842 96
-0.88676125 1.2658389 0.079655327 100
-0.88890833 1.2665797 0.13317397 100
-0.87364286 1.2666008 0.02631823 85
-0.87190837 1.2659957 0.078922622 97
-0.90230352 1.2765983 0.13456847 63
-0.86804169 1.2704843 0.02624842 79
-0.85313028 1.2652215 0.077980578 61
-0.91358858 1.2865596 0.13578865 35
-0.87202471 1.2771993 0.026353134 88
-0.85712391 1.2718847 0.07829459 25
-0.89122504 1.2840476 0.13387123 36
-0.8569892 1.277657 0.0261088 96
-0.86278981 1.2797501 0.078713275 36
-0.86684173 1.2812121 0.13177948 28
-0.84778303 1.2795804 0.025969181 96
-0.86296815 1.2851163 0.078817949 78
-0.87636989 1.2900021 0.13282534 16
-0.84608549 1.2842128 0.025969181 100
-0.85562962 1.2877281 0.078503937 100
-0.86715931 1.2919748 0.1321281 11
-0.84437269 1.2888396 0.025969181 100
-0.8351863 1.2854214 0.077457212 95
-0.89903218 1.3091781 0.13526571 1
-0.84985608 1.297008 0.0261088 100
-0.83319706 1.2907363 0.077457212 42
-0.84474152 1.2950826 0.130385 1
-0.8331477 1.2959611 0.025829561 85
-0.83519632 1.2967401 0.077666558 51
-0.83554345 1.2968721 0.12968774 9
-0.82570356 1.2986341 0.025724847 71
-0.83894223 1.3037213 0.077980578 59
-0.85787338 1.3109958 0.13195379 46
-0.83139986 1.306087 0.025864467 74
-0.82971686 1.305434 0.077561885 68
-0.85421425 1.3149407 0.13177948 100
-0.8331489 1.3126072 0.025934275 88
-0.81472999 1.3053814 0.07682918 63
-0.84664315 1.3179009 0.13125655 100
-0.83691937 1.3194003 0.026038991 100
-0.82780212 1.3157886 0.077666558 80
-0.8244428 1.3144579 0.12933913 99
-0.8127144 1.3153228 0.025620133 100
-0.82217997 1.3191106 0.077457212 95
-0.82438368 1.3199925 0.12951343 100
-0.80719036 1.3183405 0.025550323 100
-0.82405514 1.3251543 0.077666558 95
-0.82624692 1.3260398 0.12986206 100
-0.81257683 1.3263347 0.025689943 100
-0.80906767 1.3249019 0.076933853 100
-0.83157796 1.3340929 0.1305593 100
-0.78976172 1.3170195 0.1776855 24
-0.8070268 1.3293262 0.025620133 100
-0.8127597 1.331689 0.077247873 100
-0.82048947 1.334875 0.12968774 100
-0.76958734 1.3138946 0.17524812 16
-0.80856091 1.3360708 0.025689943 100
-0.80137485 1.3330766 0.076724514 100
-0.81095392 1.3370678 0.1289905 100
-0.78031594 1.324302 0.17695428 16
-0.79561645 1.3359214 0.025480513 100
-0.79213601 1.3344576 0.076305822 100
-0.8053928 1.3400331 0.12864187 100
-0.79127938 1.3340974 0.17866045 22
-0.78627044 1.3374884 0.025340894 96
-0.79934925 1.3430427 0.07682918 76
-0.79789311 1.3424244 0.12811895 100
-0.76554924 1.3286885 0.17549185 16
-0.81378907 1.3545208 0.025899371 60
-0.8066203 1.3514482 0.077352546 40
-0.81613153 1.3555248 0.13003637 39
-0.75274187 1.3283558 0.17402942 7
-0.81347269 1.3603098 0.025934275 83
-0.80448002 1.3564165 0.077352546 82
-0.82494658 1.3652775 0.13108224 43
-0.77436858 1.34338 0.17719802 5
-0.80234534 1.3608252 0.025759751 100
-0.81167907 1.364903 0.077875905 100
-0.81931359 1.3682383 0.13073361 100
-0.78337437 1.3525369 0.17866045 28
-0.79651183 1.3641632 0.025689943 100
-0.80583495 1.3682771 0.077666558 100
-0.80435199 1.3676227 0.12951343 100
-0.79575938 1.3638313 0.18061037 36
-0.79270726 1.3678118 0.025655037 100
-0.81661564 1.3784565 0.078399263 100
-0.79872245 1.3704898 0.12916481 100
-0.76839417 1.3569869 0.17719802 26
-0.79780239 1.3760092 0.025794657 100
-0.80708998 1.3801851 0.077980578 100
-0.81468409 1.3835996 0.13090792 100
-0.77890736 1.3675134 0.17890419 33
-0.80306977 1.3837796 0.025934275 100
-0.79960245 1.3822068 0.077666558 100
-0.80901295 1.3864756 0.1305593 100
-0.74980181 1.3596163 0.17524812 18
-0.80808324 1.3920658 0.026073895 100
-0.80279702 1.3896444 0.077980578 100
-0.80312151 1.389793 0.13021068 100
-0.78011793 1.3792564 0.17963541 14
-0.79512125 1.3915334 0.025864467 100
-0.81161314 1.3991536 0.07860861 100
-0.79744142 1.3926053 0.12986206 100
-0.76547617 1.3778353 0.17792924 11
-0.78931886 1.3945346 0.025794657 100
-0.81483907 1.4064349 0.078922622 100
-0.80248278 1.4006732 0.1305593 100
-0.76694459 1.3841014 0.17841671 10
-0.79266912 1.4015259 0.025899371 100
-0.80368453 1.406707 0.078399263 100
-0.81480724 1.4119387 0.13195379 100
-0.76310462 1.3876202 0.17817298 5
-0.79576463 1.409016 0.026004085 100
-0.79773337 1.4099509 0.078189917 100
-0.81244534 1.4169366 0.13195379 100
-0.78235048 1.4026465 0.18109785 3
-0.80073935 1.4171659 0.026143705 100
-0.79909366 1.4163773 0.078399263 100
-0.79939801 1.4165232 0.13090792 100
-0.79307097 1.4192659 0.026038991 100
-0.80582005 1.425429 0.078922622 100
-0.80072051 1.4229639 0.13125655 100
-0.78720182 1.4221969 0.025969181 100
-0.80711418 1.4319088 0.079131968 100
-0.81096822 1.4337885 0.13247673 100
-0.79209405 1.4303921 0.0261088 100
-0.79941922 1.4339966 0.078817949 100
-0.80327982 1.4358962 0.13195379 100
-0.80410987 1.442186 0.026388038 100
-0.7845704 1.4324865 0.078085244 100
-0.81522399 1.4477031 0.13334829 100
-0.79817921 1.4451178 0.02631823 100
-0.79117912 1.4416125 0.07860861 100
-0.80572408 1.4488961 0.13265105 100
-0.79224461 1.4480165 0.02624842 100
-0.79774016 1.4507926 0.079131968 100
-0.8033461 1.4536242 0.13265105 100
-0.78642505 1.4506488 0.02617861 100
-0.8061536 1.4606967 0.07976 100
-0.80817324 1.4617252 0.13334829 100
-0.79115587 1.4589646 0.02631823 96
-0.79662806 1.4617758 0.079341307 100
-0.80929476 1.4682827 0.13369691 100
-0.79596657 1.4670868 0.026457848 100
-0.79432672 1.4662375 0.079341307 100
-0.81581765 1.4773679 0.13456847 100
-0.80061489 1.4754841 0.026597468 100
-0.79542881 1.4727752 0.079550654 100
-0.81157416 1.4812088 0.13439415 100
-0.78765172 1.4743688 0.026388038 93
-0.79485816 1.4781635 0.079655327 100
-0.80039364 1.4810784 0.1335226 100
-0.78341872 1.478096 0.026353134 34
-0.79943377 1.4866006 0.080074012 30
-0.80142266 1.4876568 0.13387123 66
0.15823159 1.2581333 0.010925206 13
0.13745669 1.2840183 0.03454173 27
0.098555863 1.3324878 0.063100755 19
0.16175953 1.2537376 0.098240845 12
0.14079395 1.2798601 0.12707879 17
0.19748873 1.2092199 0.13002171 8
0.12799224 1.2958107 0.18065569 6
0.14988065 1.2719392 0.011204445 37
0.16281772 1.2557099 0.032552965 59
0.15506828 1.2654314 0.055431053 49
0.14661568 1.276035 0.07945881 14
0.15720922 1.2627456 0.099805191 24
0.14860579 1.2735384 0.12517071 72
0.18801475 1.2241009 0.13407083 15
0.153822 1.2669948 0.17030293 14
0.15916744 1.2639929 0.010995016 100
0.16955742 1.2508605 0.032134276 90
0.16306779 1.2590631 0.054559495 100
0.15832654 1.2650558 0.077508904 29
0.17495129 1.2440429 0.095737889 38
0.16263533 1.2596097 0.12135452 100
0.18605417 1.2300094 0.13542053 38
0.1580435 1.2654135 0.16926765 44
0.16822094 1.2558522 0.010785587 100
0.16374996 1.261542 0.032762308 100
0.15853661 1.2681764 0.055431053 100
0.17346194 1.2491825 0.074827775 30
0.16187927 1.2639226 0.099492319 24
0.17639121 1.2454548 0.11753834 100
0.17915329 1.2419397 0.13856985 44
0.15013963 1.2788625 0.17340876 42
0.1722948 1.2539628 0.010715778 100
0.17521259 1.2502241 0.031924933 91
0.15528753 1.2757545 0.056128297 100
0.16283977 1.2660776 0.077265166 29
0.17810348 1.2465199 0.095737889 25
0.17434627 1.2513342 0.1186832 100
0.19630682 1.2231956 0.13272113 31
0.1506407 1.2817087 0.1739264 35
0.16532621 1.2662761 0.010960111 90
0.18414864 1.2419928 0.031296901 62
0.15818745 1.275486 0.055953987 73
0.1778644 1.2501003 0.074584037 30
0.17484501 1.2539957 0.096989371 25
0.17835 1.2494738 0.11791996 39
0.19184232 1.2320671 0.13497064 30
0.14287168 1.2952452 0.17806751 27
0.17089161 1.2629938 0.010855397 65
0.17013597 1.2639765 0.032657638 29
0.16863307 1.2659309 0.054733805 50
0.18092069 1.2499521 0.074340299 46
0.18874794 1.2397735 0.093860678 39
0.17780021 1.25401 0.1186832 13
0.18767947 1.2411629 0.13722014 22
0.15313497 1.2860847 0.17444403 56
0.17981091 1.2547131 0.010645968 53
0.17662516 1.2588843 0.032238949 30
0.17511693 1.2608591 0.054036561 51
0.18853864 1.2432852 0.073121607 93
0.19030774 1.2409688 0.093860678 52
0.19013184 1.2411991 0.11524864 20
0.2034376 1.2237771 0.13182132 31
0.17595455 1.2597624 0.16512655 61
0.17908877 1.2591891 0.010715778 39
0.17109373 1.2697337 0.032866981 29
0.1708138 1.2701029 0.054908119 50
0.19019291 1.244544 0.073121607 62
0.18956694 1.2453697 0.094486415 52
0.20364046 1.2268083 0.11143246 14
0.1991367 1.2327483 0.13407083 46
0.17649922 1.2626045 0.16564418 68
0.17349571 1.2700012 0.010925206 39
0.17755869 1.2646054 0.032448292 29
0.17966527 1.2618079 0.053862248 51
0.19654498 1.2393914 0.072146654 79
0.18876877 1.2497183 0.095112152 51
0.20279524 1.231091 0.11219569 14
0.20418987 1.229239 0.13272113 31
0.17929691 1.262297 0.16512655 68
0.18499231 1.2586267 0.010645968 53
0.17946056 1.2660319 0.032448292 29
0.17797926 1.2680149 0.054385185 51
0.18290579 1.2614198 0.075315252 100
0.20007098 1.2384412 0.092609204 53
0.20221838 1.2355666 0.11295892 13
0.21528578 1.2180736 0.1291219 32
0.17078462 1.2776461 0.16978529 81
0.18542323 1.2614404 0.010680873 93
0.20728698 1.2319686 0.030145511 65
0.1748845 1.2756464 0.055082429 50
0.19754744 1.2450973 0.072634131 94
0.21457264 1.2221477 0.089167647 84
0.20259446 1.238294 0.11334054 13
0.21212921 1.2254415 0.13092151 32
0.17477211 1.2757978 0.16875002 81
0.19434011 1.2531111 0.010471444 82
0.20306203 1.2412636 0.03066887 64
0.18618992 1.264182 0.053687938 78
0.19340673 1.2543789 0.073852822 93
0.20686316 1.2361004 0.091670595 81
0.20896888 1.2332401 0.11181407 14
0.21611142 1.223538 0.13002171 24
0.17319256 1.281837 0.17030293 72
0.19122335 1.260745 0.010611063 81
0.19519672 1.2553102 0.031506244 62
0.18665481 1.266994 0.053862248 100
0.20555907 1.2411363 0.071659178 80
0.20374736 1.2436144 0.092922069 100
0.21282429 1.2311987 0.11105084 14
0.24061951 1.1931796 0.12102367 17
0.19085398 1.2612503 0.163056 70
0.19990167 1.2522229 0.010401634 83
0.21440893 1.2322407 0.029936166 66
0.19064596 1.2649716 0.053513627 100
0.2047908 1.2454886 0.072146654 79
0.19951713 1.2527525 0.094486415 100
0.20397478 1.2466127 0.1144854 13
0.23286539 1.2068189 0.12462288 16
0.192485 1.2624385 0.163056 70
0.19223371 1.2664204 0.010680873 93
0.21252128 1.2382703 0.030250182 98
0.19004613 1.2694557 0.053862248 100
0.20413139 1.2499117 0.072634131 78
0.21737373 1.2315372 0.090106249 96
0.20564055 1.2478175 0.1144854 13
0.24806467 1.1889518 0.11922406 8
0.19307661 1.2652508 0.16357364 69
0.19405559 1.2677283 0.010680873 93
0.21540165 1.2378794 0.030145511 98
0.19187912 1.2707717 0.053862248 100
0.20589268 1.2511761 0.072634131 63
0.21332222 1.2407871 0.091670595 100
0.20511013 1.2522703 0.11524864 20
0.23599929 1.2090771 0.12462288 8
0.19938919 1.2602701 0.16150309 70
0.20274034 1.2591841 0.010471444 96
0.21125627 1.2471876 0.03066887 96
0.20054916 1.2622708 0.05281638 100
0.19953087 1.2637053 0.074340299 46
0.21725452 1.2387379 0.091044858 100
0.20452279 1.2566731 0.11601187 26
0.22738156 1.224472 0.128672 16
0.20445749 1.2567651 0.15995017 72
0.2089729 1.2537951 0.010331824 84
0.21284056 1.2483084 0.03066887 96
0.19988769 1.2666838 0.053165004 100
0.2114633 1.2502621 0.072146654 63
0.21653453 1.243068 0.091670595 100
0.20840082 1.2546067 0.11524864 60
0.22889042 1.2255393 0.128672 32
0.2038475 1.2610663 0.16098544 72
0.21066374 1.2549826 0.010331824 98
0.22596231 1.2331178 0.029622151 100
0.203908 1.2646379 0.05281638 100
0.22224608 1.2384291 0.07019674 82
0.21365803 1.2507031 0.092922069 100
0.20784345 1.2590134 0.11601187 100
0.23048249 1.2266575 0.128672 56
0.20334873 1.2654374 0.16202073 70
0.20779601 1.2627339 0.010471444 96
0.224163 1.2391675 0.029936166 66
0.19768113 1.2772982 0.054036561 100
0.21482441 1.2526139 0.072146654 79
0.2254793 1.237272 0.090106249 96
0.21179229 1.2569797 0.11524864 100
0.22429717 1.2389742 0.13182132 94
0.20508024 1.2666444 0.16202073 70
0.20951805 1.2639254 0.010471444 96
0.22240201 1.2452352 0.030250182 98
0.20284647 1.2736037 0.053513627 100
0.21651107 1.2537808 0.072146654 63
0.22599122 1.2400284 0.090419121 100
0.21683702 1.2533081 0.11410378 96
0.22925425 1.2352948 0.13047162 96
0.20900881 1.2646642 0.16098544 72
0.21584624 1.2585678 0.010331824 98
0.22527355 1.2447841 0.030145511 65
0.21369278 1.2617164 0.052119136 100
0.22052777 1.2517229 0.071659178 64
0.22883132 1.2395823 0.090106249 96
0.22636893 1.2431825 0.11143246 91
0.23536232 1.2300333 0.128672 81
0.21518654 1.2595325 0.15891489 73
0.21643057 1.2613857 0.010366729 55
0.2101064 1.2707019 0.031715591 61
0.21653026 1.2612389 0.051944822 81
0.2222113 1.2528701 0.071659178 96
0.227144 1.2456037 0.091044858 100
0.23574126 1.2329389 0.10876112 94
0.22930849 1.2424152 0.13182132 100
0.21689734 1.2606981 0.15891489 73
0.2202118 1.2591152 0.010296919 42
0.24182832 1.2270553 0.028889447 34
0.21584749 1.265588 0.052293446 53
0.22816896 1.2473139 0.070684217 81
0.2264311 1.2498913 0.091670595 100
0.23170939 1.2420629 0.11066922 85
0.23406252 1.238573 0.13047162 100
0.21736056 1.2633439 0.15943253 73
0.21969688 1.2635872 0.010366729 41
0.2256532 1.2546865 0.030564198 32
0.20982298 1.2783422 0.053513627 52
0.23204505 1.2451348 0.07019674 99
0.23469985 1.2411677 0.089793384 100
0.22680795 1.2529608 0.11295892 100
0.23678386 1.2380533 0.13002171 100
0.2158615 1.2693186 0.16098544 72
0.22363448 1.2614057 0.010296919 42
0.22955701 1.2524881 0.030354854 32
0.21380407 1.2762072 0.053165004 52
0.22491959 1.2594707 0.072146654 79
0.24399653 1.2307467 0.087603301 99
0.23609892 1.2426381 0.1102876 92
0.24165398 1.2342739 0.128672 97
0.22081283 1.2656542 0.15943253 73
0.2275528 1.2592026 0.01022711 28
0.2004666 1.3002965 0.03328567 28
0.22324848 1.265733 0.051944822 54
0.22663012 1.2606025 0.072146654 95
0.23690975 1.2450067 0.090106249 100
0.24099198 1.2388133 0.10914274 85
0.24220401 1.2369745 0.1291219 96
0.22786084 1.2587353 0.15684435 74
0.23145175 1.2569783 0.0101573 28
0.21106648 1.288142 0.032448292 29
0.22934356 1.2602011 0.051247578 55
0.24138471 1.2417933 0.069221787 83
0.23965108 1.2444435 0.089793384 100
0.24477977 1.2366031 0.10837951 87
0.24276915 1.2396768 0.12957181 88
0.22322363 1.2695569 0.15995017 72
0.24186411 1.244669 0.0098780617 44
0.23245209 1.2591678 0.030564198 32
0.22888696 1.2646596 0.051596198 54
0.24951866 1.2328775 0.067759357 68
0.24023351 1.2471808 0.090106249 100
0.24534139 1.2393124 0.10876112 94
0.24971586 1.2325737 0.1273223 89
0.22707316 1.2674538 0.15891489 73
0.22836149 1.2692766 0.010366729 41
0.25146776 1.2334089 0.028889447 34
0.2284576 1.2691274 0.051944822 54
0.24038574 1.2506115 0.07019674 66
0.24938959 1.2366349 0.087916173 84
0.24591824 1.2420235 0.10914274 85
0.25238776 1.2319808 0.12687239 99
0.22776535 1.270202 0.15943253 73
0.23441458 1.263657 0.01022711 42
0.24770832 1.2428621 0.029412808 67
0.23664072 1.2601748 0.050898954 55
0.23778841 1.2583795 0.071171694 65
0.25953215 1.2243665 0.085413218 73
0.23276338 1.2662399 0.1144854 100
0.25295255 1.2346588 0.1273223 89
0.22951335 1.2713238 0.15943253 73
0.23935327 1.2596898 0.010122396 85
0.24401131 1.2523471 0.029936166 66
0.24262279 1.2545359 0.050201707 56
0.24481192 1.251085 0.069953002 49
0.25053829 1.2420583 0.08854191 70
0.25237599 1.2391614 0.10799789 72
0.25562021 1.2340473 0.12687239 82
0.23850921 1.2610204 0.15580906 67
0.25065216 1.2455404 0.0098082526 74
0.24569687 1.2534122 0.029936166 66
0.23370197 1.2724671 0.051944822 81
0.25495321 1.2387078 0.068003096 51
0.25429258 1.2397572 0.087916173 70
0.24774021 1.2501663 0.1102876 99
0.25205109 1.2433181 0.1291219 96
0.23610848 1.2686443 0.15787962 65
0.25019515 1.2499745 0.0098780617 73
0.25267661 1.2460017 0.029412808 100
0.23862439 1.2684988 0.051421888 82
0.25659111 1.2397348 0.068003096 51
0.25384113 1.2441374 0.08854191 84
0.25357842 1.244558 0.10876112 79
0.26196417 1.2311327 0.12552269 99
0.23580411 1.2730138 0.15891489 65
0.24239132 1.2663155 0.010192205 85
0.25223562 1.250432 0.029622151 100
0.23931676 1.2712761 0.051596198 82
0.25614107 1.2441307 0.068490572 50
0.26382315 1.2317359 0.086038955 87
0.24799696 1.2572709 0.11143246 84
0.26665542 1.2271662 0.12417299 83
0.233491 1.2806758 0.16098544 64
0.24927792 1.2588167 0.010017681 72
0.26010966 1.24121 0.028994121 100
0.24098074 1.2723036 0.051596198 82
0.25147399 1.2552471 0.069953002 49
0.26432082 1.2343649 0.086351827 58
0.24858576 1.2599418 0.11181407 84
0.26306742 1.2364023 0.12642249 99
0.23822299 1.2767863 0.15943253 73
0.24994418 1.2615703 0.010052586 86
0.25759387 1.2490381 0.029412808 100
0.25415459 1.2546725 0.049678773 86
0.25110114 1.259675 0.070440479 49
0.2659435 1.2353592 0.086351827 58
0.25336644 1.2559638 0.11066922 92
0.26672786 1.2340742 0.12552269 82
0.24905252 1.2630311 0.15477379 67
0.25891316 1.2506415 0.0098082526 74
0.25512928 1.2568895 0.029831495 100
0.25068766 1.2642233 0.05055033 84
0.25898221 1.2505275 0.068978049 50
0.26654634 1.2380376 0.086664692 57
0.26625177 1.238524 0.10647142 73
0.26532102 1.2400609 0.12687239 90
0.24477085 1.2739933 0.15787962 65
0.25750294 1.2567968 0.0099129668 87
0.26917461 1.2373719 0.028575432 100
0.24420542 1.2789277 0.051944822 81
0.26066133 1.2515404 0.068978049 50
0.27021661 1.2356378 0.086038955 58
0.26283321 1.2479258 0.10837951 79
0.27398929 1.2293589 0.12372308 75
0.24653199 1.2750556 0.15787962 65
0.26022789 1.2560972 0.0098780617 88
0.26467165 1.2486427 0.029203463 100
0.25414526 1.2663009 0.05055033 84
0.26437691 1.2491372 0.068490572 50
0.26982072 1.2400051 0.086664692 57
0.26048213 1.2556708 0.10990598 78
0.27858794 1.2252979 0.12237337 85
0.26022789 1.2560972 -0.0098780617 87
0.2473076 1.2777712 0.15839726 65
0.26090851 1.258827 0.0099129668 87
0.26837754 1.2461976 0.028994121 100
0.2579079 1.2639008 0.050201707 85
0.27110362 1.241588 0.067271881 51
0.27347416 1.2375796 0.086038955 58
0.25918108 1.261748 0.11105084 84
0.28017887 1.2262425 0.12237337 85
0.25399888 1.2705106 0.15580906 67
0.2616047 1.2615579 0.0099478718 73
0.26599878 1.2540684 0.029412808 100
0.25963372 1.2649174 0.050201707 85
0.2617017 1.2613926 0.069953002 49
0.27910644 1.2317269 0.084787481 73
0.26884717 1.2492135 0.10799789 87
0.27684247 1.2355857 0.12462288 92
0.26161328 1.2615433 0.15270324 68
0.27036351 1.2504636 0.0097035384 90
0.26367158 1.2619615 0.029831495 99
0.2643697 1.260762 0.049678773 100
0.26641437 1.2572489 0.069221787 33
0.27575153 1.241206 0.086351827 58
0.28039721 1.233224 0.10418171 75
0.2814101 1.2314837 0.12327318 85
0.26138732 1.2658863 0.15373851 68
0.2730422 1.249705 0.0096686333 75
0.27337962 1.2491205 0.028994121 100
0.26508832 1.2634815 0.049853086 85
0.27704981 1.2427635 0.067028143 51
0.27443495 1.2472926 0.087290429 71
0.27416277 1.2477641 0.10723466 81
0.2869201 1.2256677 0.12147357 77
0.25635856 1.2786019 0.15736198 74
0.26974937 1.2593452 0.0098431576 88
0.27505377 1.2500832 0.028994121 100
0.26384214 1.2696598 0.05037602 84
0.2727825 1.2540491 0.068490572 50
0.28690153 1.2293959 0.083848871 59
0.26900235 1.2606496 0.10990598 78
0.2875438 1.2282743 0.12192347 85
0.25717562 1.2813002 0.15787962 65
0.26832306 1.2654383 0.0099478718 73
0.28051189 1.2439995 0.028575432 100
0.26639801 1.2688243 0.050201707 100
0.27234229 1.258369 0.068978049 50
0.28736973 1.2319374 0.084161744 59
0.27248582 1.2581165 0.10914274 85
0.29091111 1.2257085 0.12102367 86
0.27227643 1.2584848 -0.0098082526 77
0.27024105 1.2620648 0.15166797 77
0.27496552 1.2577095 0.0097733475 89
0.28118703 1.246677 0.028680105 100
0.27792773 1.2524567 0.048458595 88
0.27989927 1.2489605 0.067515619 51
0.29189476 1.2276894 0.083223134 60
0.28190628 1.2454016 0.1060898 81
0.28963169 1.2317023 0.12237337 76
0.26907194 1.2681603 -0.0099827768 86
0.27385828 1.2596729 0.15063268 70
0.28269362 1.2482884 0.0095639192 91
0.28496808 1.2442188 0.02847076 100
0.27297819 1.2656722 0.049678773 86
0.28174034 1.2499942 0.067515619 51
0.28690812 1.2407475 0.085413218 58
0.28564924 1.243 0.10532656 82
0.29235715 1.2309976 0.12192347 85
0.26914322 1.2725341 0.15425615 75
0.28727323 1.2439717 0.009459204 62
0.29049817 1.2381537 0.028052073 100
0.26891452 1.2770916 0.05072464 84
0.28534225 1.2474552 0.067028143 51
0.29142597 1.2364799 0.084474608 59
0.28349471 1.2507882 0.10685304 88
0.29680219 1.2267809 0.12057377 69
0.26715279 1.2802699 0.1563267 74
0.28306442 1.2553533 0.0096686333 75
0.29205206 1.2390116 0.028052073 100
0.28019908 1.2605631 0.048981529 87
0.28501374 1.251809 0.067515619 51
0.29297429 1.2373347 0.084474608 59
0.28509054 1.2516694 0.10685304 81
0.27439141 1.2711229 -0.0099827768 86
0.26791546 1.2828977 0.15684435 66
0.28093007 1.2633042 0.0098082526 74
0.28986529 1.2469227 0.02847076 100
0.27905098 1.2667494 0.049504463 86
0.28479609 1.2562165 0.068003096 51
0.28583339 1.2543147 0.10723466 81
0.27614233 1.272082 -0.0099827768 86
0.28265834 1.2601358 0.14959741 78
0.28922942 1.251883 0.0095639192 91
0.29144824 1.2477827 0.02847076 100
0.28923392 1.2518747 0.047935657 89
0.28640988 1.2570932 0.068003096 51
0.29992184 1.2321242 0.083223134 60
0.28930965 1.2517347 0.10647142 81
0.28980175 1.2508254 0.14649157 72
0.29564095 1.2439803 0.0093893949 77
0.29122874 1.252202 0.028680105 100
0.28149638 1.2703377 0.049678773 86
0.29374379 1.2475156 0.066540658 69
0.29499796 1.2451785 0.085413218 58
0.29470617 1.2457222 0.10494494 75
0.28145736 1.2704104 -0.0099129668 87
0.28326029 1.2670507 0.15115032 77
0.28978166 1.2589877 0.0096686333 75
0.29479006 1.2495761 0.02847076 100
0.28886044 1.2607188 0.048632905 88
0.29168195 1.2554168 0.067515619 51
0.29665822 1.2460656 0.085413218 58
0.2963683 1.2466104 0.10494494 75
0.2859045 1.2662735 0.15063268 70
0.28309092 1.2758101 0.0099827768 87
0.28313625 1.2757242 0.050027397 85
0.2915251 1.2598268 0.068003096 51
0.29894978 1.2457565 0.10456333 75
0.28309092 1.2758101 -0.0099827768 96
0.28222889 1.2774436 0.15373851 68
0.2950559 1.2572488 0.0095988233 76
0.29598737 1.2554686 0.047935657 89
0.29047558 1.2660027 0.068734311 33
0.29879165 1.250109 0.10532656 75
0.29134762 1.264336 -0.0097384425 99
0.28937554 1.268105 0.15063268 78
0.29860002 1.2545856 0.0095290141 76
0.29798657 1.2557681 0.028680105 100
0.29312268 1.2651435 0.068490572 50
0.28939125 1.272336 -0.0098780617 97
0.29823291 1.2552933 0.14649157 72
0.29877019 1.2584209 0.028784776 100
0.29664871 1.2625453 0.048458595 59
0.29576063 1.2642719 0.068246834 68
0.29639387 1.2630408 0.14856213 71
0.29636115 1.267365 0.14959741 78
0.29295781 1.2786365 0.15270324 76
0.29920575 1.2706063 0.0097733475 100
0.29922959 1.2705586 0.048981529 58
0.29651865 1.27597 -0.0098780617 100
0.29730815 1.2785985 -0.0099129668 100
0.29820153 1.2812715 -0.0099478718 100
0.29496592 1.2973285 0.051247578 27
0.29766837 1.2917407 0.15529142 75
