# .PCD v0.7 - Point Cloud Data file format
VERSION 0.7
FIELDS x y z intensity
SIZE 4 4 4 4
TYPE F F F F
COUNT 1 1 1 1
WIDTH 810
HEIGHT 1
VIEWPOINT 0 0 0 1 0 0 0
POINTS 810
DATA ascii
-1.1701469 0.15509173 0.061861102 23
-1.1467239 0.15993714 0.020209886 4
-1.169884 0.16754086 0.020628745 31
-1.0446466 0.15332861 0.018429741 6
-1.010488 0.15192008 0.01783636 5
-0.99809307 0.15362123 0.01762693 1
-0.54323816 1.2879057 0.024398465 1
-0.53103191 1.271342 0.024049416 2
-0.52299005 1.2638574 0.023874892 3
-0.51705891 1.2619745 0.023805082 6
-0.51716077 1.2748898 0.024014512 6
-0.50547487 1.2580426 0.023665464 6
-0.50994903 1.2820967 0.02408432 3
-0.51229066 1.3005257 0.024398465 1
-0.32776928 1.0141879 0.018604266 1
-0.31571081 0.98865694 0.018115599 1
-0.3064107 0.9706291 0.01776655 2
-0.30387083 0.97561693 0.01783636 1
-0.29928747 0.97284907 0.01776655 1
-0.29821503 0.98154122 0.017906168 1
-0.30053332 1.0017297 0.018255217 1
-0.29511037 0.99500036 0.018115599 1
-0.27477783 0.93845075 0.017068453 2
-0.2796596 0.96826911 0.017592026 3
-0.27682617 0.9711625 0.01762693 5
-0.26422977 0.93939793 0.017033549 3
-0.26041433 0.93838769 0.016998643 1
-0.25819317 0.94314843 0.017068453 1
-0.25177178 0.93246061 0.016859025 1
-0.2507377 0.94101948 0.016998643 1
-0.24440271 0.93028462 0.016789215 2
-0.23614033 0.9117738 0.016440166 2
-0.2309778 0.90484226 0.016300548 4
-0.23334585 0.92693436 0.016684501 7
-0.22577624 0.91027528 0.016370358 7
-0.2249705 0.92077065 0.016544882 6
-0.21754451 0.9040525 0.016230738 6
-0.21823648 0.92033488 0.016509976 4
-0.21138583 0.90551233 0.016230738 7
-0.20180121 0.87899512 0.015742071 6
-0.20269753 0.8972491 0.016056214 7
-0.20058939 0.9018203 0.016126024 7
-0.19658551 0.89860803 0.016056214 7
-0.18756004 0.8719191 0.015567547 8
-0.18534276 0.87648135 0.015637357 8
-0.18390965 0.88495439 0.015776975 7
-0.1784192 0.87383538 0.015567547 8
-0.17646086 0.87831259 0.015637357 8
-0.17184575 0.87107569 0.015497737 8
-0.16994464 0.8775599 0.015602452 11
-0.16538702 0.87028962 0.015462833 12
-0.16234814 0.87086165 0.015462833 9
-0.16074571 0.87929142 0.015602452 9
-0.15540749 0.86806428 0.015393022 11
-0.15168537 0.86466223 0.015323213 11
-0.14697298 0.85533237 0.015148689 8
-0.14630878 0.86964405 0.015393022 6
0.053748101 0.0026176572 0.015951499 125
0.055909693 0.01206696 0.047416378 38
0.045725286 0.0020229816 0.048149079 26
0.04318136 0.0036994219 0.048149079 100
0.038824499 0.0090036988 0.04804441 54
0.040780425 0.017319977 0.047625721 28
0.035906315 0.01580143 0.047835063 18
0.032277703 0.015863776 0.047939736 18
0.018152893 0.0013420582 0.048986454 7
0.031592965 0.026051104 0.047521047 9
0.026443958 0.024778605 0.047730394 9
-0.60831207 0.56784213 0.020524031 3
-0.58535749 0.57592976 0.020105172 29
-0.58405572 0.58022416 0.020070268 42
-0.59457833 0.58256811 0.020244792 42
-0.59325105 0.5868808 0.020209886 39
-0.59388322 0.59087265 0.020209886 43
-0.57665116 0.59719563 0.019895744 59
-0.5732922 0.60172194 0.019825934 61
-0.57588011 0.60555112 0.019860838 66
-0.58238643 0.6086359 0.019965554 56
-0.59482676 0.61093849 0.020174982 35
-0.60924631 0.61305767 0.020419316 21
-0.6315679 0.61402398 0.020803269 19
-0.67375654 0.61279893 0.02153627 17
-0.71202654 0.61258256 0.022199461 17
-0.75621444 0.61146802 0.022967367 19
-0.77264744 0.61415654 0.023246605 18
-1.0992687 0.67952394 0.028831376 7
-1.1015565 0.68489075 0.02886628 20
-1.0898867 0.69180429 0.028656852 11
-1.0781505 0.69777453 0.028447423 13
-1.0903926 0.7032547 0.028656852 17
-1.1105988 0.70823789 0.0290059 37
-1.1148014 0.71390015 0.029075708 20
-1.1129882 0.7197721 0.029040804 15
-1.1211414 0.72507209 0.029180424 16
-1.1372814 0.73053163 0.029459663 20
-1.1593952 0.73568559 0.029843615 21
-1.1655028 0.74155325 0.02994833 13
-1.1735938 0.74773777 0.030087948 13
-1.1816592 0.75367898 0.030227568 16
-1.1977029 0.75962877 0.030506806 13
-1.0179009 1.1259305 0.084260888 3
-1.0471084 1.132561 0.14328404 4
-1.0361605 1.1356108 0.028412517 7
-1.0147657 1.1306794 0.084156215 7
-1.0245409 1.1329325 0.14136662 11
-1.0018387 1.1331234 0.027819136 11
-1.0096717 1.1349562 0.083946876 58
-1.013629 1.1358821 0.14049506 52
-0.98700696 1.1350329 0.027574802 35
-1.00068 1.1382803 0.083528183 100
-1.0143454 1.1415257 0.14066938 95
-0.98371488 1.1401947 0.027539898 38
-0.98572928 1.1406809 0.082795486 100
-1.007163 1.1458545 0.14014643 86
-0.98636347 1.14623 0.027609708 33
-0.97285205 1.1429212 0.082167454 100
-1.005908 1.1510161 0.14014643 86
-0.98497421 1.1518584 0.027609708 23
-0.9772895 1.1499467 0.082481466 74
-0.99290031 1.1538303 0.13910057 92
-0.97012693 1.1535223 0.027365373 28
-0.97989434 1.1559865 0.082690813 35
-0.98968714 1.1584572 0.13892625 73
-0.95902532 1.1566098 0.027190849 50
-0.97653455 1.1610956 0.082586139 36
-0.98053282 1.1621199 0.13822901 82
-0.95967048 1.1621144 0.027225753 61
-0.9636305 1.163143 0.081958108 84
-0.9869377 1.1691967 0.13892625 89
-0.96209043 1.1686647 0.027295563 71
-0.95638567 1.1671605 0.081644088 96
-0.98739082 1.1753352 0.13910057 92
-0.95689625 1.1726443 0.027225753 81
-0.95698994 1.1726693 0.081748761 96
-0.96293992 1.1742592 0.13700883 100
-0.94769031 1.1760714 0.027086135 93
-0.9477933 1.1760994 0.081330076 100
-0.95952505 1.1792803 0.13683452 100
-0.94247895 1.1799765 0.027016325 93
-0.95221609 1.1826512 0.081644088 100
-0.96200198 1.1853392 0.13718314 94
-0.94103879 1.1851836 0.027016325 93
-0.94307035 1.1857493 0.081225403 96
-0.96438175 1.1916835 0.13753176 94
-0.94735223 1.192297 0.027155945 92
-0.9359166 1.1890718 0.08091139 86
-0.96105748 1.1961622 0.13735744 100
-0.95340973 1.2002439 0.027295563 63
-0.93429655 1.1947742 0.08091139 64
-0.94217056 1.1970276 0.13578865 100
-0.95197481 1.2052271 0.027295563 45
-0.92904311 1.1985822 0.080702044 24
-0.94457358 1.2030826 0.13613728 94
-0.92742163 1.2037083 0.026876707 61
-0.92945439 1.2043051 0.080806717 24
-0.94687611 1.2094193 0.13648589 84
-0.92022473 1.2068963 0.026771991 75
-0.91843349 1.206364 0.080283359 28
-0.94159108 1.2132456 0.13613728 89
-0.92244309 1.2134353 0.026841801 74
-0.91491181 1.2111673 0.080178685 42
-0.93995649 1.2187096 0.13613728 98
-0.91897351 1.2179891 0.026806897 81
-0.91145259 1.2156955 0.080074012 94
-0.9250409 1.2198395 0.1349171 99
-0.90975803 1.220754 0.026667276 92
-0.9175213 1.2231512 0.080492698 90
-0.91584688 1.2226342 0.13421984 91
-0.90435857 1.2246535 0.026597468 88
-0.91021174 1.2264833 0.080178685 76
-0.92186457 1.2301261 0.1349171 64
-0.89513654 1.2273141 0.026457848 79
-0.90289682 1.2297699 0.079864666 70
-0.9202494 1.2352611 0.1349171 45
-0.90495783 1.2360156 0.026667276 85
-0.89177269 1.2317924 0.079341307 82
-0.91482157 1.239175 0.13456847 43
-0.90712672 1.2423248 0.026737086 93
-0.89585179 1.23867 0.079655327 100
-0.907489 1.2424421 0.13404553 49
-0.88646823 1.2411757 0.026388038 99
-0.89990038 1.2455816 0.079969339 100
-0.90015155 1.245664 0.1335226 75
-0.87730581 1.2434185 0.02624842 96
-0.89452392 1.2491294 0.07976 100
-0.90423948 1.252352 0.13404553 82
-0.87943619 1.2496701 0.02631823 100
-0.88716215 1.2522627 0.07944598 100
-0.90065795 1.2567915 0.13387123 80
-0.87396604 1.2533712 0.02624842 96
-0.87979621 1.2553504 0.079131968 100
-0.90649658 1.264414 0.13456847 82
-0.87605268 1.2596377 0.02631823 93
-0.87998229 1.2609869 0.079236634 100
-0.88780218 1.2636719 0.13299966 100
-0.86669284 1.2622359 0.02617861 88
-0.88194638 1.2675358 0.07944598 100
-0.8897472 1.2702463 0.13334829 93
-0.86119264 1.2658522 0.0261088 77
-0.88773817 1.2751796 0.079864666 78
-0.90678948 1.2818737 0.13509139 47
-0.85765618 1.26986 0.026073895 75
-0.85029489 1.267246 0.077875905 38
-0.89006382 1.281368 0.13369691 35
-0.86907727 1.2795007 0.02631823 93
-0.84479111 1.2707812 0.077666558 17
-0.88076931 1.2836986 0.13299966 35
-0.8635307 1.2830865 0.02624842 100
-0.85429889 1.2797356 0.07829459 57
-0.87896746 1.2886899 0.13299966 18
-0.85046726 1.2838845 0.026038991 99
-0.85438603 1.2853224 0.078399263 100
-0.85657328 1.2861249 0.13108224 15
-0.83366591 1.2832067 0.025759751 100
-0.85819656 1.2923052 0.078713275 100
-0.88465172 1.3021175 0.13387123 3
-0.83935577 1.2908412 0.025899371 100
-0.8339228 1.2888045 0.077457212 57
-0.87159187 1.3029258 0.13282534 1
-0.83752924 1.2956878 0.025899371 99
-0.83770651 1.2957549 0.077771232 51
-0.85295457 1.3015319 0.13125655 5
-0.84128839 1.302673 0.026004085 75
-0.83772808 1.3013098 0.077875905 55
-0.83434457 1.3000145 0.12968774 22
-0.83214706 1.3041577 0.025864467 74
-0.84164101 1.3078269 0.078189917 72
-0.82895571 1.3029244 0.12933913 60
-0.82282323 1.3060696 0.025724847 83
-0.83417374 1.3105018 0.077875905 61
-0.84935802 1.316431 0.13143086 100
-0.8228038 1.3115923 0.025759751 100
-0.82670492 1.3131313 0.077561885 68
-0.83817524 1.3176565 0.1305593 100
-0.82090491 1.316381 0.025759751 100
-0.82109004 1.3164546 0.077352546 91
-0.83810586 1.3232365 0.13073361 97
-0.82640928 1.3241503 0.025899371 100
-0.82843786 1.324967 0.077875905 97
-0.82877344 1.3251021 0.13003637 100
-0.8096475 1.3229251 0.025620133 100
-0.82464212 1.3290229 0.077771232 100
-0.82498175 1.3291609 0.12986206 100
-0.78316885 1.312157 0.17671055 15
-0.80400974 1.3261483 0.025550323 100
-0.81344491 1.3300238 0.077247873 100
-0.81749254 1.3316863 0.12933913 100
-0.78310448 1.3175616 0.17695428 16
-0.80206019 1.3308712 0.025550323 100
-0.80041283 1.3301878 0.076619841 100
-0.81552356 1.3364563 0.12933913 100
-0.76284915 1.3146055 0.1745169 18
-0.80378288 1.3371327 0.025620133 100
-0.78923851 1.3310397 0.076096483 100
-0.82456392 1.3458383 0.130385 100
-0.7755875 1.325321 0.17646681 16
-0.80179495 1.3418548 0.025620133 100
-0.79095083 1.3372674 0.076305822 92
-0.8078658 1.3444231 0.1289905 100
-0.78643852 1.3353586 0.17817298 19
-0.79437393 1.3439789 0.025515418 70
-0.80192024 1.3472006 0.077038527 47
-0.79679161 1.345011 0.12811895 76
-0.76629978 1.3319926 0.17573559 15
-0.80338019 1.3534176 0.025724847 66
-0.82557458 1.3629854 0.078503937 57
-0.82222074 1.3615395 0.13073361 16
-0.78620523 1.3460139 0.17866045 5
-0.79950184 1.3573403 0.025689943 100
-0.8033517 1.3590159 0.077352546 100
-0.81649381 1.3647356 0.130385 78
-0.76598471 1.3427527 0.17622307 16
-0.80110496 1.3636563 0.025759751 100
-0.80677301 1.3661466 0.077666558 100
-0.81988162 1.3719064 0.13090792 100
-0.78396875 1.3561268 0.17890419 35
-0.8081643 1.3724228 0.025934275 100
-0.80468386 1.3708791 0.077666558 100
-0.81230849 1.374261 0.130385 100
-0.76739782 1.3543406 0.17695428 35
-0.79510254 1.372257 0.025724847 100
-0.81716114 1.3821335 0.078503937 100
-0.79746181 1.3733134 0.12916481 100
-0.77984434 1.3654253 0.17890419 22
-0.79299206 1.3769486 0.025724847 100
-0.81683606 1.3877246 0.07860861 100
-0.80260998 1.3812953 0.12986206 100
-0.77233106 1.3676112 0.17817298 19
-0.7926845 1.3824627 0.025759751 100
-0.80376869 1.3875186 0.077980578 100
-0.80409342 1.3876668 0.13021068 100
-0.76120657 1.3681041 0.17695428 16
-0.8014372 1.3921633 0.025969181 100
-0.8052333 1.3939109 0.078189917 100
-0.81459779 1.398222 0.13143086 100
-0.76632351 1.375998 0.17792924 13
-0.80107075 1.3977194 0.026004085 100
-0.80666989 1.4003209 0.078399263 100
-0.80336207 1.398784 0.1305593 100
-0.76420015 1.380589 0.17792924 9
-0.78981847 1.3981872 0.025829561 100
-0.8116948 1.4084442 0.078817949 100
-0.7975511 1.4018128 0.13021068 100
-0.77823693 1.3927572 0.18012288 5
-0.78400236 1.4011497 0.025759751 100
-0.81126326 1.4140477 0.078922622 100
-0.80254132 1.4099211 0.13090792 100
-0.77784938 1.3982387 0.18036664 3
-0.7909258 1.4098761 0.025934275 100
-0.80371243 1.4159777 0.07860861 100
-0.8147971 1.4212673 0.13230242 100
-0.79228753 1.4162879 0.026004085 100
-0.80144936 1.4206991 0.07860861 100
-0.80892509 1.4242985 0.13195379 100
-0.79541939 1.4235908 0.0261088 100
-0.80635566 1.4289036 0.079027295 100
-0.80663294 1.4290382 0.13195379 100
-0.79312974 1.4282832 0.0261088 100
-0.8094278 1.436271 0.079341307 100
-0.80432421 1.4337697 0.13195379 100
-0.79082376 1.4329675 0.0261088 100
-0.80888408 1.4418974 0.07944598 100
-0.80914289 1.4420254 0.13265105 100
-0.79208022 1.439429 0.02617861 100
-0.80295593 1.4448538 0.079236634 100
-0.80678886 1.4467657 0.13265105 100
-0.79330796 1.4459074 0.02624842 100
-0.80059201 1.4495723 0.079236634 100
-0.81153733 1.4550798 0.13334829 100
-0.79807311 1.4542124 0.026388038 100
-0.80177361 1.4560906 0.07944598 100
-0.8020311 1.4562212 0.13265105 100
-0.79567653 1.4589138 0.026388038 100
-0.80292612 1.4626253 0.079655327 100
-0.80140096 1.4618444 0.13282534 100
-0.78615636 1.4599371 0.02624842 100
-0.80937344 1.4719254 0.080178685 100
-0.80251843 1.4683857 0.13317397 100
-0.79083425 1.4682915 0.026388038 100
-0.79805785 1.4720535 0.079655327 100
-0.81244212 1.4795446 0.13439415 100
-0.79901069 1.4785469 0.026597468 99
-0.79383081 1.4758261 0.079550654 100
-0.81172091 1.4852226 0.13456847 100
-0.79311913 1.4811449 0.026527658 61
-0.78442234 1.4765403 0.079131968 72
-0.80582005 1.4878697 0.13421984 92
0.097868979 1.3319358 0.063100755 19
0.13278705 1.2885375 0.1293685 11
0.18473622 1.223972 0.13452072 7
0.15934014 1.2590209 0.010925206 26
0.16355589 1.2537438 0.032448292 29
0.15703678 1.2619042 0.055082429 25
0.14559701 1.2762244 0.10262101 11
0.15052944 1.27005 0.12440746 48
0.19483727 1.2145863 0.13137141 15
0.14968446 1.2711078 0.17185585 7
0.1560789 1.2666485 0.011064826 100
0.16897023 1.2503953 0.032134276 90
0.14761323 1.2773218 0.056651235 95
0.16635704 1.25369 0.075802729 30
0.17682749 1.240489 0.095112152 25
0.16325745 1.2575979 0.1209729 100
0.19154736 1.2219305 0.13317102 31
0.1490351 1.2755291 0.17289113 28
0.15277821 1.2742354 0.011204445 100
0.16562161 1.2579319 0.032552965 100
0.15792829 1.2676978 0.055431053 100
0.16919154 1.2534002 0.07555899 30
0.18327937 1.235517 0.093860678 26
0.15394241 1.2727575 0.12440746 100
0.18943024 1.2277091 0.13452072 46
0.15430009 1.2723035 0.1713382 50
0.16809231 1.2582923 0.010820492 100
0.16363576 1.2639903 0.032866981 100
0.16703272 1.2596471 0.054385185 100
0.15375975 1.2766174 0.078971334 28
0.18247259 1.2399063 0.094486415 26
0.17021388 1.2555797 0.11982805 100
0.18382674 1.2381749 0.13722014 30
0.15605587 1.2736816 0.1713382 43
0.172252 1.2564636 0.010750682 100
0.16291255 1.268491 0.033076324 58
0.16263437 1.2688491 0.055256739 99
0.17744556 1.2497754 0.074584037 30
0.1744228 1.2536681 0.096989371 25
0.18636045 1.2382948 0.11524864 81
0.18068239 1.2456069 0.13901976 29
0.15307707 1.281157 0.17340876 42
0.16906863 1.264114 0.010890301 78
0.1841661 1.2445308 0.031401575 31
0.16559452 1.2686204 0.055082429 50
0.18518266 1.2432122 0.073365346 62
0.17370123 1.258105 0.097615108 37
0.17601046 1.2551097 0.11906482 13
0.18472448 1.2438066 0.13811995 15
0.14778671 1.2917193 0.1765146 48
0.17201114 1.2638528 0.010855397 52
0.17611343 1.2584931 0.032238949 30
0.1661264 1.2715414 0.055256739 49
0.17356494 1.2618227 0.076046467 89
0.1862129 1.2452978 0.094799288 51
0.1800926 1.2532941 0.11830158 19
0.19940931 1.2280563 0.13317102 31
0.15900359 1.2808475 0.17237349 57
0.17373732 1.2651691 0.010855397 39
0.16573712 1.2756976 0.03328567 28
0.17029029 1.2697055 0.054908119 50
0.18729416 1.2473282 0.073609084 62
0.19504502 1.2371278 0.092922069 53
0.18534526 1.249893 0.11715672 19
0.2033684 1.2261741 0.13227122 39
0.17598358 1.262213 0.16564418 68
0.17305949 1.2696724 0.010925206 39
0.16750467 1.2770358 0.03328567 28
0.17203692 1.2710279 0.054908119 50
0.19015804 1.2470065 0.073365346 62
0.19429848 1.241518 0.093547814 65
0.1929343 1.2433263 0.11524864 13
0.20496285 1.2273813 0.13227122 39
0.1823577 1.2573466 0.16357364 85
0.18679303 1.2549791 0.010576159 40
0.17885482 1.2655787 0.032448292 29
0.17737111 1.26756 0.054385185 51
0.18944538 1.2514375 0.073852822 62
0.19002593 1.2506623 0.095112152 51
0.2063573 1.2288556 0.11143246 14
0.20422518 1.2317026 0.13317102 31
0.17711291 1.2679048 0.16667947 67
0.18840325 1.256181 0.010576159 67
0.19003573 1.253986 0.031610917 30
0.17902312 1.2687929 0.054385185 51
0.19696724 1.2446663 0.072634131 78
0.20223171 1.237588 0.092296332 66
0.2078808 1.2299926 0.11143246 14
0.21506199 1.2203373 0.12957181 32
0.18107185 1.2660383 0.16564418 68
0.18297586 1.2670925 0.010785587 65
0.21189502 1.2279248 0.029831495 66
0.17366585 1.2797018 0.055431053 74
0.19508898 1.2506866 0.073365346 93
0.2062127 1.2356209 0.091670595 81
0.20832241 1.2327635 0.11181407 14
0.21779349 1.2199359 0.1291219 32
0.17936316 1.2719855 0.16719711 67
0.19079524 1.2604318 0.010611063 81
0.21011537 1.2340535 0.030145511 65
0.18857577 1.2634621 0.053513627 100
0.19341838 1.2568502 0.07409656 76
0.21033752 1.2337501 0.091044858 81
0.21010181 1.234072 0.11181407 14
0.22873548 1.208631 0.12552269 16
0.18928391 1.2624953 0.16357364 69
0.19721317 1.2552131 0.010471444 96
0.21173728 1.2352371 0.030145511 65
0.18795717 1.2679436 0.053862248 100
0.20212421 1.2484586 0.072634131 63
0.20498845 1.2445192 0.092922069 100
0.20941475 1.2384315 0.1125773 13
0.24058247 1.1955643 0.12147357 17
0.19327736 1.2606263 0.16253836 70
0.20810622 1.2433505 0.010192205 99
0.20150611 1.2524884 0.03119223 63
0.19302306 1.2642331 0.053339314 100
0.20362905 1.2495492 0.072634131 78
0.20416763 1.2488035 0.093547814 100
0.22008431 1.2267669 0.10952436 14
0.23621577 1.204433 0.12372308 16
0.19255817 1.2648767 0.16357364 69
0.19577816 1.2640427 0.010611063 94
0.20901135 1.2455862 0.03066887 96
0.19591138 1.263857 0.053165004 100
0.20877516 1.2459155 0.071902916 96
0.20353901 1.2532185 0.094173551 100
0.21824881 1.2327024 0.11066922 14
0.23432758 1.2102768 0.12507279 8
0.19541347 1.2645514 0.163056 78
0.19982389 1.2620178 0.010541254 95
0.21993843 1.2337558 0.029831495 99
0.1895504 1.2764527 0.054385185 100
0.21158955 1.2454864 0.071659178 80
0.20980957 1.2479874 0.092922069 100
0.20051327 1.2610493 0.11715672 19
0.23021647 1.2193145 0.1273223 16
0.18930066 1.2768036 0.16667947 82
0.20385116 1.2599707 0.010471444 82
0.21579713 1.2430613 0.030354854 97
0.19706851 1.2695714 0.053513627 100
0.20294276 1.2612566 0.073852822 93
0.22059852 1.2362649 0.090419121 100
0.2022295 1.2622662 0.11715672 46
0.22841355 1.2252028 0.128672 24
0.19998938 1.265437 0.16253836 78
0.20785981 1.2579014 0.010401634 83
0.22089061 1.2393192 0.03004084 99
0.20796591 1.2577503 0.052119136 100
0.21149808 1.2527132 0.072390392 95
0.21995977 1.2406466 0.091044858 100
0.20507714 1.2618697 0.1167751 99
0.22888559 1.2279181 0.1291219 56
0.20948511 1.2555838 0.15891489 73
0.21176502 1.2557513 0.010331824 98
0.22244874 1.2404079 0.03004084 99
0.20503119 1.265422 0.05281638 100
0.21877238 1.2456877 0.071171694 81
0.21474957 1.2514651 0.092922069 100
0.22017249 1.243677 0.11219569 100
0.21927017 1.2449728 0.13362093 93
0.20888939 1.259881 0.15995017 72
0.22028437 1.2470589 0.010122396 99
0.22295719 1.2431915 0.030145511 98
0.20449704 1.2699012 0.053165004 100
0.22382081 1.2419419 0.070440479 65
0.22092474 1.2461323 0.091670595 100
0.22182795 1.2448255 0.11219569 91
0.2242541 1.2413151 0.13227122 94
0.2051096 1.2690148 0.16253836 70
0.21055326 1.2646375 0.010471444 96
0.22678837 1.2409799 0.029936166 66
0.21066609 1.2644731 0.052467756 100
0.22651085 1.2413843 0.07019674 82
0.23032954 1.2358197 0.089480512 100
0.22118258 1.2491486 0.11295892 100
0.23464009 1.2295384 0.128672 97
0.20676628 1.2701559 0.16253836 70
0.20561585 1.2757959 0.010680873 80
0.22626865 1.2454631 0.030145511 65
0.21023807 1.2690072 0.05281638 100
0.21483409 1.2622571 0.073121607 93
0.23426253 1.2337226 0.088854775 98
0.21852124 1.2568418 0.1144854 87
0.23632649 1.2306912 0.128672 97
0.21403801 1.2634263 0.15995017 72
0.21737459 1.2620252 0.010366729 41
0.2300843 1.2432249 0.029936166 33
0.21301055 1.2684805 0.05264207 53
0.22313896 1.2534986 0.071659178 64
0.23580202 1.2347671 0.088854775 98
0.22673473 1.2481796 0.11219569 91
0.23021603 1.24303 0.13182132 94
0.22000393 1.2581358 0.15787962 73
0.2191802 1.2632411 0.010366729 41
0.21847072 1.2642989 0.03119223 31
0.21927905 1.2630937 0.051944822 54
0.2293362 1.2480989 0.070684217 81
0.23310629 1.2424778 0.090106249 96
0.23833168 1.2346869 0.10876112 100
0.23303741 1.2425804 0.13137141 100
0.21856701 1.2641553 0.15943253 81
0.21860093 1.2676642 0.010436539 41
0.22453973 1.2587459 0.030773543 32
0.21870741 1.2675043 0.052293446 53
0.23312393 1.245855 0.07019674 82
0.23686457 1.2402376 0.089480512 97
0.23116907 1.2487906 0.11181407 98
0.23892674 1.2371409 0.12957181 96
0.21806601 1.2684675 0.1604678 72
0.22051427 1.2689331 0.010436539 27
0.2088089 1.2866583 0.032448292 29
0.2162284 1.275423 0.05299069 52
0.22729602 1.2586637 0.071902916 100
0.23649535 1.2447333 0.090106249 96
0.23192796 1.2516496 0.11219569 91
0.24609214 1.230201 0.1273223 89
0.21785331 1.2729626 0.16150309 70
0.21888134 1.2750399 0.010541254 27
0.21161917 1.2861166 0.032343622 30
0.22446075 1.2665298 0.051944822 54
0.22674146 1.2630513 0.072390392 100
0.24673602 1.2325544 0.087603301 99
0.23998556 1.2428505 0.10990598 85
0.241209 1.2409846 0.13002171 96
0.22693756 1.2627521 0.15787962 73
0.23046145 1.2611074 0.01022711 28
0.21777982 1.2805982 0.031924933 30
0.23488867 1.2543031 0.05055033 56
0.23279494 1.257521 0.071415432 96
0.24296594 1.241889 0.089167647 100
0.24592081 1.2373475 0.10837951 87
0.23966655 1.2469598 0.13137141 94
0.22549883 1.2687347 0.15943253 73
0.23643184 1.2554454 0.010087491 43
0.24765074 1.2380769 0.029203463 34
0.23109117 1.2637134 0.051421888 55
0.24518424 1.2418954 0.068978049 50
0.24667609 1.2395859 0.08854191 84
0.23788512 1.2531955 0.11181407 100
0.24019256 1.2496233 0.13182132 94
0.23029906 1.2649397 0.15787962 81
0.24252856 1.2498566 0.0099478718 58
0.25475603 1.2307737 0.028680105 69
0.23182797 1.2665565 0.051596198 82
0.24691585 1.2430096 0.068978049 67
0.24839926 1.2406945 0.08854191 84
0.25130928 1.2361529 0.10761628 87
0.25246611 1.2343475 0.1273223 97
0.22898853 1.2709879 0.15943253 73
0.24412152 1.2508736 0.0099478718 58
0.25306979 1.2368059 0.028994121 68
0.22919902 1.2743332 0.052293446 53
0.2442244 1.2507118 0.069953002 49
0.25632301 1.2316915 0.086664692 86
0.23810494 1.2603322 0.11295892 89
0.2560994 1.232043 0.12642249 99
0.22754109 1.2769397 0.16098544 72
0.23308125 1.2722858 0.010366729 55
0.25265118 1.2412694 0.029203463 68
0.24380764 1.2552855 0.050201707 85
0.2396327 1.2619023 0.071415432 96
0.25907126 1.2310941 0.086351827 58
0.24723753 1.2498494 0.1102876 71
0.25883472 1.231469 0.12597258 99
0.23352474 1.271583 0.15891489 65
0.25173187 1.2462183 0.0098082526 74
0.25315544 1.2439455 0.029308135 100
0.24436104 1.2579868 0.05037602 84
0.24969524 1.2494701 0.069465525 49
0.25955337 1.2337304 0.086664692 86
0.24361989 1.2591701 0.11219569 91
0.25312579 1.2439928 0.1291219 96
0.24544418 1.2562573 0.15373851 68
0.24803358 1.2556961 0.0099827768 87
0.25261965 1.2483196 0.029517479 100
0.24387699 1.2623817 0.05072464 84
0.24709439 1.2572067 0.070440479 49
0.25692078 1.2414014 0.087916173 70
0.26079252 1.2351739 0.10647142 88
0.25881493 1.2383548 0.1273223 89
0.24705836 1.2572646 0.15373851 76
0.24334475 1.2669051 0.010192205 85
0.25840309 1.2425045 0.029098792 100
0.2402797 1.2718716 0.051596198 82
0.25288177 1.2514513 0.069465525 49
0.26056048 1.2390087 0.087290429 71
0.25511932 1.2478255 0.10914274 85
0.26343992 1.2343428 0.12597258 90
0.24055937 1.2714186 0.15787962 65
0.2525605 1.2561386 0.0099478718 87
0.26334664 1.2385097 0.028784776 100
0.23597002 1.2832543 0.05264207 79
0.25887671 1.2458153 0.068490572 50
0.26648727 1.2333765 0.086038955 58
0.25080842 1.2590022 0.11143246 84
0.27234435 1.2238036 0.12282328 100
0.24248695 1.272603 0.15787962 65
0.24898431 1.2656683 0.010122396 85
0.25971827 1.2479932 0.029308135 100
0.2480157 1.2672633 0.050898954 83
0.25530416 1.2552617 0.069709264 49
0.27212691 1.2275605 0.084787481 59
0.25345072 1.2583137 0.11105084 84
0.2698046 1.2313845 0.12462288 83
0.25417423 1.2571223 -0.0099478718 86
0.25418302 1.2571079 0.15270324 68
0.25690842 1.2564392 0.0099129668 100
0.26035777 1.2507143 0.029412808 100
0.24872506 1.270021 0.051073264 100
0.25187743 1.264789 0.070927955 48
0.267609 1.2386795 0.086664692 71
0.26123631 1.2492563 0.10876112 79
0.26839972 1.2373673 0.12597258 90
0.24990317 1.2680657 0.15580906 67
0.2646811 1.2471111 0.0097035384 90
0.25887826 1.2568146 0.029726824 100
0.25549775 1.2624674 0.050201707 85
0.26268935 1.2504417 0.068734311 50
0.27119246 1.2362227 0.086038955 72
0.2638348 1.2485262 0.10837951 79
0.27295163 1.233281 0.12462288 83
0.24957344 1.2723742 0.15684435 74
0.26235157 1.2550335 0.0098431576 88
0.27187112 1.2389816 0.028575432 100
0.25120687 1.2738256 0.051247578 82
0.2634396 1.2531989 0.068978049 50
0.26887262 1.2440377 0.087290429 71
0.26559061 1.2495718 0.10837951 79
0.2696813 1.2426741 0.12687239 99
0.24944592 1.2767951 0.15787962 65
0.26294726 1.2577081 0.0098780617 88
0.27140167 1.2433438 0.028784776 100
0.24984744 1.2799649 0.051770512 81
0.26907116 1.2473035 0.068003096 51
0.27645802 1.234753 0.085413218 58
0.26519081 1.2538962 0.10914274 92
0.27915809 1.2301656 0.12327318 85
0.2550478 1.2711294 0.15580906 67
0.26574475 1.2570298 0.0098431576 88
0.26810461 1.2529866 0.029308135 100
0.26276603 1.2621334 0.049853086 85
0.26882121 1.2517588 0.068490572 50
0.27816328 1.2357525 0.085413218 58
0.27488333 1.2413722 0.1060898 66
0.27888188 1.2345213 0.12417299 92
0.2549389 1.275544 0.15684435 66
0.26945046 1.254558 0.0097733475 89
0.27579671 1.2435968 0.028680105 100
0.27247205 1.2493391 0.048458595 88
0.27050456 1.2527373 0.068490572 50
0.28078049 1.2349889 0.085100345 58
0.27357927 1.2474267 0.10723466 81
0.28538716 1.2270324 0.12192347 76
0.26638508 1.2598524 0.15166797 69
0.27512723 1.2485981 0.0096337283 90
0.27347273 1.2514789 0.029098792 100
0.27117011 1.2554882 0.048981529 100
0.26823676 1.2605956 0.069465525 66
0.28142145 1.2376388 0.085413218 58
0.27426973 1.2500912 0.10761628 79
0.28310195 1.2347128 0.12372308 67
0.26424819 1.2675403 0.15373851 68
0.27679953 1.2495546 0.0096337283 90
0.27713239 1.2489704 0.028889447 100
0.26201785 1.2755013 0.050898954 100
0.27584675 1.2512271 0.068003096 51
0.28305545 1.2385736 0.085413218 58
0.27205998 1.2578741 0.10914274 85
0.28761962 1.230562 0.12237337 85
0.26981178 1.2618204 0.15166797 69
0.27552381 1.2557282 0.0097384425 75
0.28273633 1.2429646 0.02847076 100
0.27162567 1.2626266 0.049504463 100
0.28143463 1.2452681 0.067028143 51
0.28760815 1.2343431 0.084474608 59
0.27569637 1.2554228 0.10837951 94
0.2901876 1.2297784 0.12192347 76
0.2696211 1.2661741 -0.0099478718 96
0.2658278 1.2728869 0.15477379 67
0.27233246 1.2654053 0.0099129668 87
0.2843889 1.2438946 0.02847076 100
0.28211412 1.2479532 0.047935657 89
0.28115413 1.249666 0.067515619 51
0.2959913 1.223194 0.082284525 61
0.28315181 1.2461019 0.1060898 66
0.29465249 1.2255827 0.12057377 77
0.27526557 1.2601721 -0.0098082526 88
0.269474 1.2705054 0.15373851 68
0.27794987 1.2593803 0.0097733475 89
0.28216302 1.2518015 0.028889447 100
0.27700773 1.2610753 0.049155839 87
0.275114 1.2644818 0.069465525 49
0.29181606 1.2344371 0.084161744 59
0.28290752 1.2504623 0.10685304 81
0.29340377 1.231581 0.12192347 76
0.27873194 1.2579736 0.14959741 70
0.28159079 1.2568247 0.0097035384 90
0.2857751 1.2492355 0.028680105 100
0.27487567 1.2690042 0.049853086 85
0.28259245 1.255008 0.068003096 51
0.29057753 1.2405251 0.085100345 58
0.29027373 1.2410761 0.10456333 82
0.29689837 1.2290608 0.12102367 69
0.27857146 1.262301 0.15063268 70
0.28329176 1.2577586 0.0097035384 90
0.2970317 1.232631 0.027633386 100
0.27470744 1.2734578 0.050201707 85
0.29000133 1.2454882 0.066540658 52
0.29411697 1.2379614 0.084474608 59
0.28721017 1.2505927 0.10647142 73
0.29663244 1.2333611 0.12192347 76
0.27843788 1.2666355 0.15166797 77
0.28499597 1.2586867 0.0097035384 90
0.29483977 1.2405341 0.028052073 100
0.2793158 1.2691613 0.049678773 86
0.28598493 1.256863 0.068003096 51
0.29951867 1.2319058 0.083223134 60
0.28701758 1.2549587 0.10723466 81
0.28022972 1.2674761 -0.0098780617 97
0.27464765 1.2777698 0.15477379 67
0.28575632 1.2613699 0.0097384425 75
0.29459187 1.2449399 0.028261416 100
0.28389081 1.2648389 0.049155839 87
0.28768602 1.2577816 0.068003096 51
0.29832578 1.2379966 0.084161744 59
0.28778216 1.2576028 0.10761628 79
0.28575632 1.2613699 -0.0097384425 88
0.28923148 1.2549078 0.14752686 79
0.29311886 1.2517024 0.0095290141 92
0.29437166 1.2493533 0.02847076 100
0.29124486 1.2552166 0.048109971 89
0.2949948 1.2481847 0.066540658 52
0.29595247 1.2463889 0.10494494 75
0.28910762 1.2592243 0.14856213 71
0.29760626 1.247293 0.0094242999 93
0.29604647 1.2502427 0.02847076 100
0.29200876 1.2578782 0.048284281 88
0.29480958 1.2525816 0.067028143 51
0.29853469 1.2455373 0.10456333 75
0.28539848 1.2703787 0.15166797 77
0.29555941 1.2552551 0.0095639192 91
0.2835359 1.2781856 0.050201707 85
0.28714675 1.2712994 0.15166797 69
0.2953245 1.2596443 0.0096337283 90
0.29533559 1.2596229 0.048284281 59
0.29810029 1.2543075 0.067028143 51
0.2990596 1.2524631 0.10570818 66
0.28978807 1.2702887 -0.0098431576 97
0.28702769 1.2755959 0.15270324 68
0.29520217 1.2640848 0.0097035384 90
0.29797271 1.2587124 0.067515619 51
0.28786984 1.2783031 -0.0099827768 100
0.29764858 1.259341 0.14752686 71
0.29692838 1.2649713 0.0097035384 100
0.29516175 1.2684265 0.068734311 84
0.29146641 1.2756541 -0.0099129668 100
0.29935825 1.2602189 0.14752686 71
0.2975772 1.2679832 0.14959741 78
0.29844961 1.2705874 0.15011504 78
0.29499242 1.2819135 -0.0099827768 100
0.29766625 1.2810075 0.0099478718 100
0.29943702 1.2774215 -0.0098780617 100
