# .PCD v0.7 - Point Cloud Data file format
VERSION 0.7
FIELDS x y z intensity
SIZE 4 4 4 4
TYPE F F F F
COUNT 1 1 1 1
WIDTH 749
HEIGHT 1
VIEWPOINT 0 0 0 1 0 0 0
POINTS 749
DATA ascii
-1.0941342 0.15085058 0.057883568 26
-1.1642346 0.1646587 0.020524031 27
-1.182592 0.16725498 0.062593803 30
-1.0904849 0.15772414 0.019232552 6
-1.0444316 0.15478706 0.018429741 6
-1.0260915 0.15573132 0.018115599 4
-1.0848215 0.1685209 0.019162742 1
-0.68841237 1.1842368 0.023909796 1
-0.66049969 1.1449418 0.023072081 1
-0.64458078 1.1264131 0.022653224 1
-0.64636892 1.1392034 0.022862652 1
-0.65611881 1.1658503 0.023351319 1
0.061382979 0.016732574 0.015672261 50
0.044171095 0.00170362 0.016056214 8
0.051377118 0.012648702 0.047521047 19
0.041141689 0.0026546717 0.048253752 100
0.038466275 0.0044355989 0.048253752 70
0.039861202 0.017942667 0.047625721 28
0.031472027 0.011573732 0.048149079 17
0.029960811 0.015033126 0.04804441 9
0.029736936 0.02004385 0.047835063 9
0.054267585 0.071145952 0.044904251 13
-1.1846445 0.45100719 0.030786045 11
-1.1718633 0.45894673 0.030541711 11
-1.1591551 0.46739936 0.030297378 12
-1.1562603 0.47405076 0.030227568 11
-1.1513686 0.48101312 0.030122854 11
-1.1326897 0.49052724 0.029773805 13
-1.1218121 0.49832711 0.029564377 18
-1.1167793 0.5048151 0.029459663 18
-1.105839 0.51247871 0.029250233 15
-1.110682 0.51765943 0.029320043 16
-1.1075966 0.52404481 0.029250233 15
-1.100487 0.53069073 0.029110614 20
-1.1112123 0.53505331 0.029285138 21
-1.1298914 0.5386886 0.029599281 10
-1.1604178 0.54056609 0.030122854 1
-1.062331 1.1377926 0.02886628 3
-1.0155802 1.1271281 0.084156215 5
-1.0389578 1.1324608 0.1425868 4
-1.0357127 1.1375484 0.028412517 8
-0.98708457 1.1262771 0.082690813 13
-1.0279782 1.1357558 0.14171524 19
-0.9974373 1.1343731 0.027749326 20
-0.99944013 1.1348448 0.083423518 82
-1.0247526 1.140805 0.14154093 68
-0.98448688 1.1369817 0.027539898 37
-1.0020421 1.1411802 0.083632857 100
-1.0118222 1.1435192 0.14049506 100
-0.97736686 1.1409202 0.027435184 43
-0.98715109 1.1432962 0.082900152 100
-0.99889213 1.1461475 0.13944919 91
-0.98771209 1.1491215 0.027644612 28
-0.98196024 1.1477034 0.082690813 99
-1.0033731 1.1529827 0.13997212 87
-0.98249966 1.1535158 0.027574802 23
-0.98256999 1.1535335 0.082795486 61
-1.0058923 1.1593699 0.14032075 79
-0.98115164 1.1588629 0.027574802 32
-0.97541445 1.1574059 0.082481466 38
-1.0006616 1.1638179 0.13997212 71
-0.97010273 1.1617103 0.027400278 59
-0.98565739 1.1657186 0.083109498 46
-0.97419578 1.162765 0.13770607 89
-0.94937927 1.1619565 0.027051231 67
-0.97653741 1.1690561 0.082690813 84
-0.97667068 1.1690909 0.1380547 91
-0.95959944 1.1702631 0.027260659 74
-0.96162122 1.1707991 0.081958108 98
-0.97719413 1.1749282 0.13822901 94
-0.95433086 1.1744915 0.027190849 75
-0.94478303 1.1719244 0.081120729 96
-0.97769541 1.180774 0.13840333 100
-0.94912249 1.1784266 0.027121039 83
-0.94344193 1.1768789 0.081120729 100
-0.96479088 1.1826954 0.13735744 99
-0.94961518 1.1841894 0.027155945 92
-0.94971329 1.1842165 0.081539422 100
-0.95757967 1.1863892 0.13683452 94
-0.94045764 1.1872652 0.027016325 93
-0.95018154 1.1899874 0.081644088 90
-0.95227975 1.1905748 0.13648589 98
-0.94283956 1.1935569 0.027086135 83
-0.92949218 1.1897699 0.080597371 86
-0.95271927 1.19636 0.1366602 100
-0.97210151 1.2076058 0.027644612 52
-0.92225939 1.1932762 0.080283359 50
-0.95505148 1.202704 0.13700883 100
-0.9686448 1.212357 0.027609708 37
-0.92077297 1.1984127 0.080283359 22
-0.94588035 1.2057261 0.13631158 91
-0.92681462 1.2057707 0.026876707 66
-0.92118412 1.2041093 0.080388032 28
-0.93861741 1.2092534 0.13578865 84
-0.91953665 1.2092053 0.026771991 75
-0.93114156 1.2126737 0.081016064 28
-0.93516606 1.2138765 0.13561434 92
-0.91608065 1.2137529 0.026737086 78
-0.91620606 1.2137909 0.080283359 64
-0.93360764 1.2190579 0.13561434 99
-0.91452271 1.2188678 0.026737086 81
-0.90891927 1.2171503 0.079969339 100
-0.93393606 1.2248178 0.13578865 98
-0.92066604 1.2260911 0.026876707 85
-0.90170556 1.220211 0.079655327 93
-0.9152928 1.2244248 0.13421984 84
-0.89617044 1.2240341 0.026457848 85
-0.90965289 1.228267 0.080178685 72
-0.91369766 1.2295368 0.13421984 56
-0.89457673 1.2290794 0.026457848 81
-0.91185135 1.2345691 0.080388032 68
-0.90828711 1.2334363 0.13387123 43
-0.8967728 1.2353437 0.026527658 85
-0.89691144 1.2353883 0.079655327 89
-0.9066605 1.238524 0.13387123 43
-0.89522165 1.2401388 0.026527658 92
-0.88586372 1.2370946 0.079131968 100
-0.91836137 1.2476662 0.13509139 54
-0.89357179 1.2451806 0.026527658 96
-0.88991588 1.2439773 0.07944598 100
-0.90911514 1.2502971 0.13439415 78
-0.88043767 1.2466753 0.02631823 99
-0.89764315 1.2524087 0.079969339 100
-0.9054547 1.2550119 0.13421984 85
-0.87497526 1.2503879 0.02624842 99
-0.88837999 1.2549069 0.079550654 100
-0.89053696 1.2556341 0.13299966 82
-0.87328964 1.2553591 0.02624842 93
-0.87344605 1.2554123 0.078817949 100
-0.90391904 1.2658041 0.13439415 87
-0.87158686 1.2603244 0.02624842 93
-0.8717429 1.2603781 0.078817949 100
-0.89841253 1.2695768 0.13404553 100
-0.88119537 1.2692354 0.026457848 83
-0.87002248 1.2653379 0.078817949 100
-0.90418464 1.2772546 0.13474278 68
-0.85869998 1.2669108 0.026073895 75
-0.87016839 1.2709562 0.078922622 68
-0.89864737 1.281002 0.13439415 40
-0.86089939 1.2726762 0.026143705 88
-0.85729903 1.2713934 0.07829459 25
-0.89140433 1.2835445 0.13387123 35
-0.85349208 1.2755649 0.026038991 99
-0.85366124 1.2756259 0.078189917 27
-0.87273258 1.2824957 0.13230242 30
-0.8591451 1.2834439 0.02617861 96
-0.85742825 1.2828184 0.078503937 72
-0.88020462 1.2911174 0.13317397 16
-0.85734421 1.2883596 0.02617861 100
-0.84813291 1.2849669 0.078085244 100
-0.8727681 1.2940407 0.13265105 13
-0.84053403 1.2876875 0.025899371 100
-0.84258336 1.2884505 0.077875905 99
-0.8914693 1.3066504 0.13456847 1
-0.82748896 1.2883129 0.025689943 100
-0.85571963 1.2989354 0.078713275 46
-0.87093967 1.3046622 0.13282534 1
-0.8331477 1.2959611 0.025829561 88
-0.8333295 1.2960302 0.077561885 51
-0.85416645 1.3039536 0.13143086 9
-0.83690327 1.3029377 0.025934275 71
-0.82775611 1.2994229 0.077352546 59
-0.87089211 1.3159986 0.13317397 41
-0.83503455 1.3077757 0.025934275 74
-0.83520895 1.3078434 0.077875905 72
-0.84297532 1.310859 0.13073361 90
-0.82570261 1.3096859 0.025794657 88
-0.83518237 1.3134048 0.077980578 65
-0.84849793 1.3186285 0.13143086 100
-0.81460971 1.3105626 0.025620133 100
-0.83522958 1.3187308 0.078085244 76
-0.83555692 1.3188605 0.130385 99
-0.8127144 1.3153228 0.025620133 100
-0.82217997 1.3191106 0.077457212 95
-0.83733207 1.3251741 0.13073361 97
-0.81821841 1.3230739 0.025759751 100
-0.81655151 1.3224001 0.077247873 95
-0.83723289 1.3307601 0.13090792 100
-0.82007974 1.3291192 0.025829561 100
-0.81656128 1.3276833 0.077352546 97
-0.82614225 1.3315933 0.13003637 100
-0.79963166 1.326278 0.025480513 100
-0.80722004 1.3294058 0.076933853 100
-0.81864733 1.3341157 0.12951343 100
-0.78059918 1.3184334 0.17671055 15
-0.7977795 1.3307505 0.025480513 100
-0.81273371 1.3369722 0.077352546 100
-0.80389243 1.3332938 0.12829325 100
-0.80443221 1.3335184 0.18012288 24
-0.79571515 1.3356866 0.025480513 100
-0.79775804 1.3365452 0.076619841 100
-0.81467575 1.3436568 0.12951343 100
-0.77856797 1.3284786 0.17695428 20
-0.80119532 1.3432701 0.025620133 100
-0.78851742 1.3378912 0.076201156 81
-0.8164342 1.3497355 0.12986206 100
-0.75295216 1.3228021 0.17378569 18
-0.81746513 1.3560963 0.025969181 61
-0.81212753 1.3538086 0.077666558 40
-0.8033126 1.3500304 0.12881619 46
-0.77281219 1.3369579 0.17671055 11
-0.81367856 1.3598338 0.025934275 79
-0.81018406 1.3583224 0.077666558 82
-0.81783968 1.3616337 0.130385 39
-0.78550047 1.347646 0.17866045 10
-0.78768581 1.3544205 0.025480513 100
-0.81716973 1.3673017 0.078189917 100
-0.80835897 1.3634524 0.12968774 93
-0.78337437 1.3525369 0.17866045 21
-0.78940004 1.3604665 0.025550323 100
-0.80604368 1.3678038 0.077666558 100
-0.82643765 1.3767943 0.13160518 100
-0.7796188 1.3561546 0.17841671 35
-0.80184132 1.3718785 0.025829561 100
-0.80201894 1.3719575 0.077561885 100
-0.80964333 1.3753521 0.13021068 100
-0.78834242 1.3658683 0.17987914 38
-0.80531031 1.3788164 0.025934275 100
-0.80548102 1.3788929 0.077875905 100
-0.80762833 1.3798575 0.13021068 100
-0.78635901 1.3703032 0.17987914 31
-0.79599839 1.3800056 0.025794657 100
-0.80891186 1.3858578 0.078189917 100
-0.80196911 1.3827114 0.12986206 100
-0.77712876 1.3714538 0.17890419 19
-0.78851229 1.3819712 0.025689943 100
-0.81049496 1.3920217 0.078399263 100
-0.80355388 1.3888483 0.13021068 100
-0.77332157 1.375026 0.17866045 14
-0.79352266 1.3902256 0.025829561 100
-0.7991392 1.3928185 0.077875905 100
-0.81574804 1.4004858 0.13160518 100
-0.74766511 1.3690559 0.17549185 11
-0.80052239 1.3988982 0.026004085 100
-0.80430871 1.4006615 0.07829459 100
-0.81003743 1.4033291 0.13125655 100
-0.76906544 1.3842497 0.17866045 10
-0.8053357 1.4074837 0.026143705 100
-0.8018772 1.4058568 0.07829459 100
-0.80398983 1.4068506 0.13090792 100
-0.78825301 1.3994488 0.18158533 5
-0.79598755 1.4085462 0.026004085 100
-0.81239265 1.4163289 0.079027295 100
-0.80547065 1.413045 0.13125655 100
-0.78833932 1.4106505 0.025899371 100
-0.80652517 1.4193559 0.078817949 100
-0.80681199 1.4194932 0.13160518 100
-0.7862075 1.4150851 0.025899371 100
-0.80256575 1.4229823 0.078713275 100
-0.80465072 1.4239888 0.13160518 100
-0.79821509 1.426986 0.02617861 100
-0.79836792 1.4270604 0.07860861 100
-0.81657308 1.4359318 0.13299966 100
-0.80679733 1.4367448 0.026388038 100
-0.78901154 1.4280047 0.078189917 100
-0.80720466 1.436945 0.13230242 100
-0.78989679 1.434839 0.0261088 100
-0.80257732 1.4411309 0.079131968 100
-0.79749471 1.4386091 0.13160518 100
-0.78768474 1.4392786 0.0261088 100
-0.81106132 1.4509746 0.07976 100
-0.80239731 1.4466398 0.13230242 100
-0.79259938 1.4473135 0.02624842 100
-0.80166286 1.4518859 0.079341307 100
-0.80904037 1.4556077 0.13317397 100
-0.79735583 1.4556236 0.026388038 100
-0.79749435 1.4556942 0.079236634 100
-0.82084447 1.4675763 0.13456847 100
-0.7985124 1.4621489 0.026457848 100
-0.80397695 1.4649537 0.07976 100
-0.80599338 1.4659886 0.13334829 100
-0.78898484 1.4631746 0.02631823 100
-0.80154294 1.4696758 0.07976 100
-0.79824764 1.4679698 0.13282534 100
-0.78643519 1.4680775 0.02631823 100
-0.79542881 1.4727752 0.079550654 100
-0.80274433 1.4765965 0.1335226 100
-0.78752869 1.4746023 0.026388038 93
-0.79296738 1.4774674 0.079550654 100
-0.81789714 1.4906002 0.13526571 99
-0.78859299 1.4811432 0.026457848 38
-0.78696209 1.4802768 0.079341307 34
-0.80657583 1.4906969 0.13439415 70
0.12297231 1.2982771 0.13203983 5
0.15814641 1.258065 0.010925206 13
0.13861737 1.2823889 0.03443706 27
0.13088891 1.2920148 0.05856866 22
0.14070499 1.2797887 0.12707879 17
0.18521181 1.2243541 0.13452072 7
0.12548158 1.2987499 0.18169098 6
0.16492271 1.2532423 0.010785587 39
0.1629025 1.2557775 0.032552965 59
0.16384631 1.2545931 0.054210871 51
0.15165243 1.2698954 0.078483857 14
0.15237102 1.2689937 0.10105667 11
0.15481114 1.2659315 0.12326261 67
0.18080729 1.2333083 0.13677025 15
0.15150088 1.2700856 0.1713382 14
0.16156328 1.2607887 0.010925206 100
0.1744315 1.2445297 0.031715591 100
0.14690822 1.2793052 0.056825545 95
0.17548743 1.2431955 0.07409656 30
0.1711908 1.2486243 0.096676499 37
0.16254988 1.2595421 0.12135452 100
0.18597388 1.2299459 0.13542053 45
0.1483658 1.2774637 0.17340876 42
0.16089419 1.2653542 0.010995016 100
0.17740703 1.2443323 0.031610917 100
0.14631614 1.2839129 0.057174169 100
0.16496193 1.2601757 0.076533951 29
0.180269 1.2406889 0.094799288 25
0.16919774 1.2547833 0.11982805 100
0.19247726 1.2251471 0.13362093 31
0.14664841 1.2834899 0.17496167 42
0.16007891 1.2697951 0.011064826 100
0.1814391 1.2424159 0.031401575 93
0.16027796 1.2695398 0.055431053 100
0.17513689 1.250494 0.074827775 30
0.18669221 1.2356825 0.093547814 26
0.1756379 1.2498517 0.11830158 100
0.19159114 1.2294031 0.13452072 31
0.15191832 1.2802552 0.17340876 42
0.17284662 1.2569247 0.010750682 79
0.17819825 1.2500155 0.03182026 61
0.16324413 1.2693222 0.055256739 74
0.17073852 1.2596464 0.076046467 29
0.17622364 1.2525649 0.096676499 25
0.19053948 1.2340823 0.11410378 41
0.18484369 1.2414359 0.13767004 30
0.15015292 1.2862234 0.17496167 28
0.18055975 1.250248 0.010576159 67
0.16274303 1.2734084 0.03328567 57
0.1685465 1.2658644 0.054733805 50
0.18930951 1.2388737 0.072634131 31
0.18023482 1.2506703 0.096050762 38
0.18848923 1.2399402 0.11524864 13
0.18284443 1.247278 0.13901976 22
0.15068907 1.2890778 0.17547931 56
0.17738345 1.2578914 0.010715778 53
0.19238451 1.2382495 0.030878214 31
0.16665182 1.2719431 0.055256739 49
0.18974352 1.2417076 0.072877869 47
0.1867108 1.2456785 0.094799288 51
0.18179053 1.252121 0.11791996 13
0.19870636 1.2299719 0.13362093 38
0.17243689 1.2643683 0.16667947 67
0.17416957 1.2654973 0.010855397 52
0.18669733 1.2489806 0.031506244 31
0.16711441 1.2747989 0.055431053 49
0.18651119 1.2492261 0.073852822 46
0.19425902 1.2390113 0.093234941 53
0.19762856 1.2345688 0.11334054 13
0.20965493 1.2187133 0.13002171 32
0.17174342 1.2686961 0.16771474 67
0.17847958 1.263741 0.010785587 39
0.16932529 1.2759068 0.033180997 28
0.17624313 1.2667133 0.054385185 51
0.18716043 1.2522044 0.07409656 61
0.19368711 1.2435306 0.093860678 52
0.18643034 1.2531748 0.11753834 13
0.20669359 1.2262454 0.13182132 31
0.1806303 1.2608829 0.16460891 69
0.18969515 1.2521555 0.010506349 54
0.19013411 1.2515681 0.031506244 31
0.18624091 1.256778 0.053165004 52
0.18757316 1.2549951 0.074340299 61
0.19525933 1.2447096 0.093860678 52
0.20213714 1.2355058 0.11295892 13
0.21054149 1.2242593 0.13092151 32
0.18226016 1.262105 0.16460891 69
0.19257179 1.2518044 0.010471444 82
0.19419724 1.2496133 0.031296901 31
0.18675524 1.2596449 0.053339314 52
0.18808562 1.2578516 0.074584037 61
0.19927242 1.2427721 0.093234941 79
0.21078247 1.2272568 0.11066922 14
0.20980707 1.2285717 0.13182132 31
0.18743318 1.258731 0.163056 70
0.18942711 1.2594268 0.010611063 81
0.20171291 1.2427505 0.030773543 64
0.18010861 1.2720753 0.054559495 76
0.20854431 1.2334778 0.070684217 81
0.20084211 1.2439325 0.093234941 92
0.20182031 1.2426047 0.11410378 13
0.22288835 1.2140079 0.1273223 24
0.18676415 1.2630413 0.16409127 69
0.19366881 1.2575786 0.010541254 81
0.22120771 1.2198963 0.029203463 68
0.18086359 1.2751005 0.054733805 100
0.19978485 1.2492099 0.072877869 94
0.20149893 1.2468646 0.093547814 100
0.20363757 1.2439382 0.11410378 13
0.2268953 1.2121139 0.12642249 16
0.18410048 1.2706714 0.16616182 68
0.19528764 1.2587576 0.010541254 95
0.21097028 1.2371485 0.030250182 65
0.18722159 1.2698718 0.054036561 100
0.20020995 1.2519752 0.073121607 93
0.21236426 1.2352278 0.091044858 100
0.21558937 1.2307839 0.11066922 14
0.22836319 1.2131829 0.12642249 16
0.19710973 1.256247 0.16098544 72
0.19474423 1.2632998 0.010611063 94
0.21035039 1.2416295 0.030459527 97
0.19487783 1.2631142 0.053165004 100
0.2019788 1.2532541 0.073121607 78
0.20945409 1.242874 0.092296332 100
0.21269122 1.238379 0.11219569 14
0.23454499 1.2080333 0.12462288 8
0.19550741 1.2622401 0.16253836 70
0.21034062 1.2449564 0.010192205 99
0.20726904 1.2492515 0.030878214 63
0.19651499 1.2642891 0.053165004 100
0.21513048 1.2382586 0.070684217 81
0.21102408 1.2440007 0.092296332 100
0.21082023 1.2442858 0.11334054 20
0.23146498 1.2154175 0.12642249 16
0.19826543 1.2618415 0.16202073 70
0.19819674 1.2657679 0.010611063 94
0.21827459 1.2374738 0.03004084 99
0.19371697 1.2720809 0.053862248 100
0.22144416 1.2330072 0.069709264 66
0.21390682 1.243629 0.091983467 100
0.20574391 1.2551323 0.11563025 27
0.22971639 1.2213498 0.1277722 16
0.19559854 1.2694293 0.16409127 69
0.19753903 1.2702011 0.010680873 80
0.21982661 1.2385713 0.03004084 99
0.1907934 1.2797743 0.054559495 100
0.21840766 1.240585 0.070684217 65
0.22003058 1.2382818 0.090731993 95
0.19717696 1.270715 0.11906482 58
0.23345986 1.2192235 0.12687239 33
0.19948217 1.2674434 0.163056 70
0.19928721 1.2714283 0.010680873 93
0.2191748 1.2429943 0.030250182 65
0.20399433 1.2646984 0.05281638 100
0.21322584 1.2514998 0.072146654 63
0.22506374 1.2345746 0.089793384 100
0.20342788 1.2655083 0.11753834 99
0.22944528 1.2283101 0.1291219 64
0.20786414 1.2591655 0.15995017 72
0.20551464 1.2660189 0.010541254 95
0.21846655 1.2473696 0.030459527 97
0.20563671 1.265843 0.05281638 100
0.21482441 1.2526139 0.072146654 79
0.22097209 1.2437619 0.09135773 100
0.22299123 1.2408546 0.11143246 84
0.22318557 1.2405748 0.13227122 94
0.20948815 1.2602974 0.15995017 72
0.22095078 1.2475188 0.010122396 99
0.22248495 1.2452923 0.030250182 98
0.20067334 1.2769455 0.053862248 100
0.21997461 1.2489353 0.071415432 48
0.220469 1.2482178 0.091983467 100
0.22583318 1.2404333 0.11105084 98
0.22491249 1.2417694 0.13227122 94
0.21128747 1.2615422 0.15995017 72
0.21358845 1.261869 0.010401634 83
0.22640106 1.2431356 0.03004084 99
0.20019549 1.2814509 0.054210871 100
0.22613105 1.2435304 0.070440479 98
0.22437063 1.2461042 0.09135773 94
0.22526062 1.2448031 0.11181407 100
0.23536232 1.2300333 0.128672 97
0.20973355 1.2675052 0.16150309 70
0.21867684 1.2580768 0.010296919 84
0.23590693 1.2326949 0.029308135 68
0.20534 1.2777234 0.053687938 78
0.22890088 1.2430155 0.07019674 66
0.23380083 1.2357974 0.089167647 100
0.22361198 1.2508067 0.11295892 89
0.23368651 1.2359657 0.13002171 96
0.20930219 1.2718867 0.16253836 70
0.21367848 1.2691808 0.010506349 40
0.23863992 1.2321321 0.029203463 34
0.21713379 1.2640523 0.052119136 54
0.23055395 1.2441335 0.07019674 99
0.23873997 1.2319835 0.088229038 100
0.2252923 1.2519431 0.11295892 89
0.23967046 1.2306025 0.12822211 97
0.22185054 1.2570515 0.15736198 74
0.21755937 1.2669691 0.010436539 41
0.22684827 1.253083 0.030459527 32
0.22431284 1.2568733 0.051247578 55
0.21667588 1.2682898 0.073609084 93
0.23807704 1.236297 0.088854775 98
0.23344174 1.2432263 0.11066922 85
0.23794904 1.2364883 0.12957181 96
0.22131923 1.2613484 0.15839726 73
0.22372025 1.2614626 0.010296919 42
0.21307093 1.2775033 0.031924933 30
0.22270834 1.2629868 0.051770512 54
0.23378867 1.2462969 0.07019674 99
0.23315114 1.2472572 0.090731993 95
0.24052492 1.2361504 0.10876112 94
0.23203436 1.2489394 0.13272113 94
0.21983084 1.2673211 0.15995017 72
0.22975382 1.2558633 0.0101573 42
0.21035907 1.2852881 0.032343622 30
0.21886256 1.272387 0.05264207 53
0.24192464 1.2373983 0.068734311 67
0.23690975 1.2450067 0.090106249 96
0.24099198 1.2388133 0.10914274 92
0.24649385 1.2304661 0.1273223 89
0.22786084 1.2587353 0.15684435 74
0.22050506 1.2737129 0.010506349 27
0.24495986 1.2363279 0.029203463 34
0.22170889 1.2718725 0.052467756 53
0.24138471 1.2417933 0.069221787 67
0.23640704 1.2494029 0.090731993 95
0.23725674 1.2481039 0.11105084 84
0.25343689 1.2233686 0.12507279 100
0.22005105 1.2744069 0.16150309 70
0.2310617 1.2614975 0.01022711 28
0.22492707 1.2709512 0.031296901 31
0.2289733 1.2647157 0.051596198 54
0.24095485 1.2462517 0.069709264 66
0.25429556 1.225693 0.086038955 100
0.24007988 1.2476001 0.11066922 85
0.25085741 1.2309914 0.12687239 82
0.23136637 1.2610279 0.15684435 74
0.23927528 1.2525202 0.010017681 58
0.24722326 1.2401779 0.029308135 68
0.24580407 1.2423818 0.049155839 58
0.23939487 1.2523345 0.070440479 49
0.24947104 1.2366873 0.087916173 84
0.24387476 1.2453778 0.10990598 85
0.25035822 1.2353096 0.1277722 89
0.23203638 1.2637614 0.15736198 74
0.24526864 1.2468618 0.0098780617 59
0.24348894 1.2496468 0.029831495 66
0.23458058 1.2635871 0.051247578 55
0.25176969 1.2366886 0.068003096 68
0.24471974 1.2477207 0.089793384 69
0.25082183 1.2381718 0.10799789 72
0.24988559 1.2396369 0.128672 97
0.23168135 1.268124 0.15839726 73
0.24158055 1.2563665 0.010052586 86
0.25051308 1.2422802 0.029308135 100
0.22670254 1.2798285 0.05281638 79
0.2565898 1.2326975 0.067271881 34
0.24850494 1.2454469 0.089167647 70
0.24509817 1.2508193 0.11066922 92
0.25883204 1.2291615 0.12552269 82
0.22824922 1.2773895 0.16098544 64
0.24319509 1.2573866 0.010052586 86
0.25208086 1.2432708 0.029308135 100
0.22096515 1.2927008 0.054036561 77
0.24755061 1.2504674 0.069709264 83
0.25639725 1.2364137 0.087290429 71
0.25087786 1.2451818 0.10914274 85
0.25931814 1.2317736 0.12597258 99
0.23199186 1.2751839 0.15995017 64
0.23960134 1.2669346 0.01022711 70
0.2516185 1.2476957 0.029517479 100
0.24073541 1.2651191 0.051073264 83
0.24397138 1.2599385 0.070927955 48
0.26221314 1.2307342 0.086038955 58
0.24525782 1.2578789 0.11181407 98
0.26299658 1.2294799 0.12507279 92
0.23785096 1.2697369 0.15787962 65
0.24879688 1.2561698 0.0099827768 87
0.2554751 1.2453904 0.029308135 100
0.24989736 1.2543935 0.049853086 85
0.25204194 1.250932 0.069465525 49
0.26182303 1.2351444 0.086664692 71
0.25842166 1.2406344 0.10761628 72
0.26057729 1.2371551 0.12687239 82
0.24782413 1.2577399 0.15373851 68
0.25259021 1.253811 0.0099129668 87
0.25504443 1.2498186 0.029517479 100
0.24741647 1.2622274 0.05055033 84
0.25580165 1.2485868 0.068978049 50
0.25931051 1.2428788 0.087916173 56
0.25595373 1.2483394 0.10914274 78
0.25710705 1.2464633 0.1291219 96
0.23941159 1.2752492 0.15891489 65
0.2521131 1.2582086 0.0099827768 87
0.26287895 1.2405645 0.028889447 100
0.24178612 1.2751336 0.051770512 81
0.26152617 1.2427815 0.068003096 51
0.2670536 1.2337226 0.086038955 72
0.25549641 1.2526637 0.10990598 78
0.26883891 1.2307966 0.12462288 83
0.23907632 1.2795746 0.15995017 64
0.25485468 1.2575349 0.0099478718 73
0.2645233 1.2415638 0.028889447 100
0.25180575 1.2625712 0.05037602 84
0.26112217 1.2471819 0.068490572 50
0.26560503 1.239777 0.086977564 57
0.24904922 1.2671247 0.11295892 89
0.27347672 1.2267741 0.12327318 85
0.24786022 1.2690886 0.1563267 74
0.25861752 1.2551336 0.0098780617 88
0.2661711 1.2425574 0.028889447 100
0.25044939 1.268733 0.050898954 83
0.26278961 1.2481874 0.068490572 50
0.27029788 1.2356865 0.086038955 58
0.26493832 1.2446098 0.10761628 72
0.27005592 1.2360895 0.12552269 82
0.25059888 1.2684841 0.15580906 67
0.2654309 1.2475586 0.0097035384 90
0.26168805 1.2538397 0.029517479 100
0.253212 1.2680641 0.05072464 84
0.26649284 1.2457764 0.068003096 51
0.27394751 1.2332662 0.085413218 73
0.26056692 1.2557212 0.10990598 85
0.27367967 1.2337157 0.12462288 83
0.25827414 1.2595689 0.15270324 68
0.26701608 1.2484996 0.0097035384 90
0.2632941 1.2547932 0.029517479 100
0.25486529 1.2690456 0.05072464 84
0.26605114 1.2501314 0.068490572 50
0.27347416 1.2375796 0.086038955 58
0.26517734 1.2516088 0.10876112 87
0.27621093 1.232952 0.12417299 83
0.25694904 1.2655221 0.15425615 67
0.2616047 1.2615579 0.0099478718 87
0.26903084 1.2489004 0.029098792 100
0.25358441 1.2752281 0.051247578 82
0.2697379 1.2476952 0.068003096 51
0.26711115 1.2521724 0.08854191 56
0.26984063 1.2475201 0.10761628 65
0.2778286 1.233905 0.12417299 83
0.25770295 1.2682083 0.15477379 67
0.26642504 1.2574263 0.0098431576 88
0.2748054 1.2430215 0.028680105 100
0.25844389 1.2711446 0.05072464 84
0.27348709 1.2452875 0.067515619 51
0.27583379 1.2412539 0.086351827 58
0.2666564 1.2570286 0.10952436 78
0.28737041 1.221424 0.12057377 86
0.25564507 1.2759554 0.15684435 66
0.27212638 1.2514853 0.0097035384 90
0.2744616 1.2474389 0.028889447 100
0.26716626 1.26008 0.049504463 86
0.27316335 1.2496885 0.068003096 51
0.28143001 1.2353644 0.085100345 58
0.26639551 1.2614155 0.1102876 85
0.28310332 1.232465 0.12327318 93
0.26812822 1.2584131 -0.0098431576 87
0.26320678 1.2669407 0.15373851 68
0.26983479 1.259394 0.0098431576 88
0.27612984 1.2483978 0.028889447 100
0.26887867 1.2610643 0.049504463 86
0.26497707 1.2678795 0.070440479 49
0.2869817 1.2294418 0.083848871 59
0.27201417 1.2555871 0.10876112 79
0.2866556 1.2300113 0.12237337 85
0.27262145 1.2545263 0.14959741 70
0.28627524 1.2342396 0.0093195848 78
0.27377164 1.2562499 0.029308135 100
0.27346101 1.2567966 0.048981529 87
0.27643487 1.2515616 0.068003096 51
0.28265238 1.2406169 0.08572609 58
0.27847463 1.2479711 0.10685304 81
0.28433225 1.2376598 0.12417299 83
0.26850441 1.2655219 0.15270324 68
0.27906242 1.2508367 0.0096337283 90
0.27743158 1.253731 0.029098792 100
0.26538122 1.2751169 0.05072464 84
0.28396446 1.2421371 0.066540658 52
0.28623623 1.2381053 0.085100345 58
0.27532586 1.2574681 0.10876112 100
0.2897929 1.2317932 0.12237337 76
0.27023581 1.2665014 0.15270324 68
0.2689479 1.2726774 0.010052586 86
0.28488532 1.2441726 0.02847076 100
0.27094707 1.2691019 0.050027397 85
0.28359407 1.246482 0.067028143 51
0.28971797 1.2355291 0.084474608 59
0.28077623 1.2515218 0.10723466 73
0.29417869 1.2275507 0.12102367 77
0.27089965 1.2691866 -0.0099827768 86
0.26811275 1.2741712 0.15477379 67
0.27572596 1.2650073 0.0098780617 88
0.28670794 1.245187 0.02847076 100
0.27286553 1.2701697 0.050027397 85
0.28157723 1.2544469 0.068003096 51
0.29246476 1.2347971 0.084161744 59
0.27786961 1.2611383 0.10914274 78
0.29593745 1.2285297 0.12102367 77
0.27475679 1.2667563 -0.0099129668 87
0.27754098 1.2617315 0.15063268 70
0.28411248 1.2536476 0.0096337283 90
0.27866331 1.2635596 0.029517479 100
0.27932489 1.2623563 0.049155839 87
0.28318518 1.2553344 0.068003096 51
0.29400751 1.2356486 0.084161744 59
0.28706622 1.2482748 0.1060898 81
0.29745939 1.2293696 0.12102367 69
0.27929568 1.2624093 -0.0098082526 99
0.2838265 1.2541678 0.1480445 79
0.28771684 1.2510614 0.0095639192 91
0.28803638 1.2504753 0.028680105 100
0.28772137 1.2510531 0.047935657 89
0.28203022 1.2614913 0.068734311 84
0.29658008 1.234805 0.083848871 59
0.29155669 1.2440186 0.10494494 82
0.29719874 1.2336704 0.12192347 76
0.28005892 1.2651069 -0.0098431576 87
0.27904484 1.2669669 0.15166797 69
0.28836212 1.2536874 0.0095988233 76
0.29343215 1.2443144 0.028261416 100
0.28363043 1.2624348 0.048981529 87
0.29121724 1.2484092 0.066784397 52
0.28778458 1.254755 0.087290429 57
0.29126188 1.2483265 0.10570818 81
0.29966488 1.232792 0.12147357 86
0.27789661 1.2730348 -0.0099827768 86
0.2770178 1.2746594 0.15373851 76
0.29108164 1.2528807 0.0095639192 91
0.28167105 1.2704314 0.049678773 86
0.2873441 1.2598512 0.068246834 68
0.28930581 1.2561926 0.10723466 81
0.28446692 1.2652171 -0.0098082526 99
0.27978221 1.273954 0.15322088 76
0.28704971 1.2643294 0.0097733475 89
0.29549581 1.2484512 0.047412723 90
0.29083443 1.2572144 0.067759357 34
0.29091951 1.2570544 0.10723466 73
0.29174525 1.2555021 -0.0095988233 90
0.28054762 1.2765529 0.15373851 76
0.29445904 1.2546766 0.0095639192 91
0.29663339 1.2505525 0.02847076 100
0.29632193 1.2511433 0.047587037 90
0.29169607 1.259917 0.068003096 51
0.29453766 1.2545274 0.10647142 81
0.28886327 1.2652899 -0.0097733475 88
0.29862386 1.2467773 0.14442103 73
0.298848 1.2502053 0.009459204 77
0.29452583 1.2584693 0.028889447 100
0.2923786 1.2625749 0.048632905 88
0.29700211 1.2537347 0.067028143 69
0.29214844 1.263015 0.14907977 78
0.29999441 1.2523097 0.02847076 100
0.2951026 1.2617469 0.048458595 88
0.28773388 1.2759626 0.15270324 68
0.29580599 1.2643958 0.0097035384 90
0.29400161 1.2679052 0.048981529 58
0.28940541 1.2768446 -0.0099478718 100
0.29471323 1.2665212 0.14959741 78
0.29761973 1.2653241 0.0097035384 100
0.29308054 1.2742329 -0.0098780617 100
0.29930404 1.2660785 0.068246834 100
0.29204825 1.2804363 -0.0099827768 100
0.29477501 1.2839222 0.050201707 28
0.29926288 1.2795651 -0.0099129668 100
