# .PCD v0.7 - Point Cloud Data file format
VERSION 0.7
FIELDS x y z intensity
SIZE 4 4 4 4
TYPE F F F F
COUNT 1 1 1 1
WIDTH 751
HEIGHT 1
VIEWPOINT 0 0 0 1 0 0 0
POINTS 751
DATA ascii
-1.0765591 0.14670464 0.05694152 26
-1.1842961 0.16559893 0.020873077 21
-1.1777725 0.16888039 0.020768363 31
-1.0367061 0.15234798 0.018290121 6
-1.0005745 0.15060823 0.017661836 6
-1.0375936 0.15988633 0.018325027 1
-0.71436965 1.159377 0.023770178 1
-0.7063477 1.1549158 0.023630558 18
-0.71496624 1.1777644 0.024049416 22
0.051857114 0.0014597178 0.015986403 62
0.053550363 0.0040720701 0.047835063 51
0.046660781 0.010977328 0.047730394 100
0.042904735 0.011078238 0.047835063 75
0.041637838 0.014332235 0.047730394 47
0.034520745 0.0094982982 0.048149079 26
0.027363718 0.0047049522 0.048567768 16
0.03262043 0.018051744 0.047835063 9
0.025447309 0.013296545 0.048253752 8
0.018234789 0.0085823536 0.048672438 8
0.0086844563 0.00064247847 0.049300469 7
-1.1933477 0.44311142 0.030960569 13
-1.1925113 0.44956049 0.030925665 12
-1.1856382 0.4564583 0.030786045 12
-1.1749077 0.46461043 0.030576617 14
-1.168082 0.4720003 0.030436996 16
-1.1651688 0.47866908 0.030367186 18
-1.1582849 0.48596981 0.030227568 13
-1.1533446 0.49289787 0.030122854 15
-1.1503046 0.49917695 0.030053044 15
-1.1433361 0.50634438 0.029913425 22
-1.1640611 0.50954849 0.030262472 24
-1.1610036 0.51612025 0.030192664 9
-1.0506334 1.1351242 0.028656852 2
-1.0233691 1.1289048 0.084574908 5
-1.027303 1.1298022 0.14154093 6
-1.0162954 1.1327598 0.028063469 8
-0.99687546 1.128262 0.083214171 15
-1.016396 1.1327831 0.14066938 19
-0.9935444 1.1334565 0.027679516 20
-0.99944013 1.1348448 0.083423518 78
-1.0189345 1.1394351 0.14101799 65
-0.98844081 1.1376435 0.027609708 37
-0.99433666 1.1390524 0.083214171 100
-1.0235143 1.1460251 0.14154093 100
-0.99297792 1.1444261 0.027714422 42
-0.97557062 1.1402019 0.08227212 100
-1.0008941 1.146347 0.13962349 82
-0.98396093 1.1476287 0.027574802 27
-0.9859708 1.1481235 0.082900152 99
-0.9938336 1.1500591 0.13910057 91
-0.97092682 1.1503377 0.027365373 26
-0.98651212 1.1542351 0.083004825 61
-0.99436313 1.1561983 0.13927488 85
-0.96384221 1.1539044 0.027260659 37
-0.97554964 1.1568735 0.082481466 38
-0.99693638 1.162297 0.13962349 71
-0.96816629 1.1612114 0.027365373 61
-0.98178917 1.1647217 0.082900152 46
-0.99155992 1.1672395 0.13927488 91
-0.97266489 1.1677599 0.027470088 61
-0.96114773 1.1647513 0.081853434 90
-0.98252338 1.1703352 0.13857763 94
-0.95959944 1.1702631 0.027260659 74
-0.96741289 1.1723347 0.08227212 96
-0.96756488 1.172375 0.13735744 99
-0.94667655 1.1721534 0.027051231 83
-0.96028382 1.1758096 0.081958108 100
-0.96622223 1.1774052 0.13735744 99
-0.94333428 1.1768496 0.027016325 92
-0.95115 1.178979 0.081539422 100
-0.9686355 1.1837428 0.13770607 99
-0.94583219 1.1828636 0.027086135 89
-0.9324581 1.1791723 0.080597371 100
-0.9749375 1.1908969 0.13840333 91
-0.94816023 1.1894215 0.027155945 93
-0.94248837 1.1878335 0.081225403 90
-0.95611697 1.1916491 0.13683452 94
-0.93899196 1.1924652 0.027016325 88
-0.93717796 1.1919506 0.081016064 80
-0.93930215 1.1925532 0.13544002 100
-0.95288306 1.2020805 0.027295563 52
-0.93953496 1.1982429 0.081225403 50
-0.94547731 1.1999513 0.13613728 100
-0.94560593 1.2056462 0.027190849 42
-0.91310269 1.1961784 0.079864666 23
-0.95544475 1.2085121 0.13718314 87
-0.93256849 1.2074685 0.026981421 64
-0.91352171 1.2018483 0.079969339 26
-0.94626111 1.2115089 0.13648589 84
-0.9272005 1.2114958 0.026911611 75
-0.91965991 1.2092421 0.080388032 28
-0.92753035 1.2115943 0.1349171 92
-0.91799456 1.2143322 0.026771991 75
-0.92194086 1.2155267 0.080597371 68
-0.92216593 1.2155948 0.13456847 100
-0.91069895 1.2176957 0.026667276 81
-0.91655761 1.2194915 0.080388032 100
-0.92441136 1.2218986 0.1349171 99
-0.90920621 1.2225372 0.026667276 89
-0.90552086 1.2213942 0.079864666 93
-0.92861372 1.2285559 0.13544002 84
-0.91143352 1.2288259 0.026737086 88
-0.90393633 1.2264721 0.079864666 74
-0.92890495 1.2343112 0.13561434 54
-0.909823 1.2339245 0.026737086 83
-0.89852709 1.2303348 0.079655327 74
-0.91588229 1.2358501 0.13456847 43
-0.90058011 1.2365682 0.026597468 83
-0.90261549 1.2372229 0.079969339 80
-0.90476376 1.2379138 0.13369691 45
-0.88753361 1.2379153 0.026388038 92
-0.90097564 1.2422906 0.079969339 100
-0.90880519 1.2448392 0.13421984 57
-0.8858915 1.2429304 0.026388038 100
-0.89173013 1.2448534 0.079550654 100
-0.91660076 1.2530448 0.13509139 78
-0.89182049 1.2504685 0.026527658 93
-0.88437933 1.2479888 0.079236634 100
-0.91112536 1.2569015 0.13474278 82
-0.89013451 1.2554984 0.026527658 100
-0.88270217 1.2529929 0.079236634 100
-0.89808887 1.2581799 0.13369691 78
-0.87724477 1.2561517 0.02631823 99
-0.88874012 1.2600672 0.079655327 100
-0.89466208 1.2620845 0.1335226 95
-0.86797661 1.2585254 0.02617861 96
-0.87757903 1.2618335 0.079131968 100
-0.88540071 1.2645283 0.13282534 100
-0.86986655 1.2652836 0.02624842 77
-0.87002248 1.2653379 0.078817949 100
-0.89289731 1.2733173 0.13369691 68
-0.87001485 1.270902 0.026283324 75
-0.85510021 1.265641 0.078085244 65
-0.89488953 1.2796764 0.13404553 38
-0.87202471 1.2771993 0.026353134 88
-0.84583682 1.2678587 0.077666558 27
-0.89497823 1.2853863 0.13421984 36
-0.85707778 1.2774115 0.0261088 96
-0.86287874 1.2795035 0.078713275 29
-0.87067944 1.2823164 0.1321281 30
-0.84787196 1.2793365 0.025969181 93
-0.8668111 1.2862372 0.079027295 78
-0.86522871 1.2856606 0.13177948 16
-0.84983844 1.2855952 0.026038991 100
-0.85000712 1.2856572 0.078189917 100
-0.87089854 1.293352 0.13247673 13
-0.84053403 1.2876875 0.025899371 100
-0.82760936 1.2828758 0.077038527 100
-0.88400048 1.3038698 0.13387123 1
-0.84620482 1.2953551 0.026038991 100
-0.82954925 1.2890881 0.077247873 46
-0.87093967 1.3046622 0.13282534 1
-0.83688599 1.2973826 0.025899371 89
-0.84079677 1.2988697 0.077980578 53
-0.83740586 1.2975802 0.12986206 7
-0.82570356 1.2986341 0.025724847 70
-0.84267098 1.3051541 0.078189917 59
-0.85787338 1.3109958 0.13195379 43
-0.82767135 1.3046402 0.025794657 74
-0.83530277 1.3076017 0.077875905 72
-0.85049945 1.3134992 0.13143086 90
-0.82952017 1.3109058 0.025864467 88
-0.8111046 1.3036851 0.076619841 60
-0.85786825 1.322021 0.13230242 97
-0.82948273 1.3164544 0.025899371 99
-0.82408839 1.3143175 0.077457212 80
-0.83370453 1.3181267 0.13021068 95
-0.82014066 1.3182945 0.025759751 100
-0.82588857 1.3205948 0.077666558 91
-0.82253391 1.3192523 0.12933913 99
-0.80719036 1.3183405 0.025550323 100
-0.82775885 1.3266506 0.077875905 95
-0.82994157 1.3275325 0.13021068 100
-0.80526811 1.3230746 0.025550323 100
-0.81101376 1.3254194 0.077038527 100
-0.83536571 1.3353572 0.13090792 100
-0.79720896 1.3197858 0.17866045 21
-0.81062657 1.3310876 0.025689943 100
-0.79789025 1.3258355 0.076410495 100
-0.82407469 1.3366332 0.13003637 100
-0.76949233 1.3141249 0.17524812 15
-0.80865973 1.3358337 0.025689943 100
-0.78856689 1.3274658 0.075991809 100
-0.81840986 1.3398943 0.12968774 100
-0.7840777 1.3255961 0.17744176 16
-0.79940206 1.3372364 0.025550323 100
-0.79407567 1.3349974 0.076410495 100
-0.79814535 1.3367081 0.12794463 100
-0.78771788 1.3323247 0.17817298 19
-0.7863695 1.3372552 0.025340894 100
-0.79577225 1.3412464 0.076619841 83
-0.80349499 1.3445246 0.12864187 100
-0.7638194 1.3276832 0.17524812 18
-0.80643708 1.3513696 0.025759751 60
-0.80478448 1.3506614 0.077247873 40
-0.80697519 1.3516003 0.12916481 45
-0.7600401 1.3314838 0.17500438 9
-0.81724614 1.3616602 0.026004085 83
-0.80458242 1.3561802 0.077352546 78
-0.82870752 1.3666201 0.13143086 37
-0.792687 1.3510325 0.17963541 12
-0.81150764 1.3648281 0.025934275 100
-0.81350929 1.3657025 0.077980578 100
-0.80835897 1.3634524 0.12968774 93
-0.78337437 1.3525369 0.17866045 22
-0.79112655 1.3615073 0.025585229 100
-0.80776674 1.3688464 0.077771232 100
-0.81174809 1.3706024 0.13021068 100
-0.79223043 1.3619941 0.18012288 33
-0.79291588 1.3673431 0.025655037 100
-0.80405384 1.3722973 0.077666558 100
-0.80621368 1.3732581 0.12986206 100
-0.76134402 1.3532996 0.17622307 26
-0.79994386 1.3761225 0.025829561 100
-0.80194312 1.3770201 0.077666558 100
-0.81864029 1.3845172 0.13125655 100
-0.755678 1.3562472 0.17573559 22
-0.79942757 1.3821275 0.025864467 100
-0.79960245 1.3822068 0.077666558 100
-0.81082731 1.3872986 0.13073361 100
-0.77691871 1.371917 0.17890419 17
-0.8027373 1.3893315 0.025969181 100
-0.80290514 1.3894083 0.077980578 100
-0.80322963 1.3895569 0.13021068 100
-0.79466361 1.3856351 0.18158533 17
-0.79512125 1.3915334 0.025864467 100
-0.80980009 1.3983159 0.078503937 100
-0.804676 1.3959482 0.1305593 100
-0.78169435 1.3853291 0.18012288 12
-0.78388184 1.3919992 0.025689943 100
-0.81302899 1.4055908 0.078817949 100
-0.80248278 1.4006732 0.1305593 100
-0.77414101 1.3874571 0.17939167 10
-0.79277927 1.4012916 0.025899371 100
-0.79837316 1.4039214 0.078085244 100
-0.81131321 1.4100051 0.13160518 100
-0.76321238 1.3873911 0.17817298 5
-0.79598755 1.4085462 0.026004085 100
-0.80337018 1.4120486 0.078503937 100
-0.80907089 1.414753 0.13160518 100
-0.76822323 1.3953745 0.17914793 3
-0.79375046 1.4132407 0.026004085 100
-0.8011207 1.4167688 0.078503937 100
-0.80321771 1.4177725 0.13125655 100
-0.79329759 1.418797 0.026038991 100
-0.80604869 1.4249556 0.078922622 100
-0.79377204 1.4190261 0.1305593 100
-0.78742939 1.42173 0.025969181 100
-0.80734509 1.4314351 0.079131968 100
-0.80582672 1.4306951 0.13195379 100
-0.79232448 1.4299235 0.0261088 100
-0.79785854 1.4326444 0.078713275 100
-0.81066424 1.4389399 0.13265105 100
-0.79012877 1.4343712 0.0261088 100
-0.79923254 1.4388845 0.078922622 100
-0.80843848 1.4434483 0.13265105 100
-0.80568653 1.4479897 0.026457848 100
-0.79510325 1.4426968 0.078817949 100
-0.80964333 1.4499685 0.13299966 100
-0.78891081 1.4457459 0.02617861 100
-0.80510992 1.4539216 0.079550654 100
-0.80180591 1.4522541 0.13247673 100
-0.79010791 1.45223 0.02624842 100
-0.80627412 1.4604599 0.07976 100
-0.79941612 1.4569687 0.13247673 100
-0.79115587 1.4589646 0.02631823 100
-0.80018121 1.463601 0.079550654 100
-0.81106704 1.4691932 0.13387123 100
-0.79584485 1.4673216 0.026457848 100
-0.79775184 1.4683099 0.079550654 100
-0.81569415 1.4776063 0.13456847 100
-0.79719275 1.4733975 0.026527658 100
-0.79555136 1.4725404 0.079550654 100
-0.80463368 1.4772825 0.13369691 100
-0.79119045 1.4762323 0.026457848 93
-0.79839259 1.4800247 0.079864666 100
-0.79863077 1.4801502 0.13334829 100
-0.7851848 1.4790339 0.026388038 39
-0.79237801 1.4828537 0.079655327 36
-0.79262429 1.4829845 0.13299966 76
0.1280002 1.2922436 0.13051336 5
0.1658251 1.2488432 0.010715778 13
0.13754639 1.2840903 0.03454173 27
0.12359029 1.3014855 0.059614528 21
0.16184399 1.2538054 0.098240845 12
0.14088297 1.2799315 0.12707879 17
0.19024843 1.2184014 0.13272113 7
0.12324831 1.3019117 0.18272625 6
0.15993789 1.2594979 0.010925206 39
0.17037061 1.2464056 0.031924933 61
0.14894649 1.2732912 0.056302611 48
0.15412664 1.2667905 0.077996381 28
0.16837466 1.2489104 0.096989371 25
0.14624667 1.2766793 0.12593393 72
0.19538069 1.2150198 0.13137141 15
0.14788911 1.2746181 0.17289113 14
0.16413042 1.25772 0.010855397 100
0.15840438 1.2649574 0.033076324 100
0.15565056 1.2684381 0.055605363 98
0.15339983 1.2712829 0.078483857 28
0.17249998 1.2471412 0.096363634 37
0.1577628 1.2657683 0.122881 100
0.17759031 1.2407074 0.13856985 44
0.15324894 1.2714736 0.1713382 43
0.16336471 1.2622091 0.010925206 100
0.17247203 1.2506149 0.032029606 100
0.15370059 1.2745121 0.056128297 100
0.16128322 1.264859 0.077265166 29
0.16928688 1.2546698 0.097615108 37
0.17041048 1.2532394 0.11944643 100
0.18284699 1.237407 0.13722014 37
0.15142179 1.2774131 0.17289113 35
0.16877446 1.2588251 0.010820492 100
0.18766287 1.2346056 0.030878214 95
0.15546408 1.2758923 0.056128297 97
0.17399999 1.2521247 0.075071514 30
0.17826986 1.2466497 0.095737889 25
0.18055105 1.2437246 0.1167751 100
0.18448079 1.2386857 0.13722014 30
0.15081933 1.281848 0.1739264 42
0.17293161 1.2569906 0.010750682 79
0.18439582 1.2421844 0.031296901 62
0.15601262 1.2788417 0.056302611 72
0.17082396 1.2597126 0.076046467 29
0.17026106 1.2604396 0.098240845 24
0.17860109 1.2496684 0.11791996 39
0.19566345 1.227632 0.13362093 23
0.14078131 1.2985132 0.17910278 33
0.17097765 1.2630601 0.010855397 65
0.16170153 1.2751271 0.033390339 28
0.16386256 1.2723159 0.055431053 49
0.18100446 1.2500165 0.074340299 46
0.19244161 1.2351382 0.092922069 53
0.1790812 1.2525184 0.11830158 13
0.19488773 1.231956 0.13452072 23
0.14969292 1.2907488 0.17599694 61
0.1702747 1.2675593 0.010925206 78
0.15619692 1.2860057 0.034018371 27
0.17407954 1.2625738 0.054210871 51
0.18268228 1.2513015 0.074340299 46
0.18448004 1.248946 0.095425025 51
0.19863385 1.2304 0.1125773 13
0.20123148 1.2269963 0.13272113 31
0.17143744 1.2660358 0.16719711 67
0.18409005 1.252943 0.010576159 40
0.16764975 1.2746418 0.033180997 28
0.17219159 1.2686472 0.054733805 50
0.17717174 1.2620742 0.075802729 100
0.18734702 1.2486444 0.095112152 51
0.20024309 1.2316236 0.1125773 13
0.20282882 1.2282109 0.13272113 39
0.17667121 1.2627348 0.16564418 68
0.18577808 1.2542174 0.010576159 40
0.17901829 1.2632042 0.032343622 30
0.17393452 1.2699629 0.054733805 50
0.19201767 1.2459221 0.073121607 78
0.19376975 1.2435929 0.093860678 52
0.20421687 1.2297039 0.11181407 14
0.21145892 1.2200758 0.13002171 32
0.17839345 1.264035 0.16564418 68
0.18029171 1.2650994 0.010785587 65
0.19269225 1.2484931 0.031296901 31
0.17091361 1.2776582 0.055431053 49
0.1877425 1.2551216 0.074340299 61
0.20133466 1.2369195 0.092296332 53
0.19995034 1.2387733 0.11372216 13
0.22002792 1.2118862 0.1273223 32
0.16856146 1.2808082 0.17082056 79
0.18312672 1.2647165 0.010750682 79
0.18714279 1.2593009 0.031924933 30
0.18328032 1.2645093 0.053862248 77
0.19290057 1.2515367 0.073609084 93
0.20759156 1.2317264 0.091044858 68
0.20033732 1.2415085 0.11410378 13
0.21685189 1.2192392 0.1291219 32
0.17486042 1.2758633 0.16875002 81
0.19434011 1.2531111 0.010471444 82
0.21135065 1.2300048 0.029936166 66
0.1873711 1.2625774 0.053513627 78
0.18987611 1.2591748 0.074584037 91
0.20920539 1.2329189 0.091044858 81
0.21013281 1.2316591 0.11143246 14
0.21842206 1.2203994 0.1291219 24
0.18120974 1.2709467 0.16667947 67
0.1959441 1.2542878 0.010471444 96
0.19519672 1.2553102 0.031506244 62
0.18547893 1.2686025 0.054036561 77
0.20321593 1.2443413 0.072146654 79
0.20258152 1.245209 0.093234941 92
0.21282429 1.2311987 0.11105084 14
0.22911838 1.2089112 0.12552269 16
0.19199413 1.2596908 0.16253836 70
0.19528764 1.2587576 0.010541254 95
0.21566275 1.2306828 0.029831495 66
0.18488109 1.2730968 0.054385185 76
0.2048738 1.2455488 0.072146654 63
0.20656294 1.2432214 0.092609204 93
0.21443623 1.2323728 0.11105084 14
0.23294163 1.2068743 0.12462288 8
0.18803218 1.268755 0.16512655 68
0.19474423 1.2632998 0.010611063 94
0.21151757 1.2400087 0.030354854 97
0.18789181 1.2728149 0.054210871 100
0.21125937 1.2403673 0.071171694 81
0.21291727 1.2380651 0.09135773 94
0.21498585 1.2351928 0.11143246 14
0.23454499 1.2080333 0.12462288 8
0.18986264 1.2700782 0.16512655 68
0.19879419 1.2612834 0.010541254 81
0.22129089 1.2298139 0.029622151 100
0.1942839 1.2675925 0.053513627 100
0.20366779 1.2544659 0.073121607 78
0.21799955 1.2344179 0.090419121 100
0.19606039 1.2651075 0.11830158 19
0.23720923 1.2075466 0.12417299 16
0.20059824 1.2587597 0.16098544 72
0.2051402 1.255983 0.010401634 97
0.21249539 1.245618 0.030564198 97
0.19602299 1.2688313 0.053513627 100
0.20765862 1.252434 0.072634131 78
0.22076586 1.233963 0.090106249 100
0.20688006 1.2535312 0.11524864 27
0.2184388 1.2372425 0.13227122 15
0.2000705 1.2631273 0.16202073 70
0.2068387 1.2571838 0.010401634 97
0.21185738 1.2500589 0.030773543 96
0.19776639 1.2700638 0.053513627 100
0.21506038 1.2455115 0.071415432 64
0.21328706 1.2480292 0.092609204 100
0.20291716 1.2627512 0.11715672 59
0.22904944 1.2256515 0.128672 32
0.20624387 1.2580283 0.15995017 72
0.20166638 1.2682118 0.010611063 94
0.22154623 1.2397783 0.03004084 99
0.2040807 1.2647588 0.05281638 100
0.22468454 1.2352896 0.069709264 99
0.21948534 1.2427258 0.09135773 94
0.20463932 1.2639598 0.11715672 99
0.2306419 1.226769 0.128672 65
0.21016344 1.2560588 0.15891489 81
0.20568779 1.266139 0.010541254 81
0.22432679 1.2392811 0.029936166 99
0.19558635 1.2806948 0.054385185 100
0.22065178 1.2445766 0.070927955 48
0.22789493 1.2341396 0.089480512 97
0.22203627 1.2425816 0.11181407 84
0.23001617 1.2310829 0.12957181 96
0.19864506 1.2762873 0.16512655 76
0.20061556 1.2772188 0.010750682 92
0.23049879 1.2338358 0.029517479 100
0.21432447 1.2573168 0.051770512 100
0.21667996 1.2538973 0.072146654 63
0.22615531 1.2401414 0.090419121 100
0.21589205 1.2550411 0.1144854 87
0.22941667 1.2354068 0.13047162 96
0.20370209 1.272738 0.16357364 77
0.22044596 1.2520231 0.010192205 85
0.23324707 1.2332995 0.029412808 67
0.21377861 1.2617751 0.052119136 100
0.21837112 1.2550578 0.072146654 63
0.23225793 1.2347462 0.089167647 100
0.22091132 1.2513424 0.11334054 96
0.22554395 1.2445664 0.13272113 94
0.22399452 1.2468327 0.15477379 83
0.2210077 1.2548251 0.01022711 70
0.23150179 1.2393603 0.029726824 67
0.21437854 1.2645943 0.052293446 80
0.22675416 1.2463568 0.070684217 81
0.23166376 1.2391217 0.089793384 100
0.22920778 1.242741 0.11105084 91
0.23048517 1.2408586 0.13137141 94
0.21698299 1.2607563 0.15891489 73
0.22046795 1.2592878 0.010296919 42
0.22756362 1.2487522 0.030250182 32
0.20942917 1.2756782 0.053339314 52
0.22841892 1.2474823 0.070684217 65
0.2310963 1.2435069 0.090419121 100
0.23195663 1.2422295 0.11066922 92
0.23757368 1.2338893 0.1291219 96
0.21222314 1.2715297 0.16202073 70
0.213112 1.2736175 0.010576159 40
0.22684827 1.253083 0.030459527 32
0.20326504 1.2883378 0.054559495 50
0.23433545 1.2418903 0.069709264 83
0.23697871 1.2379389 0.089167647 100
0.22580066 1.254649 0.11334054 96
0.24553362 1.2251501 0.12642249 99
0.21487451 1.2709827 0.16150309 70
0.2215082 1.2647946 0.010366729 41
0.21748966 1.2708476 0.031506244 31
0.22050437 1.2663065 0.052119136 54
0.22720093 1.2562199 0.071659178 80
0.24407694 1.2308002 0.087603301 99
0.23618141 1.2426928 0.1102876 85
0.2374236 1.2408217 0.13047162 96
0.22303638 1.2624927 0.15839726 73
0.22323734 1.2659382 0.010366729 27
0.2148445 1.2786763 0.031924933 30
0.22004643 1.2707812 0.052467756 53
0.23108447 1.2540283 0.071171694 97
0.24242681 1.2368138 0.08854191 84
0.23567301 1.2470641 0.11105084 91
0.24014115 1.2402828 0.13002171 96
0.22582036 1.2620178 0.15787962 81
0.22497049 1.2670758 0.010366729 27
0.19038913 1.3199619 0.03443706 27
0.23160988 1.256922 0.050898954 55
0.23277599 1.2551386 0.071171694 97
0.23865283 1.246151 0.090106249 96
0.24271235 1.2399427 0.10914274 92
0.2471171 1.2332064 0.1277722 89
0.22648257 1.2647634 0.15839726 73
0.228971 1.2649084 0.010296919 42
0.2380574 1.2509005 0.03004084 33
0.23339668 1.2580857 0.050898954 55
0.24535909 1.2396441 0.068734311 67
0.24147511 1.2456317 0.089793384 83
0.24123162 1.2460071 0.1102876 85
0.24987736 1.2326785 0.1273223 97
0.22934943 1.264325 0.15787962 73
0.23503 1.2593002 0.0101573 42
0.25271058 1.2318337 0.028784776 34
0.23510236 1.2591878 0.050898954 55
0.24592584 1.2423737 0.068978049 50
0.24741408 1.2400618 0.08854191 84
0.24608302 1.2421296 0.10914274 85
0.25360382 1.2304461 0.12642249 90
0.22375736 1.2768121 0.16150309 70
0.23458692 1.2637671 0.01022711 56
0.25539967 1.2311856 0.028680105 69
0.23252159 1.2670003 0.051596198 54
0.24330208 1.2501239 0.069953002 49
0.25543717 1.2311268 0.086664692 57
0.2445623 1.2481511 0.1102876 78
0.25626194 1.2298356 0.12597258 82
0.23696816 1.2600393 0.15580906 75
0.24273604 1.2547314 0.010017681 58
0.24738759 1.2473931 0.029622151 100
0.24065855 1.2580087 0.05055033 84
0.24497989 1.2511915 0.069953002 49
0.25493342 1.2354891 0.087290429 71
0.24202883 1.255847 0.11181407 98
0.25578222 1.2341501 0.12687239 99
0.23661205 1.2643924 0.15684435 66
0.25065216 1.2455404 0.0098082526 89
0.24569687 1.2534122 0.029936166 99
0.2368862 1.2674088 0.051421888 82
0.24543557 1.2538273 0.07019674 49
0.25008321 1.2464442 0.089167647 70
0.25819901 1.2335515 0.10647142 81
0.25724185 1.2350721 0.12687239 99
0.24022508 1.2621046 0.15580906 67
0.24701703 1.2550625 0.0099827768 87
0.24950233 1.2510836 0.029726824 100
0.23862439 1.2684988 0.051421888 82
0.25028124 1.2498367 0.069465525 49
0.25174814 1.2474881 0.089167647 70
0.25045821 1.2495533 0.10990598 92
0.25989941 1.2344384 0.12642249 90
0.23580411 1.2730138 0.15891489 65
0.24353111 1.2646692 0.0101573 85
0.25757885 1.2419949 0.029098792 100
0.23730564 1.2747177 0.051944822 81
0.25413287 1.2475569 0.068978049 50
0.2628634 1.2334651 0.086351827 58
0.2573877 1.2423034 0.10799789 72
0.26468256 1.2305288 0.12507279 100
0.24375442 1.2643087 0.15580906 67
0.24735412 1.2623289 0.010087491 71
0.26132008 1.2396097 0.028889447 100
0.2411561 1.2724115 0.051596198 82
0.24956423 1.2587335 0.070440479 49
0.26551741 1.2327818 0.086038955 72
0.2487568 1.2600471 0.11181407 84
0.26425079 1.2348422 0.12597258 90
0.24345836 1.2686663 0.15684435 66
0.24907452 1.2633823 0.010087491 86
0.2588011 1.2474351 0.029308135 100
0.24913651 1.2632806 0.05055033 84
0.25127208 1.2597792 0.070440479 49
0.26713455 1.2337719 0.086038955 58
0.2617144 1.2426586 0.10761628 72
0.26993406 1.229182 0.12417299 92
0.24922466 1.2631361 0.15477379 67
0.26529276 1.240478 0.0095988233 76
0.25426522 1.2587011 0.029936166 99
0.25086021 1.2643279 0.05055033 100
0.26120543 1.2472323 0.068490572 50
0.2626189 1.2448967 0.087916173 70
0.26031673 1.248701 0.10876112 79
0.27254754 1.2284896 0.12372308 83
0.2489475 1.2674886 0.15580906 67
0.25973153 1.2534701 0.0098431576 88
0.26214132 1.2494564 0.029308135 100
0.25258756 1.2653691 0.05055033 84
0.26696026 1.2414298 0.067515619 51
0.26834556 1.2391226 0.086664692 57
0.2559261 1.2598083 0.11105084 98
0.26913419 1.2378091 0.12597258 82
0.2506859 1.2685364 0.15580906 67
0.25835094 1.2596344 0.0099478718 73
0.26994917 1.2401627 0.028680105 100
0.24820098 1.2766746 0.051596198 100
0.26860759 1.242415 0.067515619 51
0.26796305 1.2434971 0.087290429 57
0.2656751 1.2473383 0.10799789 72
0.28074139 1.2220442 0.12147357 86
0.25937426 1.2579163 -0.0099129668 87
0.2504507 1.2728977 0.15684435 66
0.25700986 1.2658142 0.010052586 100
0.26447943 1.2531737 0.029412808 100
0.25808033 1.2640027 0.050201707 85
0.26217917 1.2570664 0.069465525 49
0.27765721 1.2308736 0.084787481 59
0.26135033 1.258469 0.1102876 85
0.27538115 1.2347252 0.12462288 92
0.25810486 1.2639612 0.15373851 76
0.26784417 1.2513078 0.0097384425 75
0.27121818 1.2455524 0.028889447 100
0.26383695 1.2581434 0.049504463 86
0.26388109 1.2580681 0.069465525 49
0.27826861 1.2335255 0.085100345 58
0.26802155 1.2510052 0.10837951 79
0.27404839 1.2407246 0.12597258 82
0.25983086 1.2649771 0.15373851 68
0.27254182 1.2471039 0.0096337283 90
0.27087173 1.2499757 0.029098792 100
0.25953299 1.2694733 0.05055033 84
0.27157417 1.2487679 0.068003096 51
0.27988827 1.2344713 0.085100345 58
0.27266321 1.2468952 0.10723466 81
0.27569321 1.2416849 0.12597258 82
0.25767574 1.2726669 0.15580906 67
0.27920511 1.2394089 0.009459204 77
0.27654096 1.244027 0.028680105 100
0.26127824 1.2704842 0.05055033 84
0.27721485 1.2428589 0.067028143 51
0.28052413 1.2371224 0.085413218 58
0.26942438 1.2563632 0.10914274 92
0.28610539 1.2274475 0.12192347 85
0.2632935 1.2669908 0.15373851 68
0.27091342 1.2577074 0.0098082526 89
0.27224541 1.2553797 0.029308135 100
0.26302701 1.2714889 0.05055033 84
0.2788671 1.2438082 0.067028143 51
0.28411856 1.2346312 0.084787481 59
0.27697438 1.2471157 0.10685304 73
0.28963956 1.2249832 0.12102367 86
0.25927311 1.278049 0.15684435 66
0.26866901 1.2656348 0.0099478718 73
0.27591324 1.2528723 0.029098792 100
0.26674631 1.2690222 0.050201707 85
0.27758291 1.2499309 0.067759357 34
0.28866741 1.2304027 0.083848871 59
0.27864149 1.2480658 0.10685304 81
0.29026735 1.227584 0.12147357 86
0.27261752 1.2586786 -0.0098082526 88
0.27439919 1.2555397 0.14959741 70
0.27914634 1.2508841 0.0096337283 90
0.28535727 1.239857 0.028261416 100
0.28111368 1.2473911 0.047935657 89
0.27625334 1.2560203 0.068490572 50
0.28728735 1.2364302 0.084787481 59
0.27637443 1.2558054 0.10837951 87
0.29178619 1.2284428 0.12147357 77
0.27129552 1.2648227 -0.0099129668 87
0.27601084 1.2564509 0.14959741 70
0.27887607 1.255318 0.0097035384 90
0.27920637 1.2547268 0.029098792 100
0.27500811 1.2622418 0.049330149 87
0.27988783 1.2535069 0.068003096 51
0.28506348 1.2442424 0.086038955 58
0.2847743 1.24476 0.10570818 73
0.28958637 1.2361463 0.12327318 76
0.27582616 1.2607775 0.15063268 70
0.2825101 1.2527633 0.0096337283 90
0.28670794 1.245187 0.02847076 100
0.26996866 1.275398 0.05055033 84
0.28350142 1.2509742 0.067515619 51
0.28863525 1.2417086 0.085413218 58
0.28548166 1.2474003 0.1060898 88
0.29782641 1.2251205 0.12012386 86
0.27379584 1.2684907 0.15270324 68
0.27552941 1.2694666 0.0099478718 73
0.28836825 1.2461032 0.02847076 100
0.2765322 1.2676418 0.049678773 86
0.28518194 1.2519014 0.067515619 51
0.29599148 1.2322309 0.083536007 75
0.2871497 1.2483207 0.1060898 81
0.2994166 1.225998 0.12012386 86
0.27456635 1.2712191 -0.0099827768 86
0.26995528 1.2796102 0.15580906 67
0.27823147 1.2686658 0.0099129668 87
0.28812024 1.2505209 0.028680105 100
0.2792244 1.2668439 0.049504463 86
0.28401589 1.2580521 0.068246834 34
0.29666123 1.2348492 0.083848871 59
0.28506297 1.2561307 0.10761628 79
0.27823147 1.2686658 -0.0099129668 87
0.27913159 1.2670143 0.15166797 69
0.283777 1.2625747 0.0097733475 89
0.29169846 1.2479181 0.02847076 100
0.28759161 1.2555166 0.048284281 88
0.27911416 1.271202 0.069953002 99
0.29236233 1.2466898 0.10532656 82
0.29889986 1.2345937 0.12192347 85
0.2856786 1.2590562 -0.0097035384 89
0.28637937 1.2577596 0.14856213 79
0.29305521 1.2494009 0.0094941091 92
0.29148126 1.2523375 0.028680105 100
0.28458199 1.26521 0.049155839 87
0.29399383 1.2476497 0.066540658 52
0.29617998 1.2435708 0.085100345 58
0.2977376 1.2406646 0.1038001 68
0.28171942 1.270551 -0.0099129668 97
0.28899619 1.2569741 0.1480445 79
0.29379171 1.2520607 0.0095290141 92
0.29316652 1.253237 0.028680105 100
0.29005247 1.2590961 0.048458595 88
0.297526 1.2450346 0.066053182 52
0.29968876 1.2409652 0.084474608 59
0.2956965 1.2484767 0.10532656 82
0.28346831 1.2714844 -0.0099129668 87
0.28072447 1.276647 0.15373851 68
0.28708509 1.2688736 0.0098431576 88
0.28061432 1.2811517 0.05055033 84
0.29733467 1.2494252 0.066540658 52
0.29736826 1.2493615 0.10532656 75
0.28708509 1.2688736 -0.0098431576 87
0.28069323 1.2810018 0.15477379 67
0.29253262 1.2626991 0.0097035384 90
0.29533222 1.2573417 0.067515619 51
0.29631528 1.2554605 0.10647142 81
0.29253262 1.2626991 -0.0097035384 89
0.29589942 1.2562563 0.14700922 81
0.29609394 1.2600437 0.0096337283 90
0.29338199 1.2652779 0.068490572 50
0.29149419 1.2689214 -0.0098082526 99
0.29315463 1.2657167 0.14959741 70
0.29781705 1.2609056 0.048284281 59
0.2886686 1.2787143 -0.0099827768 96
0.29841754 1.2597368 0.14752686 71
0.29952127 1.2618043 0.0096337283 100
0.29410687 1.2724353 0.049330149 58
0.29662162 1.2674978 0.14959741 70
0.29676029 1.2715468 0.049155839 58
0.29222643 1.2805263 -0.0099827768 100
0.29313537 1.2787261 0.15270324 76
0.29588854 1.2821286 0.07019674 99
0.29757449 1.2787309 -0.0099129668 100
0.29937962 1.2840756 -0.0099827768 100
