# .PCD v0.7 - Point Cloud Data file format
VERSION 0.7
FIELDS x y z intensity
SIZE 4 4 4 4
TYPE F F F F
COUNT 1 1 1 1
WIDTH 746
HEIGHT 1
VIEWPOINT 0 0 0 1 0 0 0
POINTS 746
DATA ascii
-1.1365141 0.15043218 0.060081679 21
-1.0884588 0.14813273 0.057569552 26
-1.176403 0.16428591 0.020733459 22
-1.1017815 0.15386494 0.058302253 29
-1.1699132 0.16733669 0.020628745 32
-1.0446734 0.15314628 0.018429741 6
-1.0243572 0.15382241 0.018080693 5
-1.0455552 0.16073954 0.018464645 1
-0.93352866 1.119661 0.025445608 1
-0.92196351 1.1136707 0.02523618 1
-0.92568928 1.1261508 0.025445608 1
-0.91436172 1.1199205 0.02523618 1
-0.89785427 1.1075714 0.024887132 1
-0.93912059 1.1667789 0.026143705 1
-0.93504208 1.1700499 0.026143705 1
-0.93095213 1.1733067 0.026143705 1
-0.87713975 1.1543334 0.02530599 1
-0.84179366 1.1158818 0.024398465 1
-0.8260988 1.1026633 0.024049416 2
-0.83417863 1.1215858 0.024398465 1
0.056453407 0.005631268 0.015881689 123
0.058138102 0.0082404613 0.047521047 60
0.053436816 0.0065271258 0.047730394 46
0.049546778 0.0066819787 0.047835063 28
0.040070772 0.0033659339 0.048253752 87
0.041977882 0.011698365 0.047835063 65
0.049132049 0.02854979 0.046893016 31
0.039935172 0.020307004 0.047521047 19
0.022362232 0.0057163835 0.048672438 8
0.023995519 0.014304996 0.048253752 8
0.021492481 0.016053498 0.048253752 8
0.0095132589 0.0049456358 0.049091127 7
-1.0163248 1.1238484 0.084156215 3
-1.0533173 1.1322054 0.14380698 4
-1.0500579 1.137638 0.028656852 6
-1.0033381 1.1269034 0.083528183 5
-1.0267358 1.1322794 0.14154093 8
-1.0195546 1.1364021 0.028133279 10
-1.0040276 1.1327775 0.083632857 37
-1.0177007 1.1359693 0.14084367 42
-0.97947782 1.132117 0.027435184 30
-0.99704975 1.1362773 0.083318844 88
-1.0146046 1.1404335 0.14066938 86
-0.98403734 1.1388562 0.027539898 38
-0.99770361 1.1421422 0.083423518 100
-1.0133018 1.1458927 0.14066938 87
-0.98073262 1.1440016 0.027504992 42
-0.97498721 1.1425979 0.08227212 100
-1.0061073 1.1502013 0.14014643 86
-0.98912221 1.1517496 0.027679516 23
-0.97949296 1.1493613 0.082586139 96
-0.99316794 1.152753 0.13910057 92
-0.96845502 1.151973 0.027330469 27
-0.98791105 1.1568673 0.083109498 39
-0.98802572 1.1568961 0.13875194 84
-0.96129972 1.1557873 0.027225753 44
-0.98268086 1.1612452 0.082900152 33
-0.99052685 1.1632481 0.13910057 84
-0.95994383 1.1610603 0.027225753 61
-0.97937232 1.1660922 0.082795486 69
-0.98528725 1.1676241 0.13875194 91
-0.96630591 1.1683612 0.027365373 67
-0.96445853 1.1678758 0.082062781 100
-0.98003596 1.1719682 0.13840333 91
-0.96104151 1.172622 0.027295563 78
-0.95920056 1.1721313 0.081853434 90
-0.96322173 1.1732028 0.13700883 100
-0.94804412 1.1747644 0.027086135 93
-0.94814712 1.1747922 0.081330076 100
-0.95603484 1.1769234 0.13648589 100
-0.94276482 1.1789343 0.027016325 89
-0.95828265 1.1831853 0.081958108 100
-0.96613473 1.1853364 0.13753176 98
-0.94518179 1.1852127 0.027086135 93
-0.94143575 1.1841724 0.081120729 96
-0.96467572 1.1906261 0.13753176 89
-0.93994671 1.1890857 0.027016325 93
-0.93428618 1.1874936 0.080806717 90
-0.95751864 1.1940283 0.13700883 99
-0.95193642 1.1981213 0.027260659 67
-0.94050282 1.1948621 0.081225403 76
-0.95602936 1.1992879 0.13700883 99
-0.96772331 1.2083553 0.027574802 46
-0.93517298 1.198954 0.081016064 36
-0.94686514 1.2023309 0.13631158 99
-0.93355721 1.2041036 0.026981421 50
-0.92791599 1.2024529 0.080702044 20
-0.94725901 1.2081128 0.13648589 84
-0.92244667 1.2064381 0.026806897 75
-0.91682285 1.2047712 0.080178685 26
-0.94572061 1.2133366 0.13648589 87
-0.92282945 1.2121502 0.026841801 74
-0.91338342 1.2093145 0.080074012 36
-0.93843919 1.2168363 0.13596296 99
-0.9231903 1.2178702 0.026876707 78
-0.91184098 1.21442 0.080074012 88
-0.92733914 1.2191316 0.13509139 100
-0.91015083 1.21948 0.026667276 85
-0.92173392 1.2230456 0.080702044 98
-0.9181456 1.221941 0.13439415 98
-0.90093642 1.2221942 0.026527658 85
-0.91442317 1.2263974 0.080388032 82
-0.92797202 1.23062 0.13544002 66
-0.91079146 1.2308661 0.026737086 85
-0.90329748 1.2285018 0.079864666 72
-0.92445499 1.2351768 0.13526571 45
-0.90536398 1.2347457 0.026667276 81
-0.89598042 1.2317493 0.079550654 80
-0.91143447 1.2366843 0.13421984 43
-0.8999272 1.2385932 0.026597468 88
-0.89816076 1.2380223 0.07976 97
-0.90790075 1.2411702 0.13404553 45
-0.88696092 1.2396712 0.026388038 99
-0.90419441 1.245304 0.080178685 100
-0.90822405 1.2466211 0.13421984 64
-0.88151556 1.2434285 0.02631823 99
-0.89683765 1.2484958 0.079864666 100
-0.90844303 1.2523339 0.13439415 82
-0.87985426 1.2484225 0.02631823 100
-0.89137048 1.2522758 0.079655327 100
-0.90486103 1.2567897 0.13421984 82
-0.87438732 1.2521285 0.02624842 96
-0.88400286 1.2553831 0.079341307 100
-0.90692741 1.2631427 0.13456847 82
-0.88404697 1.2609839 0.026457848 92
-0.87285191 1.2571511 0.078817949 100
-0.89011735 1.2630624 0.13317397 100
-0.87476593 1.2633694 0.02631823 89
-0.87680465 1.2640754 0.079131968 100
-0.88273937 1.2661304 0.13265105 93
-0.8617112 1.2643743 0.0261088 81
-0.8694163 1.2670724 0.078817949 89
-0.90168351 1.2783723 0.13456847 54
-0.86374682 1.2706339 0.02617861 79
-0.85637635 1.268024 0.078189917 51
-0.89990002 1.2834365 0.13456847 36
-0.86199075 1.2755659 0.02617861 93
-0.85274893 1.2722569 0.078085244 17
-0.89809901 1.2884945 0.13456847 38
-0.86021739 1.2804916 0.02617861 96
-0.85849923 1.2798696 0.078503937 53
-0.86817902 1.2833736 0.13195379 22
-0.85091525 1.2826622 0.026038991 99
-0.86046213 1.2861558 0.078713275 89
-0.87386256 1.2910597 0.13265105 15
-0.83786422 1.2833865 0.025829561 100
-0.86239821 1.2924619 0.078922622 100
-0.87203497 1.2960267 0.13265105 5
-0.83980983 1.2896285 0.025899371 100
-0.83998734 1.289695 0.077771232 76
-0.87205642 1.3016851 0.13282534 1
-0.84172875 1.2958905 0.025969181 100
-0.82508653 1.2896018 0.077038527 51
-0.86087292 1.3031244 0.13195379 3
-0.84175271 1.3014586 0.026004085 75
-0.84005708 1.3008112 0.077980578 53
-0.84225172 1.3016492 0.130385 15
-0.82496411 1.3005545 0.025724847 72
-0.84192234 1.3070982 0.078189917 63
-0.84224623 1.3072231 0.1305593 56
-0.82506031 1.3058372 0.025759751 78
-0.84013361 1.311711 0.078189917 68
-0.84602636 1.3140073 0.13108224 100
-0.82318157 1.3106337 0.025759751 96
-0.82336694 1.3107067 0.077352546 59
-0.84411889 1.318877 0.13108224 97
-0.82500225 1.3169019 0.025829561 100
-0.823327 1.3162355 0.077457212 85
-0.83849186 1.3222673 0.13073361 99
-0.82308477 1.3216982 0.025829561 100
-0.81955868 1.3202814 0.077352546 95
-0.83285815 1.3256251 0.130385 100
-0.81003326 1.3219757 0.025620133 100
-0.82503206 1.328063 0.077771232 95
-0.82906407 1.3296995 0.13021068 100
-0.79699653 1.3221688 0.025410704 100
-0.82122773 1.3321018 0.077666558 97
-0.82157141 1.3322427 0.12968774 100
-0.80614656 1.331457 0.025620133 100
-0.8192572 1.336885 0.077666558 100
-0.8196004 1.3370271 0.12968774 100
-0.77056545 1.3167261 0.17549185 16
-0.80417854 1.3361874 0.025620133 100
-0.78962988 1.3301046 0.076096483 100
-0.81393641 1.3402672 0.12933913 100
-0.77231187 1.3228638 0.17597933 18
-0.79850942 1.3393553 0.025550323 100
-0.79134649 1.3363311 0.076305822 100
-0.80459553 1.3419249 0.12864187 100
-0.77768904 1.3305647 0.17695428 22
-0.79651374 1.344059 0.025550323 79
-0.80222231 1.3464928 0.077038527 58
-0.80075806 1.3458686 0.12846756 93
-0.76659387 1.3313034 0.17573559 16
-0.80735904 1.3542902 0.025794657 63
-0.82405037 1.3614752 0.078399263 53
-0.81887013 1.3592454 0.130385 24
-0.8010934 1.3515933 0.18061037 5
-0.80347723 1.3582277 0.025759751 93
-0.8073234 1.3598993 0.077561885 100
-0.82228678 1.3664025 0.13090792 56
-0.78084916 1.3483934 0.17817298 15
-0.79795963 1.3608713 0.025689943 100
-0.80363423 1.3633587 0.077457212 100
-0.82040638 1.3707107 0.13090792 100
-0.78266162 1.3541656 0.17866045 38
-0.79771751 1.3663821 0.025724847 100
-0.80520767 1.3696966 0.077666558 100
-0.80736929 1.3706532 0.12986206 100
-0.79695207 1.3660434 0.18085411 42
-0.79380172 1.3702674 0.025689943 100
-0.81222409 1.3784964 0.078189917 100
-0.79798776 1.3721373 0.12916481 100
-0.79123837 1.3691223 0.18036664 36
-0.78805226 1.3733106 0.025620133 100
-0.81373316 1.3848897 0.078399263 100
-0.80314296 1.3801148 0.12986206 100
-0.75656515 1.3591135 0.17597933 20
-0.79129189 1.3806965 0.025724847 100
-0.80238169 1.3857458 0.077875905 100
-0.80815083 1.3883725 0.1305593 100
-0.76343042 1.3680111 0.17719802 16
-0.79460305 1.3878797 0.025829561 100
-0.79659456 1.3887949 0.077666558 100
-0.81322557 1.3964373 0.13125655 100
-0.76854998 1.3759077 0.17817298 12
-0.79788035 1.3950934 0.025934275 100
-0.80529767 1.3985333 0.07829459 100
-0.80018574 1.3961625 0.13021068 100
-0.76822788 1.3813417 0.17841671 10
-0.79025668 1.3972517 0.025829561 100
-0.80852228 1.4058001 0.07860861 100
-0.79438275 1.3991828 0.12986206 100
-0.7750755 1.3901467 0.17963541 5
-0.78263444 1.3993645 0.025724847 100
-0.81171256 1.4130971 0.078922622 100
-0.80298775 1.4089767 0.13090792 100
-0.77110773 1.3939207 0.17939167 3
-0.78765029 1.4074533 0.025864467 100
-0.79683846 1.411832 0.078189917 100
-0.81154066 1.4188383 0.13195379 100
-0.79442793 1.4164515 0.026038991 100
-0.79638988 1.4173949 0.07829459 100
-0.81285876 1.4253137 0.13230242 100
-0.79935974 1.4246318 0.02617861 100
-0.79771572 1.4238343 0.078503937 100
-0.80339259 1.4265884 0.13160518 100
-0.79358906 1.4273453 0.0261088 100
-0.80451041 1.4326886 0.079027295 100
-0.80478722 1.432824 0.13195379 100
-0.78769988 1.4302611 0.026038991 100
-0.80397993 1.4382967 0.079131968 100
-0.79889208 1.4357854 0.13160518 100
-0.79266399 1.4382576 0.02617861 100
-0.79818028 1.4410031 0.078922622 100
-0.81094629 1.4473569 0.13299966 100
-0.80104572 1.4483237 0.026388038 100
-0.79225999 1.4439127 0.078713275 100
-0.81569582 1.4556792 0.13369691 100
-0.79866964 1.4530357 0.026388038 100
-0.79702657 1.4522035 0.079131968 100
-0.800852 1.4541409 0.13247673 100
-0.79627723 1.4577394 0.026388038 100
-0.80530864 1.462353 0.07976 100
-0.79845566 1.4588521 0.13247673 100
-0.78663772 1.4590042 0.02624842 100
-0.80986315 1.4709762 0.080178685 100
-0.80654746 1.4692671 0.1335226 100
-0.79486984 1.4692001 0.026457848 100
-0.79677552 1.470191 0.079550654 100
-0.81824034 1.4813505 0.1349171 100
-0.79608625 1.4755127 0.026527658 99
-0.79267722 1.473726 0.07944598 100
-0.81410927 1.4849589 0.13474278 100
-0.79007941 1.4783382 0.026457848 83
-0.79021257 1.4784086 0.07944598 100
-0.80455941 1.485992 0.13404553 98
-0.79866093 1.4886061 0.13369691 31
0.12238574 1.3003268 0.13242145 5
0.16374308 1.2522999 0.010785587 26
0.15547416 1.262625 0.033076324 29
0.15145427 1.2676444 0.055779677 24
0.12275207 1.3034834 0.10825265 10
0.15237331 1.2664968 0.12364423 30
0.19916704 1.2080678 0.12957181 8
0.13820401 1.2841892 0.1765146 6
0.15431476 1.267801 0.011099731 88
0.16349626 1.2562501 0.032552965 88
0.14336294 1.2815793 0.057174169 94
0.14855784 1.2750437 0.079215072 28
0.17510584 1.2416444 0.095425025 25
0.1590822 1.2618033 0.12211776 93
0.19349948 1.2185038 0.13227122 23
0.14610177 1.2781336 0.1739264 28
0.15844586 1.2659714 0.011029921 100
0.17377394 1.2465558 0.03182026 100
0.15987644 1.2641594 0.055082429 100
0.16007522 1.2639077 0.077265166 29
0.17789596 1.2413346 0.095112152 38
0.15584916 1.2692606 0.12364423 100
0.18412104 1.2334493 0.13632034 45
0.14778903 1.2794702 0.1739264 49
0.16643301 1.2595329 0.010855397 100
0.17305949 1.2510757 0.032029606 100
0.15677494 1.2718592 0.055779677 98
0.16556108 1.2606457 0.076533951 29
0.18206266 1.2395854 0.094486415 26
0.16736856 1.2583389 0.12059128 100
0.18462023 1.2363212 0.13677025 37
0.15799946 1.2702963 0.17030293 43
0.17051467 1.2576458 0.010785587 100
0.16607058 1.2633567 0.032762308 88
0.15966493 1.2715881 0.055605363 98
0.17694336 1.2493849 0.074584037 30
0.1787692 1.2470387 0.095737889 25
0.18104732 1.2441113 0.1167751 100
0.18736541 1.2359924 0.13632034 30
0.14898267 1.2853149 0.17496167 35
0.17230454 1.2590336 0.010785587 65
0.18008965 1.2489535 0.031715591 61
0.16272384 1.2714385 0.055431053 49
0.18719661 1.2397516 0.072877869 47
0.17569032 1.2546496 0.096989371 25
0.18073761 1.2481146 0.13946965 22
0.14496988 1.294426 0.17754987 40
0.17392832 1.2602834 0.010785587 65
0.17560208 1.2581012 0.032238949 30
0.16317618 1.2743008 0.055605363 49
0.18875638 1.240952 0.072877869 63
0.18811989 1.2417818 0.094173551 52
0.18795088 1.2420021 0.11563025 13
0.20367402 1.221504 0.13137141 31
0.15846884 1.2804377 0.17237349 57
0.1781503 1.2584761 0.010715778 39
0.15077883 1.2944324 0.03454173 27
0.17709523 1.2598621 0.053862248 51
0.19048491 1.2422729 0.072877869 47
0.19583401 1.2352462 0.092609204 53
0.18492663 1.2495745 0.11715672 13
0.20533118 1.2227702 0.13137141 47
0.17555419 1.2618865 0.16564418 68
0.17736027 1.2628968 0.010785587 39
0.15252009 1.2957534 0.03454173 27
0.17271399 1.2690425 0.054733805 50
0.18606728 1.25138 0.07409656 76
0.19737875 1.236418 0.092609204 53
0.18888691 1.2476504 0.11639348 13
0.20448408 1.2270198 0.13227122 39
0.18184757 1.2569613 0.16357364 69
0.18628535 1.2545986 0.010576159 40
0.15435773 1.2971376 0.03454173 27
0.17565426 1.2687629 0.054559495 50
0.19251627 1.2462968 0.073121607 62
0.19782323 1.239226 0.092922069 53
0.19880593 1.2379167 0.11372216 13
0.20842105 1.2251059 0.13137141 31
0.18123031 1.2613337 0.16460891 69
0.18191898 1.2638185 0.010750682 79
0.1871419 1.2568115 0.03182026 30
0.18326381 1.2620144 0.053687938 52
0.19647038 1.2442963 0.072634131 78
0.19938117 1.2403913 0.092922069 53
0.20739928 1.2296342 0.11143246 14
0.21459058 1.2199862 0.12957181 32
0.18286166 1.2625539 0.16460891 69
0.18738455 1.2604046 0.010645968 80
0.20326325 1.2389301 0.030564198 64
0.17449465 1.277837 0.055256739 74
0.1959337 1.2488426 0.073121607 78
0.20588771 1.2353806 0.091670595 81
0.19866154 1.2451534 0.11486702 13
0.22443113 1.2103025 0.12642249 33
0.18245849 1.2670666 0.16564418 68
0.18546209 1.2664398 0.010750682 79
0.2012738 1.2449069 0.030878214 63
0.17971849 1.2742617 0.054733805 100
0.19517371 1.2532142 0.073609084 77
0.20860204 1.2349271 0.09135773 94
0.19675314 1.2510633 0.11601187 13
0.22127938 1.2176626 0.12822211 24
0.18753907 1.2636113 0.16409127 69
0.19897652 1.2515498 0.010401634 97
0.20411015 1.2445073 0.030773543 64
0.1920436 1.2610607 0.053165004 100
0.19452393 1.2576581 0.07409656 92
0.20789981 1.2393085 0.091983467 100
0.21115562 1.2348421 0.11181407 14
0.22169611 1.2203821 0.128672 16
0.19495416 1.2570679 0.16150309 70
0.19831499 1.2560123 0.010471444 96
0.20108518 1.252184 0.03119223 94
0.1867519 1.271992 0.054210871 100
0.20321068 1.2492467 0.072634131 78
0.2106981 1.2388995 0.091670595 100
0.22544044 1.2185262 0.10761628 14
0.23697919 1.2025802 0.12327318 8
0.19212645 1.2645646 0.16357364 69
0.20468011 1.2507405 0.010331824 98
0.20976165 1.2436662 0.030564198 64
0.19083109 1.2700205 0.053862248 100
0.20835999 1.2456175 0.071902916 48
0.21003208 1.2432897 0.092296332 100
0.21326372 1.2387908 0.11219569 14
0.23394349 1.2100012 0.12507279 8
0.19498202 1.2642418 0.163056 70
0.19475088 1.2682248 0.010680873 80
0.22765055 1.2220842 0.029098792 68
0.19489211 1.2680267 0.053513627 100
0.21117476 1.2451909 0.071659178 64
0.21168622 1.2444736 0.092296332 100
0.20464405 1.2543499 0.11563025 20
0.22869313 1.2206219 0.1277722 16
0.19446629 1.2686239 0.16409127 69
0.20342371 1.2596685 0.010471444 96
0.21999982 1.2362485 0.029936166 66
0.19893476 1.2660108 0.053165004 100
0.21168873 1.2479911 0.071902916 96
0.22589776 1.2279154 0.088854775 98
0.20406845 1.2587575 0.11639348 33
0.23139387 1.2201501 0.1273223 24
0.20290536 1.2604008 0.16098544 72
0.20973328 1.2543303 0.010331824 100
0.21818489 1.2423004 0.030250182 98
0.20181367 1.2656028 0.05299069 79
0.20765349 1.2572906 0.073121607 93
0.22522703 1.2322767 0.089480512 97
0.19787642 1.2712071 0.11906482 78
0.22400507 1.2340159 0.13092151 48
0.20461929 1.2616094 0.16098544 72
0.21362948 1.2521758 0.010262015 98
0.21975291 1.2433981 0.030250182 98
0.20231912 1.2683889 0.053165004 100
0.21608588 1.2486546 0.071659178 80
0.21772015 1.246312 0.091983467 93
0.21638945 1.2482195 0.11334054 100
0.22220069 1.2398893 0.13227122 78
0.20735672 1.2611676 0.1604678 72
0.2175914 1.250059 0.010192205 99
0.2225444 1.242906 0.030145511 65
0.19725558 1.2794276 0.054210871 100
0.22792938 1.2351291 0.069465525 49
0.22050935 1.245845 0.091670595 100
0.223649 1.2413107 0.11143246 91
0.22828043 1.234622 0.13047162 88
0.20357448 1.2703021 0.163056 70
0.20567748 1.2709924 0.010611063 94
0.21627831 1.255568 0.030878214 95
0.20354995 1.2740879 0.053513627 100
0.22055998 1.2493382 0.071415432 48
0.22664782 1.2404803 0.090419121 100
0.21862414 1.2521548 0.11372216 100
0.23321557 1.2309242 0.1291219 88
0.21188825 1.2619556 0.15995017 72
0.21193588 1.2655835 0.010471444 82
0.22810486 1.2418807 0.029936166 66
0.21204826 1.2654188 0.052467756 100
0.21887925 1.2554048 0.072146654 63
0.23385796 1.2334468 0.088854775 98
0.21699017 1.2581742 0.11486702 100
0.23153192 1.2368567 0.13047162 96
0.21796215 1.2567493 0.15787962 73
0.21703118 1.2617929 0.010366729 41
0.22079608 1.2562321 0.030773543 32
0.21266264 1.2682452 0.05264207 79
0.22391441 1.2516264 0.071415432 48
0.23326269 1.2378191 0.089480512 97
0.22750166 1.2463281 0.11181407 91
0.23097843 1.2411929 0.13137141 94
0.21749711 1.2611047 0.15891489 73
0.22098053 1.2596326 0.010296919 42
0.22026742 1.2606938 0.030982886 31
0.21551514 1.267766 0.052467756 53
0.22891912 1.2478187 0.070684217 65
0.23710111 1.2356427 0.088854775 98
0.23245132 1.2425623 0.11066922 92
0.23153824 1.243921 0.13182132 94
0.22136837 1.2590555 0.15787962 73
0.21381551 1.2740874 0.010576159 40
0.22419861 1.2585186 0.030773543 32
0.2205711 1.2639577 0.051944822 54
0.23169038 1.2472851 0.070440479 49
0.23215225 1.2465925 0.090731993 100
0.23628139 1.2404013 0.10990598 85
0.23968196 1.2353023 0.1291219 96
0.21878999 1.2666285 0.15995017 72
0.21999195 1.2685878 0.010436539 27
0.2016539 1.2962935 0.033076324 29
0.21899831 1.2700889 0.052467756 53
0.22788012 1.25667 0.071659178 96
0.24035951 1.2378157 0.088854775 98
0.23142377 1.2513162 0.11219569 91
0.24453479 1.2315075 0.1277722 100
0.22052556 1.2677816 0.15995017 72
0.21734285 1.276422 0.010576159 40
0.21445853 1.2808131 0.032029606 30
0.22512144 1.2645804 0.051770512 54
0.2404795 1.2412 0.069221787 33
0.24416342 1.2355917 0.088229038 98
0.23418367 1.2507844 0.11181407 98
0.24293792 1.2374574 0.1291219 96
0.22862893 1.2592406 0.15684435 74
0.23440117 1.2541276 0.010087491 28
0.2118808 1.2886738 0.032448292 29
0.22793788 1.2640423 0.051596198 54
0.2323696 1.257244 0.071415432 96
0.24579051 1.2366564 0.088229038 98
0.24122453 1.2436606 0.10990598 92
0.24776414 1.2336289 0.1277722 97
0.23244864 1.2571228 0.15580906 75
0.23826537 1.2518684 0.010017681 43
0.23973003 1.2496043 0.029936166 33
0.2307466 1.2634907 0.051421888 55
0.2394636 1.2500162 0.07019674 99
0.24742129 1.2377155 0.088229038 98
0.25034454 1.2331969 0.10723466 88
0.24091631 1.2477707 0.13137141 94
0.23415095 1.2582283 0.15580906 83
0.24210992 1.249588 0.0099478718 73
0.24788004 1.2406002 0.029308135 68
0.23247114 1.2646021 0.051421888 55
0.24864805 1.239404 0.068490572 67
0.24585426 1.2437557 0.089167647 84
0.24666008 1.2425005 0.10914274 85
0.24784985 1.2406472 0.1291219 88
0.23063877 1.2674563 0.15839726 73
0.24146807 1.2539253 0.010017681 58
0.2515074 1.2381788 0.029098792 68
0.23509762 1.2639172 0.051247578 82
0.23198226 1.2688036 0.072634131 78
0.24734408 1.2447089 0.089167647 70
0.24709055 1.2451066 0.10952436 71
0.26085386 1.2235191 0.12417299 83
0.2249333 1.2798597 0.16202073 63
0.23888263 1.2617588 0.0101573 57
0.24887216 1.2459693 0.029517479 100
0.23575842 1.266697 0.051421888 82
0.24539992 1.2514575 0.069953002 49
0.2532275 1.2390851 0.087916173 84
0.24035361 1.2594337 0.1125773 89
0.26035494 1.2278193 0.12507279 92
0.22981361 1.2760936 0.1604678 72
0.24281296 1.2595083 0.010087491 71
0.24743378 1.2521449 0.029831495 99
0.24393529 1.2577198 0.05037602 84
0.24294591 1.2592964 0.070927955 48
0.25914878 1.2334769 0.086664692 57
0.25362873 1.2422731 0.10837951 72
0.2558198 1.2387817 0.1277722 97
0.23885876 1.2658094 0.15684435 66
0.25192264 1.2486951 0.0098431576 88
0.24911863 1.2531981 0.029831495 99
0.24985221 1.25202 0.049678773 86
0.24885291 1.2536249 0.069953002 49
0.25450346 1.2445505 0.08854191 70
0.25009033 1.2516377 0.1102876 85
0.25848803 1.2381514 0.1273223 89
0.24059135 1.2668924 0.15684435 66
0.25456306 1.2479799 0.0098082526 89
0.2517727 1.2524943 0.029726824 100
0.23992941 1.2716553 0.051596198 82
0.25880793 1.2411122 0.068003096 51
0.25607875 1.2455277 0.08854191 56
0.25065693 1.2542995 0.11066922 85
0.265165 1.2308273 0.12507279 83
0.24122509 1.269559 0.15736198 74
0.25414246 1.2524176 0.0098780617 73
0.25763538 1.2467221 0.029308135 100
0.24272403 1.2710361 0.051421888 82
0.25630301 1.2488947 0.068978049 50
0.26290405 1.2381312 0.086977564 57
0.25234929 1.2553415 0.11066922 99
0.26677531 1.2318187 0.12507279 83
0.24196079 1.2722807 0.15787962 65
0.24647292 1.268822 0.010192205 85
0.25411019 1.2562708 0.029831495 99
0.24758187 1.2669995 0.050898954 83
0.25797644 1.2499169 0.068978049 50
0.26351303 1.240818 0.087290429 85
0.25812739 1.2496688 0.10914274 78
0.2673761 1.2344693 0.12552269 99
0.25270978 1.2585722 -0.0099827768 86
0.25275385 1.2584999 0.15322088 76
0.25648403 1.2561831 0.0099129668 100
0.25890613 1.2521712 0.029517479 100
0.25652668 1.2561126 0.049678773 100
0.25760153 1.2543322 0.069465525 49
0.26720011 1.2384329 0.086664692 57
0.26081818 1.249004 0.10876112 79
0.26698479 1.2387896 0.12642249 82
0.2534624 1.2611883 0.15373851 68
0.2685402 1.2400988 0.0095639192 91
0.25862339 1.2566621 0.029726824 100
0.24705216 1.2759886 0.051596198 82
0.25937864 1.2554007 0.069465525 49
0.27094838 1.2360767 0.086038955 58
0.26660979 1.2433231 0.10723466 81
0.26970592 1.2381518 0.12597258 90
0.24831808 1.2738742 0.15736198 74
0.26405549 1.251394 0.0097733475 89
0.27256376 1.2370701 0.02847076 100
0.24983773 1.2753299 0.051421888 82
0.26208857 1.2547054 0.069221787 83
0.26854175 1.2438413 0.087290429 57
0.26425326 1.2510611 0.10876112 79
0.27631783 1.2307501 0.12372308 75
0.2530385 1.2699413 0.15580906 67
0.25863105 1.2644489 0.010017681 87
0.27419585 1.2380357 0.02847076 100
0.25059196 1.2780912 0.051596198 82
0.26680568 1.2505767 0.068490572 50
0.27922335 1.2295041 0.084474608 59
0.26493749 1.253747 0.10914274 78
0.27990654 1.2283448 0.12282328 85
0.25674701 1.2676462 0.15477379 67
0.2694416 1.2499259 0.0097035384 90
0.27381533 1.2424442 0.028680105 100
0.26644459 1.2550526 0.049155839 87
0.27249226 1.2447073 0.067515619 51
0.27983204 1.2321519 0.084787481 59
0.25969213 1.2666034 0.11181407 77
0.27855763 1.2343318 0.12417299 83
0.26742321 1.2533785 -0.0097733475 88
0.26043582 1.2653313 0.15373851 68
0.2630932 1.2647412 0.0099827768 87
0.26945445 1.2537718 0.029308135 100
0.26514095 1.2612101 0.049678773 100
0.274151 1.2456732 0.067515619 51
0.278474 1.2382185 0.08572609 58
0.27324605 1.2472336 0.10723466 81
0.28409055 1.2285334 0.12237337 85
0.26798144 1.2563119 0.15063268 70
0.27778456 1.243206 0.0095290141 76
0.27313668 1.2512857 0.029098792 100
0.26884428 1.2587473 0.049330149 100
0.26690447 1.2621194 0.069709264 83
0.27912503 1.2408758 0.086038955 72
0.2768715 1.2447933 0.10647142 88
0.27694729 1.2446616 0.12642249 74
0.26775411 1.2606425 0.15166797 69
0.27448267 1.2528374 0.0097035384 90
0.28075752 1.241841 0.02847076 100
0.2636399 1.2718391 0.05055033 84
0.27944618 1.2441391 0.067028143 51
0.28174937 1.2401028 0.08572609 58
0.27269244 1.2559748 0.10876112 79
0.28536654 1.2337637 0.12327318 85
0.26563871 1.2683363 0.15373851 76
0.27616978 1.2537962 0.0097035384 90
0.28240618 1.2427779 0.02847076 100
0.26539341 1.2728357 0.05055033 100
0.28305849 1.2416254 0.066540658 52
0.28728405 1.2341598 0.084474608 59
0.2705223 1.263774 0.1102876 92
0.29178649 1.226205 0.12102367 86
0.27222976 1.2607573 -0.0098431576 87
0.25786412 1.2861383 0.15891489 65
0.27769101 1.2546542 0.0097035384 90
0.28584945 1.2401338 0.028261416 100
0.27478209 1.2598314 0.049155839 87
0.27676246 1.2563068 0.068490572 50
0.29067877 1.2315385 0.083848871 59
0.277845 1.2543801 0.10799789 72
0.29035726 1.2321107 0.12237337 85
0.27181384 1.2651143 -0.0099129668 87
0.27084261 1.2668428 0.15270324 68
0.27743754 1.2590952 0.0097733475 89
0.28165862 1.2515209 0.028889447 100
0.27940324 1.2555679 0.048632905 88
0.27556267 1.2624596 0.069221787 50
0.28652182 1.242794 0.08572609 58
0.28144884 1.2518973 0.10723466 81
0.29292056 1.231312 0.12192347 76
0.27257037 1.2678291 -0.0099478718 96
0.27728066 1.2593768 0.15011504 78
0.29268914 1.2355416 0.0092846798 94
0.27947646 1.2594466 0.029308135 100
0.27531704 1.2669721 0.049678773 86
0.28592578 1.2477782 0.067028143 51
0.28721824 1.2454398 0.086038955 58
0.28788114 1.2442404 0.10532656 82
0.29076165 1.2390288 0.12372308 75
0.27430981 1.2687945 -0.0099478718 96
0.27712154 1.2637073 0.15115032 77
0.28758723 1.2487115 0.0095290141 92
0.29078707 1.2428741 0.028261416 100
0.2808843 1.2609395 0.048981529 87
0.28950354 1.2452157 0.066540658 52
0.28887942 1.2463542 0.086038955 58
0.28481963 1.2537603 0.10723466 88
0.29708409 1.2313867 0.12147357 86
0.27606076 1.2697389 0.15270324 68
0.28370041 1.2602588 0.0097384425 75
0.29260468 1.243866 0.028261416 100
0.27896738 1.2689723 0.049678773 86
0.28185508 1.263656 0.068978049 50
0.29825339 1.2334666 0.083536007 60
0.28574201 1.2565002 0.10761628 79
0.28370041 1.2602588 -0.0097384425 77
0.27244905 1.2809726 0.15580906 67
0.28256834 1.2664669 0.0098431576 88
0.292366 1.2482783 0.02847076 100
0.28260052 1.2664071 0.049330149 87
0.28357989 1.2645891 0.068978049 50
0.2790623 1.2729757 0.11105084 77
0.28067166 1.2699879 -0.0099129668 87
0.28797683 1.2564265 0.1480445 79
0.28807172 1.2603421 0.0097035384 90
0.28839082 1.2597446 0.029098792 100
0.29090616 1.2550359 0.048109971 59
0.28530794 1.265516 0.068978049 50
0.29963365 1.2386976 0.084161744 59
0.29654497 1.2444798 0.10456333 75
0.28241858 1.270925 -0.0099129668 87
0.28330481 1.2692659 0.15166797 77
0.29540107 1.2506509 0.0094941091 92
0.29384148 1.2535951 0.028680105 100
0.29447275 1.2524034 0.067028143 51
0.29544586 1.2505662 0.10570818 73
0.28229672 1.2753901 -0.0099827768 86
0.2850492 1.2701938 0.15166797 77
0.29598185 1.2532183 0.0095290141 76
0.29350334 1.2579333 0.028889447 100
0.2913475 1.2620343 0.048632905 88
0.29695687 1.2513636 0.10570818 73
0.28760764 1.2691486 -0.0098431576 87
0.28302631 1.2778637 0.15373851 68
0.29767016 1.2541021 0.0095290141 92
0.28662026 1.2753017 0.049853086 57
0.29767776 1.2540874 0.067028143 51
0.29863867 1.252244 0.10570818 66
0.28935158 1.2700615 -0.0098431576 87
0.28658658 1.2753663 0.15270324 68
0.29127359 1.2710586 0.0098431576 88
0.29587534 1.2621467 0.048458595 59
0.293163 1.2673995 0.068734311 50
0.2885212 1.276389 -0.0099478718 100
0.29827875 1.2574922 0.14700922 81
0.29942384 1.2594581 0.067515619 68
0.29029042 1.2772987 -0.0099478718 100
0.296525 1.2691946 0.048981529 58
0.29106876 1.2799401 -0.0099827768 100
0.29810426 1.2660844 0.14907977 78
0.29983744 1.2669606 0.14907977 78
0.29999238 1.2709997 0.0097733475 100
0.28934073 1.2923449 0.051073264 55
0.29642087 1.2781568 -0.0099129668 100
