# .PCD v0.7 - Point Cloud Data file format
VERSION 0.7
FIELDS x y z intensity
SIZE 4 4 4 4
TYPE F F F F
COUNT 1 1 1 1
WIDTH 743
HEIGHT 1
VIEWPOINT 0 0 0 1 0 0 0
POINTS 743
DATA ascii
-1.1801327 0.16648701 0.020803269 24
-1.1648512 0.16433117 0.061651755 31
-1.1023594 0.15944165 0.019441981 5
-1.0246507 0.1518555 0.018080693 6
-1.0043437 0.15243067 0.017731644 4
-1.053234 0.16342571 0.018604266 1
-0.96122116 1.0853173 0.02530599 1
-0.96779943 1.1008477 0.025585229 1
-0.96395081 1.1042193 0.025585229 1
-0.9469924 1.0924672 0.02523618 1
-0.93795514 1.0897038 0.02509656 1
-0.97312248 1.1385751 0.026143705 1
-0.9691422 1.1419649 0.026143705 1
-0.96534997 1.1451725 0.026143705 1
-0.88605881 1.0965374 0.024607893 1
-0.87471747 1.0902652 0.024398465 2
-0.87589014 1.0995682 0.024538083 2
-0.92910796 1.1747676 0.026143705 1
0.0564996 0.010366321 0.015811881 100
0.049119473 0.0045742989 0.047939736 33
0.046450675 0.0063273907 0.047939736 100
0.040472269 0.0030990243 0.048253752 100
0.037798345 0.0048823357 0.048253752 70
0.035130739 0.0066748857 0.048253752 35
0.044818282 0.026647627 0.047102362 20
0.025568306 0.0035129786 0.048672438 16
0.033097982 0.02014792 0.047730394 9
0.039597988 0.035080373 0.046893016 10
0.025585651 0.020501912 0.047939736 9
-1.0464795 1.1353493 0.028587041 5
-1.0172775 1.1286665 0.084260888 5
-1.0289936 1.1313478 0.14171524 6
-1.0276649 1.1368438 0.028272899 8
-0.9887808 1.1278024 0.082795486 16
-1.0374258 1.1391134 0.1425868 34
-1.0049672 1.1372921 0.027888946 27
-0.99140996 1.1340898 0.083004825 88
-1.0167372 1.1400722 0.14084367 81
-0.98034126 1.1371199 0.027470088 37
-1.0076091 1.1436613 0.083946876 100
-1.0096235 1.1441445 0.14032075 95
-0.97322172 1.1410398 0.027365373 48
-0.98883063 1.1448419 0.083004825 100
-1.0025008 1.1481718 0.13979781 86
-0.98162347 1.1487548 0.027539898 25
-0.97587961 1.1473343 0.082376793 100
-0.9953689 1.1521538 0.13927488 94
-0.97835249 1.153612 0.027504992 23
-0.97649044 1.1531446 0.082481466 56
-0.99789041 1.1585159 0.13962349 78
-0.97700411 1.1589446 0.027504992 36
-0.97901458 1.1594567 0.082690813 35
-0.99652475 1.1639168 0.13962349 73
-0.96014839 1.1602697 0.027225753 61
-0.99118191 1.1682898 0.083423518 58
-0.97585016 1.1643276 0.13788038 91
-0.95490831 1.1645246 0.027155945 67
-0.98978227 1.1736671 0.083423518 100
-0.97639161 1.1701566 0.1380547 92
-0.95172864 1.1687372 0.027121039 75
-0.96341163 1.1718392 0.082062781 88
-0.97320133 1.1744386 0.13788038 98
-0.95225865 1.1744968 0.027155945 81
-0.94657117 1.1729653 0.081225403 98
-0.97370416 1.1802711 0.1380547 100
-0.96241206 1.182898 0.027365373 93
-0.949009 1.1792389 0.081434749 100
-0.96073049 1.182439 0.13700883 100
-0.95325261 1.1860414 0.027225753 92
-0.94372147 1.1834035 0.081225403 100
-0.95928162 1.1877099 0.13700883 91
-0.92861432 1.1850629 0.026806897 93
-0.94796509 1.1904948 0.081539422 86
-0.95198578 1.1916234 0.13648589 98
-0.94446689 1.1951461 0.027121039 71
-0.93304092 1.1918957 0.080806717 76
-0.95625395 1.1984993 0.13700883 100
-0.96026689 1.205345 0.027435184 51
-0.92388266 1.1948571 0.080388032 44
-0.95092016 1.2026508 0.1366602 100
-0.95106 1.2083719 0.027295563 45
-0.93389374 1.2033587 0.081016064 22
-0.94748825 1.2073288 0.13648589 85
-0.92666239 1.2062862 0.026876707 68
-0.92869419 1.2068865 0.080806717 26
-0.93273181 1.2080795 0.13526571 84
-0.91555172 1.2085716 0.026702182 75
-0.9348138 1.2143358 0.081225403 30
-0.93310231 1.2138237 0.13544002 94
-0.91592568 1.2142646 0.026737086 78
-0.91987389 1.2154611 0.080492698 78
-0.93345076 1.2195758 0.13561434 99
-0.92201275 1.2217256 0.026876707 81
-0.90112561 1.2153158 0.079550654 100
-0.92806298 1.2235823 0.13526571 99
-0.92042702 1.2268611 0.026876707 88
-0.91100627 1.2239341 0.080178685 86
-0.92076272 1.2269654 0.13474278 78
-0.89974767 1.2259912 0.026527658 83
-0.91322333 1.2302296 0.080388032 72
-0.90585452 1.2279119 0.1335226 58
-0.89425594 1.2300878 0.026457848 81
-0.90962356 1.2349833 0.080283359 70
-0.9041664 1.2332449 0.1335226 45
-0.89264113 1.2351264 0.026457848 81
-0.89848715 1.2370112 0.07976 91
-0.91012555 1.2407635 0.13421984 43
-0.89100879 1.2401593 0.026457848 93
-0.88735431 1.2389669 0.079236634 100
-0.9160499 1.2483294 0.1349171 59
-0.89695436 1.247694 0.026597468 100
-0.88950175 1.2452337 0.07944598 100
-0.90301961 1.2496964 0.13387123 80
-0.88018793 1.2474241 0.02631823 100
-0.89170688 1.2512695 0.079655327 100
-0.89575118 1.2526195 0.13334829 90
-0.87093431 1.2498543 0.02617861 93
-0.89758724 1.2588551 0.080074012 98
-0.89783305 1.2589381 0.13369691 75
-0.87312013 1.2558558 0.02624842 93
-0.88272721 1.2591357 0.079341307 100
-0.90374583 1.2663115 0.13439415 91
-0.87897629 1.2634313 0.026388038 89
-0.87912315 1.263482 0.079236634 100
-0.89635473 1.2694321 0.13387123 92
-0.87346941 1.2670977 0.02631823 79
-0.87173516 1.2664921 0.078922622 97
-0.8946026 1.2744777 0.13387123 57
-0.86418325 1.2694001 0.02617861 79
-0.86434358 1.2694567 0.07860861 59
-0.89283282 1.2795173 0.13387123 38
-0.85669392 1.2725617 0.026073895 83
-0.86626512 1.2759811 0.078817949 23
-0.88720316 1.2834616 0.1335226 39
-0.85681182 1.2781482 0.0261088 96
-0.85509795 1.2775291 0.07829459 40
-0.87603265 1.2850909 0.13265105 26
-0.85511905 1.2828106 0.0261088 93
-0.84965473 1.2808163 0.078085244 82
-0.87805992 1.291183 0.13299966 15
-0.85332042 1.2877122 0.0261088 99
-0.8553583 1.2884641 0.078503937 100
-0.87062424 1.294096 0.13247673 11
-0.83276802 1.2856209 0.025759751 100
-0.83856887 1.2877839 0.077666558 87
-0.87251979 1.3004439 0.13282534 1
-0.8272174 1.2890341 0.025689943 100
-0.83862203 1.2933321 0.077771232 48
-0.85947329 1.3011904 0.13177948 1
-0.83660966 1.2981087 0.025899371 88
-0.83305389 1.2967544 0.077561885 51
-0.84271508 1.3004341 0.130385 11
-0.83662409 1.303664 0.025934275 72
-0.82934266 1.3008616 0.077457212 63
-0.8631683 1.3138798 0.13247673 48
-0.83848017 1.3099504 0.026004085 72
-0.8237583 1.3042254 0.077247873 68
-0.8538335 1.3159209 0.13177948 100
-0.82728106 1.3111374 0.025829561 96
-0.82188517 1.3090174 0.077247873 59
-0.82966655 1.3120748 0.12968774 99
-0.81432647 1.3112772 0.025620133 99
-0.82937258 1.3172464 0.077771232 82
-0.83341736 1.3188512 0.13021068 100
-0.81614107 1.3175241 0.025689943 100
-0.81818444 1.3183429 0.077247873 91
-0.83889061 1.3266417 0.13090792 100
-0.81422156 1.3222895 0.025689943 100
-0.81441075 1.322366 0.0771432 97
-0.83509237 1.3307388 0.13073361 100
-0.81598717 1.3285618 0.025759751 100
-0.80692822 1.3248575 0.07682918 100
-0.82206148 1.3310456 0.12968774 100
-0.80784935 1.3252342 0.18012288 21
-0.80293947 1.3287468 0.025550323 100
-0.80129117 1.328066 0.076619841 100
-0.80536252 1.3297474 0.12829325 100
-0.76737255 1.3140581 0.17500438 16
-0.78990728 1.3288474 0.025340894 100
-0.80670828 1.3358548 0.077038527 100
-0.81075579 1.3375429 0.1289905 100
-0.7709617 1.3209456 0.17573559 18
-0.79531997 1.3366259 0.025480513 100
-0.78999954 1.334385 0.076201156 100
-0.81243879 1.3438361 0.12933913 100
-0.77634829 1.3286355 0.17671055 26
-0.80069464 1.344449 0.025620133 93
-0.78618342 1.3382773 0.076096483 78
-0.81226093 1.3493681 0.12951343 100
-0.76160306 1.3278234 0.17500438 16
-0.81705552 1.3570508 0.025969181 60
-0.8117196 1.3547595 0.077666558 40
-0.81206101 1.354906 0.12968774 37
-0.78153616 1.3417978 0.17792924 7
-0.80765933 1.3586373 0.025829561 86
-0.81150252 1.3603036 0.077771232 89
-0.81915087 1.3636196 0.1305593 48
-0.78681713 1.3496008 0.17890419 7
-0.7909413 1.3569579 0.025550323 100
-0.81675237 1.3682561 0.078189917 100
-0.82072073 1.3699931 0.13090792 100
-0.77569324 1.3502836 0.1776855 30
-0.79437143 1.3640599 0.025655037 100
-0.80186778 1.3673725 0.077457212 100
-0.81497318 1.3731636 0.1305593 100
-0.78636974 1.3605241 0.17939167 31
-0.79594213 1.3703783 0.025724847 100
-0.81071848 1.3769696 0.078085244 100
-0.81285948 1.3779246 0.1305593 100
-0.75891954 1.3538637 0.17597933 28
-0.80477852 1.3799988 0.025934275 100
-0.80312794 1.3792555 0.077771232 100
-0.80346221 1.3794061 0.12986206 100
-0.77497417 1.3665792 0.17841671 22
-0.7900036 1.3786988 0.025689943 100
-0.80473703 1.3853915 0.077980578 100
-0.80868989 1.387187 0.1305593 100
-0.77118129 1.3701487 0.17817298 15
-0.78787071 1.3833725 0.025689943 100
-0.81528944 1.3959432 0.078713275 100
-0.80652732 1.3919261 0.1305593 100
-0.77268726 1.3764114 0.17866045 14
-0.79650182 1.3933122 0.025899371 100
-0.80754858 1.3984261 0.078399263 100
-0.81327897 1.4010787 0.13143086 100
-0.75604421 1.374584 0.17671055 11
-0.80156475 1.4013941 0.026038991 100
-0.80172771 1.4014702 0.078189917 100
-0.81828839 1.4092066 0.1321281 100
-0.75032884 1.3774588 0.17622307 7
-0.80127257 1.4067249 0.026073895 100
-0.80323964 1.4076519 0.078399263 100
-0.80354482 1.4077957 0.13090792 100
-0.7662645 1.390229 0.17866045 5
-0.79181796 1.4080031 0.025934275 100
-0.81363183 1.4183753 0.079131968 100
-0.79771155 1.4108055 0.1305593 100
-0.77664083 1.4007869 0.18036664 3
-0.78958267 1.4126831 0.025934275 100
-0.80955952 1.4222672 0.079027295 100
-0.79905921 1.4172297 0.13090792 100
-0.79093093 1.4190977 0.026004085 100
-0.80367893 1.4252687 0.078817949 100
-0.81113845 1.4288795 0.13230242 100
-0.79764134 1.4281623 0.02617861 100
-0.79958874 1.4291134 0.078713275 100
-0.81599134 1.437124 0.13299966 100
-0.79892319 1.43463 0.02624842 100
-0.80265456 1.4364685 0.079027295 100
-0.81007987 1.4401271 0.13265105 100
-0.78954846 1.4355406 0.0261088 100
-0.80759162 1.4445051 0.07944598 100
-0.80785018 1.4446335 0.13265105 100
-0.78721708 1.4402124 0.0261088 100
-0.80880004 1.4510298 0.079655327 100
-0.79658109 1.4449055 0.13177948 100
-0.78843862 1.4466805 0.02617861 100
-0.79928488 1.4521642 0.079236634 100
-0.81021959 1.4576924 0.13334829 100
-0.79675704 1.4567993 0.026388038 100
-0.79689544 1.4568698 0.079236634 100
-0.81313556 1.4651518 0.13387123 100
-0.80146438 1.4651549 0.026527658 100
-0.79804176 1.4633943 0.07944598 100
-0.81070071 1.4699056 0.13387123 100
-0.79192942 1.4661846 0.026388038 100
-0.79915887 1.4699352 0.079655327 100
-0.79410082 1.467311 0.13247673 100
-0.78961343 1.4706306 0.026388038 100
-0.81275874 1.4827359 0.080597371 100
-0.80590516 1.4791515 0.13387123 100
-0.78008467 1.4715707 0.02624842 89
-0.79259676 1.4781704 0.079550654 100
-0.80870825 1.4866687 0.13439415 98
-0.80057865 1.4884179 0.026702182 23
-0.7936433 1.4847286 0.07976 21
-0.81499344 1.4960854 0.13526571 50
0.12571576 1.2954458 0.13127659 5
0.16349059 1.2520976 0.010785587 13
0.13897517 1.282676 0.03443706 27
0.15119377 1.2674356 0.055779677 24
0.1274153 1.2970948 0.10700117 10
0.14228904 1.2785425 0.12669717 23
0.19649979 1.2109249 0.13047162 8
0.13310122 1.2900026 0.17858514 6
0.1651758 1.2534438 0.010785587 65
0.16440076 1.2544175 0.032448292 59
0.15665507 1.2641482 0.055256739 49
0.16798604 1.2499135 0.075315252 30
0.15263236 1.2692019 0.10105667 23
0.15751624 1.2630663 0.12249938 81
0.17740899 1.2380756 0.13811995 22
0.15176278 1.2702942 0.1713382 21
0.161906 1.2610598 0.010925206 100
0.16733244 1.2541935 0.032343622 100
0.15220544 1.273334 0.056128297 100
0.15612409 1.2683756 0.077996381 14
0.17764923 1.2411397 0.095112152 25
0.1604571 1.2628931 0.12211776 100
0.18508676 1.2317288 0.13587044 45
0.15231371 1.2731969 0.17185585 36
0.15859771 1.268636 0.011064826 100
0.17633942 1.2460334 0.031715591 100
0.14895594 1.2809193 0.056825545 100
0.16145599 1.2649946 0.077265166 29
0.1840924 1.2361563 0.093860678 39
0.16694257 1.2580048 0.12059128 100
0.19143289 1.2268047 0.13407083 38
0.15398458 1.274513 0.17185585 36
0.16156986 1.2684219 0.011029921 100
0.18414193 1.2394581 0.03119223 94
0.15809014 1.272887 0.055779677 98
0.1668469 1.2616506 0.076533951 29
0.18815035 1.2343146 0.093234941 26
0.17830282 1.2469506 0.11753834 100
0.19302961 1.2280536 0.13407083 31
0.15099803 1.2819873 0.1739264 42
0.17065424 1.2602853 0.010820492 78
0.18089405 1.2470509 0.031610917 61
0.17325941 1.2569182 0.053862248 77
0.17099494 1.259845 0.076046467 29
0.17043227 1.2605722 0.098240845 24
0.19078252 1.2342706 0.11410378 27
0.17435795 1.2554984 0.14171916 29
0.15278763 1.2833769 0.1739264 28
0.17854321 1.2537422 0.010645968 66
0.1668317 1.2689939 0.032971654 29
0.16291216 1.2740982 0.055605363 49
0.18367383 1.2470607 0.073852822 46
0.18426365 1.2462926 0.095112152 51
0.18650809 1.2433697 0.11601187 13
0.19156906 1.2367789 0.13587044 22
0.14996564 1.2909583 0.17599694 61
0.17547044 1.2614623 0.010785587 52
0.17108437 1.2672179 0.032762308 29
0.16717768 1.2723442 0.055256739 49
0.19023767 1.2420846 0.072877869 47
0.18481448 1.2492009 0.095425025 51
0.18586555 1.2478218 0.1167751 19
0.20036942 1.2287896 0.13317102 46
0.17178383 1.2663 0.16719711 60
0.17727426 1.2628318 0.010785587 39
0.17772835 1.2622313 0.032343622 30
0.17382872 1.2673876 0.054559495 50
0.19316781 1.2418168 0.072634131 63
0.20325518 1.2284788 0.091044858 54
0.1947248 1.239758 0.1144854 13
0.2091063 1.2207422 0.13047162 40
0.17244011 1.2692237 0.16771474 67
0.17393216 1.2703295 0.010925206 39
0.1839906 1.2569475 0.031924933 30
0.18129167 1.2605382 0.053687938 52
0.18979838 1.2492207 0.073609084 77
0.20461705 1.2295057 0.091044858 54
0.18786296 1.2517956 0.11715672 13
0.20810342 1.2248673 0.13137141 31
0.17856592 1.2641647 0.16564418 68
0.18772477 1.2556756 0.010576159 54
0.1905545 1.251882 0.031506244 31
0.1854746 1.2586923 0.053339314 52
0.19037035 1.2521288 0.073852822 93
0.19213048 1.2497692 0.094799288 64
0.20019582 1.2389566 0.11372216 13
0.20744255 1.2292414 0.13227122 39
0.18731001 1.2562317 0.16253836 70
0.18585223 1.2617583 0.010680873 80
0.20174736 1.240293 0.03066887 32
0.18718266 1.2599617 0.053339314 78
0.19087416 1.2549766 0.07409656 61
0.20086068 1.2414904 0.092922069 79
0.2100133 1.2291304 0.11105084 14
0.20324919 1.2382649 0.13452072 31
0.18785983 1.2590473 0.163056 78
0.18765706 1.2630898 0.010680873 80
0.21175221 1.2303002 0.029936166 66
0.1807223 1.2725267 0.054559495 76
0.20088243 1.2450922 0.072390392 95
0.19908196 1.2475424 0.093860678 91
0.21169838 1.2303734 0.11105084 14
0.2222771 1.2159775 0.1277722 24
0.18736678 1.2634847 0.16409127 69
0.18929419 1.2642887 0.010680873 80
0.22152188 1.2201258 0.029203463 68
0.17886734 1.2785769 0.055082429 75
0.20363 1.2446437 0.072146654 79
0.20532525 1.2423207 0.092609204 93
0.20396852 1.2441798 0.11410378 13
0.24098891 1.1934494 0.12102367 17
0.19242162 1.260003 0.16253836 70
0.18641689 1.2720859 0.010820492 78
0.21145967 1.2375033 0.030250182 98
0.19125095 1.2654103 0.053513627 100
0.19838628 1.2555568 0.073609084 77
0.20821726 1.2419808 0.092296332 100
0.2057088 1.2454449 0.11410378 13
0.24140003 1.1961575 0.12147357 8
0.195353 1.2597456 0.16202073 70
0.19491643 1.2634238 0.010611063 94
0.21284828 1.2385057 0.030250182 65
0.19039491 1.269707 0.053862248 100
0.20214751 1.2533755 0.073121607 78
0.21192685 1.2397861 0.091670595 100
0.21056125 1.2416837 0.11295892 13
0.23355964 1.2097253 0.12507279 8
0.19567928 1.2623638 0.16253836 70
0.20834813 1.2484481 0.010262015 98
0.21108571 1.2446145 0.030564198 97
0.19686016 1.2645359 0.053165004 100
0.20853588 1.2481852 0.072146654 79
0.21135506 1.2442372 0.092296332 100
0.21115142 1.2445225 0.11334054 20
0.23290849 1.2140539 0.12597258 16
0.19860891 1.2620869 0.16202073 70
0.21224993 1.2463161 0.010192205 85
0.2172825 1.2392188 0.030145511 98
0.19619715 1.2689548 0.053513627 100
0.2147164 1.2428377 0.071171694 81
0.21292955 1.2453576 0.092296332 93
0.21386245 1.2440419 0.11295892 27
0.23325557 1.2166927 0.12642249 16
0.19912523 1.2648253 0.16253836 70
0.20709383 1.2573634 0.010401634 97
0.22704956 1.2290009 0.029412808 100
0.19573531 1.2735071 0.053862248 100
0.21416712 1.2473104 0.071659178 64
0.2169475 1.2433587 0.091670595 100
0.2065644 1.258116 0.11601187 66
0.22704533 1.229007 0.12957181 32
0.19871789 1.269268 0.16357364 85
0.20642138 1.2617764 0.010471444 96
0.21942249 1.2431674 0.030250182 98
0.20653558 1.2616129 0.052467756 100
0.2112042 1.2549306 0.072634131 78
0.22643837 1.2331253 0.089480512 100
0.20481175 1.2640803 0.11715672 100
0.22745314 1.2316729 0.13002171 72
0.19926906 1.2720138 0.16409127 85
0.21050462 1.2597455 0.010401634 100
0.22229683 1.2427344 0.030145511 98
0.21288007 1.2563188 0.051770512 100
0.21524569 1.2529062 0.072146654 79
0.22588721 1.237555 0.090106249 96
0.22228375 1.2427533 0.11181407 84
0.22470656 1.2392583 0.13182132 94
0.20881554 1.2621821 0.1604678 72
0.21901724 1.2510431 0.010192205 99
0.21715623 1.2537478 0.030773543 96
0.20780352 1.2673409 0.05281638 100
0.21918383 1.250801 0.071659178 64
0.2185635 1.2517025 0.092609204 100
0.22727451 1.2390422 0.11066922 100
0.22082347 1.248418 0.13407083 93
0.20944062 1.2649616 0.16098544 72
0.21401781 1.2621623 0.010401634 83
0.22343582 1.2483664 0.030354854 65
0.20962867 1.2685918 0.05281638 100
0.22542518 1.2454523 0.070684217 65
0.22924122 1.2398624 0.090106249 100
0.22788891 1.2418433 0.11105084 98
0.23136899 1.2367456 0.13047162 96
0.20690021 1.2725885 0.163056 70
0.21893245 1.2582501 0.010296919 70
0.23054475 1.2411246 0.029831495 66
0.20672405 1.2762548 0.053513627 78
0.22023603 1.2563276 0.072146654 79
0.23071894 1.2408677 0.090106249 96
0.22166014 1.2542274 0.11372216 100
0.23502421 1.2345184 0.12957181 100
0.21390176 1.2656693 0.1604678 72
0.2095623 1.2760522 0.010645968 40
0.22224018 1.2572068 0.030773543 32
0.21525455 1.2675908 0.052467756 53
0.23199308 1.2427094 0.069953002 49
0.23354951 1.2403958 0.089793384 100
0.22453299 1.2537986 0.11334054 89
0.2378166 1.2340529 0.1291219 96
0.22003403 1.2604862 0.15839726 81
0.22234911 1.2605495 0.010296919 42
0.20167106 1.2915081 0.032866981 29
0.22797269 1.25213 0.05072464 56
0.22253668 1.2602687 0.072390392 63
0.23401394 1.2430853 0.090106249 96
0.23595306 1.240182 0.10990598 85
0.23827481 1.236706 0.12957181 96
0.22702733 1.2535454 0.15580906 75
0.22635841 1.2584133 0.01022711 28
0.22344303 1.2628129 0.030982886 31
0.22644031 1.2582897 0.051247578 55
0.23201141 1.2498822 0.070684217 81
0.2422969 1.2343602 0.088229038 100
0.23984739 1.2380569 0.10914274 85
0.2378346 1.2410944 0.13047162 96
0.22880179 1.2547259 0.15580906 83
0.22358367 1.2661662 0.010366729 27
0.22068822 1.2705674 0.031401575 31
0.22806132 1.25936 0.051247578 55
0.23360449 1.2509341 0.070684217 81
0.24166709 1.2386786 0.088854775 98
0.24140123 1.2390828 0.10914274 85
0.24582475 1.2323588 0.1277722 97
0.21979338 1.2719276 0.16098544 72
0.22103274 1.2740576 0.010506349 40
0.23344094 1.2550453 0.030354854 32
0.22441247 1.2688791 0.052119136 54
0.2375392 1.2487657 0.07019674 82
0.24338698 1.2398056 0.088854775 98
0.23561159 1.2517194 0.11181407 100
0.24965155 1.2302067 0.12687239 99
0.22480276 1.268281 0.15943253 73
0.2247932 1.2717326 0.010436539 41
0.2197578 1.2795012 0.03182026 30
0.22273034 1.2749152 0.05264207 53
0.22500867 1.2714002 0.073365346 100
0.25345978 1.2275054 0.086351827 100
0.24246565 1.2444674 0.10990598 85
0.24579915 1.2393243 0.1291219 96
0.22952202 1.264437 0.15787962 73
0.24169153 1.2493192 0.0099478718 73
0.24963042 1.2369769 0.029098792 68
0.23203963 1.2643248 0.051421888 55
0.24394301 1.2458189 0.069465525 49
0.24971545 1.2368447 0.087916173 84
0.24199957 1.2488403 0.11066922 92
0.24954769 1.2371054 0.12822211 97
0.23856544 1.2541792 0.15425615 75
0.24237478 1.2521317 0.0099827768 87
0.24274957 1.2515444 0.029936166 66
0.23706859 1.260448 0.050898954 55
0.24248573 1.2519579 0.07019674 66
0.24930346 1.2412727 0.08854191 84
0.25326079 1.2350705 0.10723466 81
0.24916533 1.2414892 0.1291219 88
0.23306832 1.2667176 0.15787962 73
0.24726877 1.2481341 0.0098780617 73
0.2422955 1.2559888 0.030145511 98
0.24197993 1.2564873 0.05037602 84
0.2494795 1.2446425 0.068978049 50
0.2551772 1.2356435 0.087290429 71
0.24333349 1.2543495 0.11143246 91
0.25706774 1.2326576 0.12642249 90
0.22860354 1.277614 0.16098544 64
0.23715073 1.267759 0.010262015 84
0.24178317 1.2603886 0.030354854 97
0.23087218 1.2777486 0.052467756 80
0.24999881 1.2473171 0.069221787 50
0.25251827 1.2433085 0.08854191 70
0.25016493 1.2470528 0.10952436 78
0.26275158 1.2270267 0.12462288 100
0.22823259 1.2819482 0.16202073 63
0.24312294 1.2620609 0.010122396 85
0.25300899 1.2462091 0.029412808 100
0.24108115 1.2653348 0.051073264 83
0.24851537 1.2534145 0.069953002 49
0.25835353 1.2376394 0.087290429 57
0.2455985 1.2580914 0.11181407 98
0.25816125 1.2379478 0.1273223 81
0.23819995 1.2699547 0.15787962 65
0.2458947 1.2614287 0.010087491 71
0.25467306 1.2472429 0.029412808 100
0.24386048 1.2647159 0.050898954 83
0.25438297 1.2477118 0.068978049 50
0.26206663 1.2352952 0.086664692 71
0.25970122 1.2391176 0.10723466 73
0.25979647 1.2389636 0.1273223 89
0.24401328 1.264469 0.15580906 67
0.25702888 1.2471503 0.0097733475 89
0.25634077 1.248271 0.029412808 100
0.24454674 1.2674794 0.051073264 83
0.25812966 1.2453575 0.068490572 50
0.25749096 1.2463977 0.08854191 70
0.26031324 1.2418011 0.10761628 87
0.2624549 1.2383132 0.12687239 99
0.24371949 1.2688267 0.15684435 66
0.25445011 1.2549495 0.0099129668 87
0.26000717 1.2458311 0.029203463 100
0.24412438 1.2718923 0.051421888 100
0.26590601 1.2361522 0.067028143 51
0.2611284 1.2439915 0.087916173 70
0.25779259 1.249465 0.10914274 85
0.26908022 1.2309438 0.12462288 92
0.24537537 1.2698396 0.15684435 66
0.25407529 1.2594006 0.0099827768 87
0.25960302 1.2502587 0.029412808 100
0.24484724 1.2746619 0.051596198 82
0.25520918 1.2575253 0.069953002 66
0.26789528 1.2365451 0.086351827 58
0.25642046 1.255522 0.1102876 78
0.27270758 1.2285864 0.12372308 100
0.24512279 1.2742062 0.15787962 65
0.25364178 1.2638084 0.010052586 86
0.262225 1.2495066 0.029308135 100
0.25267401 1.2654209 0.05055033 84
0.26499954 1.2448834 0.068003096 51
0.27452648 1.2290092 0.084787481 59
0.25500134 1.261543 0.11143246 77
0.27523264 1.2278326 0.12327318 93
0.25276113 1.2652757 0.15477379 67
0.26150548 1.2545307 0.0098431576 100
0.26083517 1.2556565 0.029622151 100
0.25950164 1.2578962 0.049678773 86
0.26361227 1.2509923 0.068734311 33
0.27815157 1.2265733 0.084161744 59
0.26174086 1.2541354 0.10952436 78
0.27184764 1.2371609 0.12552269 82
0.25844505 1.2596707 0.15270324 68
0.2723518 1.240039 0.0095290141 76
0.26050064 1.2601023 0.029831495 100
0.25006005 1.2777774 0.051596198 82
0.27236018 1.2400248 0.067028143 51
0.26769108 1.2479293 0.087916173 56
0.27042201 1.2433059 0.10685304 88
0.27248892 1.2398069 0.12597258 82
0.25622603 1.2673388 0.15477379 67
0.26691717 1.2530824 0.0097733475 89
0.27029139 1.2473242 0.028994121 100
0.25183436 1.2788212 0.051596198 82
0.26998806 1.2478418 0.068003096 51
0.27535337 1.238686 0.086038955 58
0.27207586 1.244279 0.10685304 81
0.27905679 1.2323661 0.12372308 83
0.25991726 1.2650278 0.15373851 76
0.2666803 1.2575747 0.0098431576 88
0.27404967 1.2448925 0.028784776 100
0.2557033 1.2764653 0.051247578 82
0.26974663 1.2522976 0.068490572 50
0.27707303 1.2396894 0.086038955 58
0.26691145 1.2571769 0.10952436 78
0.28369051 1.2283012 0.12237337 93
0.26366624 1.2627616 -0.0099478718 86
0.25882179 1.2710986 0.15529142 75
0.26638669 1.2620256 0.0099129668 87
0.27770388 1.2423921 0.028575432 100
0.26244795 1.2688587 0.05037602 84
0.27044052 1.2549928 0.068734311 33
0.28561968 1.2286594 0.083848871 59
0.26763329 1.2598629 0.10990598 92
0.28529188 1.229228 0.12237337 85
0.25864321 1.2754593 0.1563267 74
0.27199143 1.2560203 0.0097733475 100
0.27530518 1.2502271 0.028994121 100
0.27003935 1.2594329 0.049330149 87
0.26613653 1.2662559 0.07019674 82
0.27831477 1.2449657 0.086664692 57
0.27998203 1.2420509 0.10570818 81
0.28584862 1.2317948 0.12282328 76
0.2689538 1.2613307 0.15166797 69
0.2766501 1.25177 0.0096686333 90
0.2750119 1.2546573 0.029203463 100
0.26683342 1.2690716 0.050201707 85
0.27472782 1.2551579 0.068490572 50
0.28289884 1.2407568 0.08572609 58
0.28356913 1.2395755 0.10494494 82
0.28457716 1.2377988 0.12417299 83
0.2687639 1.2656692 0.15270324 68
0.27841774 1.2527686 0.0096686333 75
0.28070709 1.2486989 0.028784776 100
0.27647939 1.2562143 0.048807215 88
0.28040099 1.2492431 0.067515619 51
0.28172049 1.2468976 0.086664692 57
0.27951655 1.2508154 0.10723466 81
0.29489264 1.2234826 0.12012386 77
0.26489943 1.276799 0.15580906 67
0.27718151 1.2589525 0.0097733475 89
0.27654073 1.2601008 0.029412808 100
0.26458716 1.2815244 0.051247578 82
0.28207549 1.2501813 0.067515619 51
0.29012433 1.235756 0.084474608 59
0.27832678 1.2568998 0.10837951 87
0.29362857 1.2294756 0.12147357 86
0.27718151 1.2589525 -0.0097733475 88
0.26667023 1.277791 0.15580906 67
0.27888992 1.2599018 0.0097733475 89
0.28405559 1.2505673 0.028784776 100
0.284704 1.2493956 0.047935657 89
0.28279212 1.2528505 0.067759357 68
0.28888229 1.2418454 0.085413218 58
0.27812681 1.2612808 0.10914274 85
0.29712117 1.2269576 0.12057377 86
0.27308041 1.2703997 -0.0099827768 86
0.27592769 1.2652546 0.15166797 69
0.28252593 1.2573391 0.0097035384 90
0.28765664 1.247991 0.028575432 100
0.27871004 1.2642916 0.049330149 87
0.28256896 1.2572607 0.068246834 51
0.29338223 1.2375588 0.084474608 59
0.28362176 1.2553425 0.10761628 94
0.2959049 1.2329626 0.12192347 76
0.27482882 1.2713633 -0.0099827768 86
0.2776581 1.2662083 0.15166797 69
0.28900874 1.249488 0.0095290141 76
0.28550732 1.2559206 0.028994121 100
0.27853206 1.2687355 0.049678773 86
0.29281273 1.2424994 0.066053182 52
0.29501587 1.2384518 0.084474608 59
0.29001051 1.2476475 0.10570818 73
0.29845417 1.2321351 0.12147357 77
0.2775366 1.2705643 -0.0099478718 96
0.27569756 1.2739431 0.15373851 76
0.29448357 1.2433573 0.0093893949 77
0.28910255 1.2533259 0.028784776 100
0.28027463 1.2696801 0.049678773 86
0.29069188 1.2503816 0.067028143 51
0.29571432 1.2410773 0.084787481 59
0.28888169 1.2537351 0.10685304 81
0.2829642 1.2646976 0.15063268 70
0.28953135 1.2565874 0.0096337283 90
0.29644674 1.2436686 0.028156744 100
0.28578159 1.2635924 0.048981529 87
0.29143348 1.253034 0.067271881 69
0.29642797 1.2437036 0.085100345 58
0.28964531 1.2563745 0.10723466 81
0.28198153 1.2706914 -0.0099129668 87
0.2792224 1.2758458 0.15373851 68
0.29029387 1.2592599 0.0096686333 90
0.29529241 1.2498431 0.02847076 100
0.28376961 1.2715509 0.049678773 86
0.28846756 1.2627006 0.068490572 50
0.29502657 1.2503439 0.10570818 81
0.28841874 1.2627925 -0.0097384425 77
0.28823584 1.263137 0.14959741 70
0.29572889 1.2530853 0.0095290141 92
0.29510841 1.2542641 0.028680105 100
0.29573655 1.2530707 0.067028143 51
0.28920913 1.2654721 -0.0097733475 88
0.2899588 1.2640477 0.14959741 70
0.29310402 1.2622334 0.029098792 100
0.28727755 1.2733974 0.049678773 86
0.29466897 1.2592348 0.067759357 34
0.29436642 1.2598145 0.1480445 79
0.29810369 1.2565807 0.0095639192 91
0.29169622 1.2689577 0.049155839 58
0.29811797 1.2565531 0.067271881 69
0.29066327 1.2709532 0.15115032 77
0.29797745 1.2610151 0.0096337283 100
0.29434928 1.2680838 0.048981529 58
0.28975931 1.2770264 -0.0099478718 100
0.29153135 1.273574 0.15166797 69
0.29527327 1.2707933 0.049155839 58
0.29620621 1.2689592 0.068734311 100
0.29433921 1.2726297 -0.0098431576 100
0.29775798 1.2659085 0.14907977 78
0.29249379 1.2806612 -0.0099827768 100
0.29944077 1.2796526 -0.0099129668 100
