# .PCD v0.7 - Point Cloud Data file format
VERSION 0.7
FIELDS x y z intensity
SIZE 4 4 4 4
TYPE F F F F
COUNT 1 1 1 1
WIDTH 737
HEIGHT 1
VIEWPOINT 0 0 0 1 0 0 0
POINTS 737
DATA ascii
-1.0999902 0.15224491 0.058197584 27
-1.1126723 0.15796047 0.019616505 4
-1.0646217 0.15493201 0.01877879 6
-1.02254 0.15245473 0.018045789 6
-1.0338622 0.15783384 0.018255217 2
-1.1694447 1.1834069 0.029040804 9
-1.1302915 1.1518003 0.028168185 18
-1.0341532 1.0612173 0.025864467 14
-1.0095834 1.0432657 0.025340894 6
-1.0918419 1.1361781 0.027504992 63
0.055368662 0.0039513707 0.015916595 122
0.049813271 0.0065073371 0.047835063 27
0.041996896 0.00074195862 0.016091119 8
0.050320148 0.013345659 0.047521047 100
0.042149842 0.0067805052 0.04804441 90
0.035039902 0.0019222498 0.048463095 68
0.033479929 0.005379498 0.048358422 25
0.041189194 0.021869481 0.047416378 19
0.036322892 0.020354986 0.047625721 19
0.0314399 0.018865347 0.047835063 9
0.031101942 0.023959339 0.047625721 9
-1.0405045 1.1345663 0.028482327 6
-1.0074182 1.1269825 0.08373753 5
-1.0230412 1.1305635 0.1411923 6
-1.025589 1.136941 0.028237993 10
-0.9944914 1.1296985 0.083109498 26
-1.0334158 1.1387637 0.14223817 39
-0.99705487 1.1359934 0.027749326 28
-0.99322647 1.1350877 0.083109498 88
-1.0185468 1.1410778 0.14101799 86
-0.98611051 1.1387875 0.027574802 40
-1.009486 1.1443994 0.084051549 100
-0.99987155 1.1420913 0.13944919 91
-0.98092824 1.1432 0.027504992 42
-0.98682469 1.1446375 0.082900152 100
-0.99469191 1.1465553 0.13910057 92
-0.98155731 1.1490221 0.027539898 22
-0.97387499 1.147121 0.08227212 100
-1.0011044 1.1538595 0.13979781 84
-0.97828549 1.1538788 0.027504992 23
-0.9686752 1.1514648 0.082062781 52
-0.99975485 1.1592715 0.13979781 76
-0.97880584 1.159972 0.027539898 37
-0.97307271 1.1585095 0.082376793 34
-0.98673433 1.1619943 0.13875194 82
-0.96194798 1.1612978 0.027260659 59
-0.98717564 1.1678269 0.083214171 65
-0.97378355 1.164361 0.13770607 92
-0.96250707 1.1670809 0.027295563 68
-0.98577768 1.1731902 0.083214171 100
-0.97817904 1.1711953 0.13822901 94
-0.94951755 1.169271 0.027086135 81
-0.95734066 1.1713541 0.081748761 90
-0.97099334 1.1749892 0.13770607 99
-0.95976919 1.177367 0.027295563 89
-0.95407313 1.1758301 0.081644088 98
-0.97925991 1.182626 0.13857763 100
-0.95448035 1.1815792 0.027225753 93
-0.946868 1.1794968 0.081330076 100
-0.96051437 1.1832299 0.13700883 99
-0.94532663 1.1846907 0.027086135 92
-0.94735414 1.185253 0.081434749 98
-0.96290249 1.1895649 0.13735744 92
-0.94001979 1.1888256 0.027016325 93
-0.94974095 1.1915581 0.081644088 86
-0.95183843 1.1921477 0.13648589 98
-0.94431835 1.1956677 0.027121039 71
-0.93481439 1.1929605 0.08091139 72
-0.95227188 1.1979334 0.1366602 100
-0.96011478 1.2058722 0.027435184 46
-0.92181534 1.1948177 0.080283359 38
-0.9603402 1.2059373 0.13753176 94
-0.94722086 1.2072508 0.027225753 48
-0.92430788 1.2005591 0.080492698 24
-0.94748825 1.2073288 0.13648589 84
-0.92842764 1.2073689 0.026911611 71
-0.92662638 1.206836 0.080702044 28
-0.94213146 1.2114229 0.13613728 87
-0.90766007 1.2070417 0.026562562 75
-0.9231022 1.2116716 0.080597371 32
-0.93286973 1.2146001 0.13544002 94
-0.91186601 1.2138702 0.026667276 81
-0.91390711 1.2144899 0.080178685 84
-0.92940229 1.2191948 0.13526571 100
-0.91420895 1.2198901 0.026737086 89
-0.90669757 1.2175821 0.079864666 100
-0.93552262 1.2264389 0.13596296 99
-0.91644853 1.2261864 0.026806897 88
-0.9070335 1.2232575 0.079969339 84
-0.9206031 1.2274787 0.13474278 71
-0.9034031 1.2276986 0.026597468 88
-0.90544242 1.2283407 0.079969339 68
-0.90759498 1.2290186 0.13369691 47
-0.89417559 1.2303398 0.026457848 83
-0.90763944 1.2346315 0.080178685 72
-0.91547519 1.2371292 0.13456847 43
-0.89628464 1.2368585 0.026527658 85
-0.89642328 1.2369032 0.079655327 97
-0.9194414 1.2443334 0.13509139 45
-0.89464623 1.2419041 0.026527658 99
-0.88908905 1.2400888 0.079341307 100
-0.91967064 1.2500784 0.13526571 59
-0.89687091 1.2479466 0.026597468 96
-0.89131528 1.2461114 0.079550654 100
-0.91050321 1.2524498 0.13456847 80
-0.87622803 1.2466557 0.02624842 96
-0.88964456 1.2511396 0.079550654 100
-0.89180332 1.2518611 0.13299966 90
-0.8706829 1.2505983 0.02617861 93
-0.89733106 1.259613 0.080074012 98
-0.89946419 1.2603346 0.13387123 82
-0.87278062 1.2568493 0.02624842 93
-0.87860602 1.2588426 0.079131968 100
-0.89208847 1.2634561 0.13334829 100
-0.874852 1.2631208 0.02631823 89
-0.86179155 1.2586007 0.07829459 100
-0.89788848 1.2710934 0.13404553 89
-0.86934716 1.2667702 0.02624842 79
-0.86573273 1.2655052 0.07860861 91
-0.89048892 1.2741698 0.1335226 58
-0.85826582 1.26814 0.026073895 75
-0.8640818 1.2701972 0.07860861 55
-0.89256579 1.2802727 0.13387123 38
-0.85651845 1.2730527 0.026073895 88
-0.86608833 1.2764754 0.078817949 19
-0.88702387 1.2839632 0.1335226 43
-0.84920055 1.2756751 0.025969181 99
-0.86627942 1.2818475 0.078922622 51
-0.87219518 1.2839854 0.13230242 22
-0.85494 1.2833011 0.0261088 96
-0.84947628 1.2813048 0.078085244 85
-0.87226373 1.2896304 0.13247673 15
-0.8531397 1.288202 0.0261088 100
-0.85330373 1.2882626 0.078399263 100
-0.86857218 1.2939016 0.13230242 7
-0.8438285 1.2902994 0.025969181 100
-0.83464581 1.2868717 0.077457212 80
-0.87233454 1.3009404 0.13282534 1
-0.83068711 1.2911675 0.025759751 100
-0.84955925 1.2982912 0.078399263 46
-0.86292297 1.3033355 0.1321281 1
-0.83259624 1.2974093 0.025829561 77
-0.8327778 1.2974784 0.077561885 53
-0.84802181 1.3032935 0.13090792 13
-0.83270568 1.3027101 0.025864467 74
-0.83102101 1.3020611 0.077561885 68
-0.85554165 1.3115079 0.13177948 52
-0.83642823 1.3097095 0.025969181 78
-0.82357174 1.3047049 0.077247873 68
-0.85364288 1.316411 0.13177948 100
-0.82718652 1.3113779 0.025829561 96
-0.81621474 1.3070648 0.076933853 67
-0.82957202 1.3123156 0.12968774 99
-0.8141374 1.3117533 0.025620133 100
-0.83475024 1.3199395 0.078085244 85
-0.83137399 1.3185986 0.13003637 97
-0.81223804 1.3165118 0.025620133 99
-0.81984657 1.3195642 0.077352546 97
-0.83869618 1.3271265 0.13090792 100
-0.82144183 1.3257698 0.025829561 100
-0.80866474 1.3205919 0.07682918 100
-0.83674306 1.3319705 0.13090792 100
-0.81949347 1.3305535 0.025829561 100
-0.8141281 1.3283575 0.077247873 100
-0.81449002 1.3285055 0.1289905 100
-0.78193527 1.3151805 0.17671055 15
-0.80274433 1.3292189 0.025550323 100
-0.80109626 1.3285377 0.076619841 100
-0.81253213 1.3332652 0.1289905 100
-0.78552765 1.3221016 0.17744176 16
-0.79330486 1.3310903 0.025410704 100
-0.80825478 1.3373349 0.0771432 100
-0.81781226 1.341327 0.12968774 100
-0.77433652 1.3231673 0.17622307 15
-0.79133803 1.3357759 0.025410704 100
-0.78602332 1.3335342 0.075991809 100
-0.80846661 1.3430007 0.1289905 100
-0.77605563 1.3293297 0.17671055 22
-0.79681414 1.343354 0.025550323 89
-0.78966027 1.3403084 0.076305822 67
-0.81389171 1.3506241 0.12968774 99
-0.77054054 1.3321689 0.17622307 16
-0.82419926 1.3606868 0.0261088 59
-0.81151539 1.3552346 0.077666558 48
-0.80636531 1.3530209 0.12916481 26
-0.79592639 1.3485339 0.17987914 10
-0.80755657 1.3588743 0.025829561 94
-0.81323177 1.361336 0.077875905 100
-0.8263585 1.3670301 0.13125655 61
-0.80856961 1.3593137 0.18182907 17
-0.78717524 1.3555877 0.025480513 100
-0.81298894 1.3668921 0.077980578 100
-0.81696588 1.3686337 0.1305593 100
-0.7883206 1.3560892 0.17939167 35
-0.79792565 1.3659117 0.025724847 100
-0.81089705 1.3716463 0.077980578 100
-0.81122345 1.3717906 0.13021068 100
-0.7644797 1.3511254 0.17646681 33
-0.79948944 1.372243 0.025794657 100
-0.80331701 1.3739512 0.077666558 100
-0.81821162 1.3805983 0.13108224 100
-0.77150697 1.3597552 0.1776855 31
-0.80467206 1.3802352 0.025934275 100
-0.80302161 1.3794918 0.077771232 100
-0.80335587 1.3796422 0.12986206 100
-0.77848989 1.3684411 0.17890419 21
-0.79525214 1.3816495 0.025794657 100
-0.80634028 1.386691 0.078085244 100
-0.80121952 1.3843627 0.12986206 100
-0.78723532 1.3780046 0.18036664 15
-0.7948187 1.3874104 0.025829561 100
-0.81496149 1.3966579 0.078713275 100
-0.80982286 1.3942988 0.13090792 100
-0.77597767 1.3787603 0.17914793 15
-0.79084092 1.3912601 0.025794657 100
-0.80189258 1.3963809 0.078085244 100
-0.80763537 1.3990417 0.13090792 100
-0.74682742 1.3708671 0.17549185 13
-0.79409856 1.3984778 0.025899371 100
-0.79969794 1.4010961 0.078085244 100
-0.80904096 1.4054646 0.13125655 100
-0.75551146 1.3804352 0.17695428 9
-0.8009389 1.4074324 0.026073895 100
-0.8083244 1.4109173 0.078713275 100
-0.80681449 1.4102048 0.13125655 100
-0.76414436 1.3900712 0.17841671 3
-0.79159516 1.4084716 0.025934275 100
-0.80799502 1.4162763 0.078817949 100
-0.80108589 1.4129882 0.13090792 100
-0.79793006 1.4114864 0.18329149 1
-0.78935832 1.4131507 0.025934275 100
-0.80573088 1.4210126 0.078817949 100
-0.80601746 1.4211502 0.13160518 100
-0.79250389 1.4204377 0.026038991 100
-0.7944631 1.421387 0.07829459 100
-0.81090838 1.4293545 0.13230242 100
-0.79381841 1.4268763 0.0261088 100
-0.79756421 1.4287074 0.07860861 100
-0.81217843 1.4358509 0.13265105 100
-0.7988072 1.4348655 0.02624842 100
-0.80253822 1.4367046 0.079027295 100
-0.8063888 1.4386027 0.13230242 100
-0.79289716 1.4377888 0.02617861 100
-0.8055678 1.4440897 0.079341307 100
-0.80047864 1.441559 0.13195379 100
-0.79067522 1.4422383 0.02617861 100
-0.81046659 1.452162 0.07976 100
-0.80180639 1.4478197 0.13230242 100
-0.7883206 1.4469142 0.02617861 100
-0.79738349 1.4514982 0.079131968 100
-0.81009954 1.4579298 0.13334829 100
-0.79307455 1.4552166 0.02631823 100
-0.79321736 1.4552896 0.079027295 100
-0.814789 1.466295 0.13404553 100
-0.80134302 1.4653907 0.026527658 100
-0.79614478 1.4627156 0.079341307 100
-0.80703539 1.4683199 0.1335226 100
-0.79168636 1.4666529 0.026388038 100
-0.79714197 1.4694856 0.079550654 100
-0.80446678 1.473289 0.1335226 100
-0.78570348 1.4694767 0.02631823 100
-0.80707747 1.4806697 0.080283359 100
-0.80200356 1.4780127 0.1335226 100
-0.78679019 1.4760027 0.026388038 88
-0.78692752 1.4760752 0.079236634 100
-0.80833286 1.48738 0.13439415 98
-0.80230337 1.4902439 0.13404553 43
0.11233783 1.3124006 0.13547438 5
0.16115832 1.2553537 0.010855397 13
0.13790539 1.2843782 0.03454173 27
0.15136743 1.2675748 0.055779677 24
0.1275993 1.2972422 0.10700117 10
0.14860412 1.271024 0.12478908 24
0.19056156 1.2186525 0.13272113 7
0.15985605 1.2569792 0.16719711 7
0.16161004 1.2582731 0.010890301 78
0.15959659 1.2608044 0.032866981 58
0.154347 1.267404 0.055605363 49
0.16691783 1.2516003 0.07555899 30
0.17248183 1.2446053 0.096050762 25
0.15768838 1.2632033 0.12249938 87
0.18727735 1.2260048 0.13452072 23
0.15193745 1.2704332 0.1713382 21
0.16951364 1.2517793 0.010715778 100
0.1736908 1.2464901 0.03182026 100
0.15485084 1.2703457 0.055779677 100
0.17106187 1.2498188 0.075071514 30
0.16801932 1.2536714 0.097615108 37
0.15697882 1.2676511 0.12326261 100
0.18645576 1.2303269 0.13542053 38
0.15009475 1.2763679 0.17289113 35
0.15885884 1.2688408 0.011064826 100
0.16672969 1.2588028 0.032552965 100
0.15168229 1.2779934 0.056476921 100
0.16906446 1.255825 0.075802729 45
0.18189877 1.2394569 0.094486415 39
0.16598672 1.2597502 0.1209729 100
0.19287458 1.225459 0.13362093 38
0.14709666 1.2838416 0.17496167 42
0.16060251 1.2702031 0.011064826 100
0.18070713 1.2443776 0.031506244 93
0.16202518 1.2683756 0.055256739 99
0.17198205 1.2555854 0.07555899 30
0.18596661 1.2376214 0.093860678 26
0.17734659 1.2486944 0.11791996 100
0.18249577 1.24208 0.13811995 37
0.14533263 1.289818 0.1765146 41
0.17457959 1.2557373 0.010715778 79
0.17137286 1.2598863 0.032448292 59
0.1747328 1.2555389 0.053687938 52
0.17367935 1.256902 0.07555899 30
0.17310518 1.2576449 0.097615108 24
0.16941515 1.2624192 0.1209729 19
0.19129613 1.2341086 0.13542053 22
0.15069374 1.286642 0.17496167 35
0.18114677 1.2506989 0.010576159 67
0.17430103 1.2596204 0.032343622 30
0.16793972 1.2679107 0.054908119 50
0.18867418 1.240889 0.072877869 47
0.18322742 1.2479874 0.095425025 51
0.18189272 1.2497268 0.11753834 13
0.19054571 1.2384499 0.13632034 22
0.1560277 1.2834346 0.17340876 57
0.17555621 1.2615278 0.010785587 52
0.15906799 1.2831717 0.033809029 28
0.16968009 1.2692412 0.054908119 50
0.18911713 1.2437265 0.073121607 62
0.17651874 1.2602642 0.097615108 49
0.18951806 1.2432002 0.11563025 13
0.20635405 1.2210997 0.13092151 40
0.17304116 1.2648292 0.16667947 67
0.17951581 1.2595127 0.010715778 39
0.17273527 1.2684716 0.032762308 29
0.16644084 1.2767882 0.055605363 49
0.18701324 1.2496065 0.073852822 46
0.19475037 1.2393836 0.093234941 53
0.18863687 1.2474612 0.11639348 13
0.20777294 1.2221771 0.13092151 40
0.17459756 1.266011 0.16667947 67
0.17882437 1.2640003 0.010785587 39
0.16727906 1.279366 0.033390339 28
0.17659 1.266974 0.054385185 51
0.19226691 1.2461095 0.073121607 78
0.20113742 1.2343037 0.091983467 53
0.19384369 1.2440109 0.11524864 13
0.20701221 1.2264849 0.13182132 39
0.17865217 1.2642295 0.16564418 68
0.18780956 1.2557389 0.010576159 54
0.18825081 1.255147 0.031715591 30
0.17960498 1.2667421 0.054210871 51
0.18926787 1.253783 0.07409656 61
0.20520315 1.232412 0.09135773 54
0.20145124 1.2374437 0.11334054 13
0.21101737 1.2246145 0.13092151 32
0.18739486 1.256295 0.16253836 70
0.19307652 1.2521783 0.010471444 82
0.20064116 1.2419591 0.030773543 64
0.18845358 1.2584236 0.053165004 79
0.19568303 1.2486572 0.073121607 93
0.19389132 1.2510777 0.094799288 64
0.21009344 1.2291898 0.11105084 14
0.21260634 1.225795 0.13092151 32
0.1867958 1.2606632 0.16357364 69
0.19476181 1.2534213 0.010471444 82
0.20229074 1.2431757 0.030773543 64
0.18190211 1.2709212 0.054385185 76
0.20675984 1.2370939 0.071171694 81
0.1967425 1.250726 0.094486415 91
0.21402347 1.2272093 0.1102876 14
0.21650732 1.2238293 0.13002171 24
0.18851075 1.261928 0.16357364 69
0.18702349 1.2675827 0.010750682 92
0.20276749 1.2460001 0.030878214 63
0.18130451 1.2754223 0.054733805 100
0.20254296 1.2463078 0.072390392 63
0.21239266 1.2328055 0.090731993 95
0.20983636 1.2363098 0.11219569 14
0.23761743 1.1982265 0.12237337 17
0.18339902 1.2725511 0.16667947 67
0.1910218 1.2655447 0.010680873 93
0.2113781 1.2374442 0.030250182 65
0.18648911 1.2718017 0.054210871 100
0.19830152 1.2554955 0.073609084 77
0.21740583 1.2291234 0.089793384 100
0.20677757 1.2437949 0.11372216 13
0.22875005 1.2134634 0.12642249 16
0.19186756 1.2643771 0.16357364 69
0.19742364 1.2603006 0.010541254 95
0.21067974 1.2418665 0.030459527 65
0.19289577 1.2665973 0.053513627 100
0.20231625 1.2534969 0.073121607 78
0.2143974 1.2366966 0.091044858 100
0.20957971 1.2433962 0.11334054 13
0.23485088 1.2082535 0.12462288 8
0.20149046 1.2546452 0.15995017 72
0.19681364 1.2647836 0.010611063 94
0.21348929 1.2414224 0.030354854 97
0.1969465 1.2645974 0.053165004 100
0.21553925 1.2385507 0.070684217 65
0.2171762 1.2362574 0.090731993 100
0.21009362 1.2461795 0.11372216 20
0.23072162 1.2172815 0.12687239 16
0.19532764 1.2668654 0.16357364 69
0.20085514 1.2627501 0.010541254 95
0.21860102 1.2377052 0.03004084 66
0.19406757 1.2723296 0.053862248 100
0.21258616 1.2461941 0.071659178 80
0.21423757 1.2438635 0.091983467 93
0.20608267 1.2553725 0.11563025 27
0.23228487 1.2183932 0.12687239 16
0.19818109 1.2665241 0.163056 70
0.20479247 1.2606344 0.010471444 96
0.21670595 1.2437021 0.030354854 97
0.19114935 1.280025 0.054559495 100
0.21873629 1.2408164 0.070684217 81
0.22149429 1.2368965 0.090419121 100
0.1975266 1.270961 0.11906482 65
0.23040944 1.2242256 0.12822211 32
0.20205286 1.264528 0.16202073 70
0.20421726 1.2651153 0.010541254 81
0.21607435 1.2481375 0.030564198 97
0.20662138 1.2616729 0.052467756 100
0.2158353 1.2484797 0.071659178 80
0.2265192 1.2331818 0.089480512 97
0.20377389 1.2657502 0.11753834 100
0.22753373 1.2317291 0.13002171 80
0.20820573 1.2594043 0.15995017 72
0.20366913 1.2696061 0.010611063 81
0.21774539 1.2493002 0.030564198 97
0.20833972 1.2628685 0.052467756 100
0.20619828 1.2659577 0.07409656 92
0.22588721 1.237555 0.090106249 96
0.21669134 1.2508208 0.11372216 96
0.22359633 1.2408597 0.13227122 94
0.21211734 1.2574191 0.15891489 73
0.22581825 1.2411587 0.0099827768 87
0.22055259 1.2488117 0.030459527 65
0.21006224 1.2640581 0.052467756 100
0.2214343 1.2475302 0.071171694 65
0.2252818 1.2419384 0.090731993 95
0.22504881 1.2422769 0.11143246 91
0.22303268 1.2452072 0.13317102 93
0.2160109 1.2554125 0.15787962 73
0.21627274 1.2588592 0.010331824 84
0.22906625 1.2401187 0.029831495 66
0.20850533 1.2702372 0.05299069 100
0.22542518 1.2454523 0.070684217 81
0.21921751 1.2545456 0.092922069 100
0.22346127 1.2483292 0.1125773 100
0.23576388 1.2303077 0.128672 97
0.20363259 1.2773751 0.16460891 69
0.21461615 1.2649876 0.010436539 41
0.23743114 1.2313154 0.029203463 34
0.21248874 1.2681274 0.05264207 79
0.21038437 1.2712332 0.074340299 100
0.23420745 1.2360731 0.089167647 98
0.23063916 1.2413396 0.11066922 85
0.23846567 1.2297885 0.12822211 97
0.21082392 1.2705846 0.16202073 70
0.21411422 1.269474 0.010506349 40
0.23904333 1.2324036 0.029203463 34
0.21422958 1.2693025 0.05264207 53
0.22432134 1.2542957 0.071659178 80
0.23363161 1.240451 0.089793384 100
0.22352186 1.2554846 0.11372216 96
0.24007255 1.2308731 0.12822211 97
0.22119766 1.2589407 0.15787962 73
0.22474056 1.2573373 0.01022711 28
0.21183187 1.2766786 0.031924933 30
0.22592893 1.2555568 0.051073264 55
0.22050387 1.2636852 0.072877869 94
0.23527572 1.2415525 0.089793384 97
0.23720708 1.2386587 0.10952436 85
0.23735592 1.2384357 0.13002171 96
0.22934103 1.2504444 0.15477379 75
0.22865224 1.2551355 0.0101573 42
0.20477903 1.2911766 0.032762308 29
0.22432503 1.2616682 0.051596198 54
0.23428762 1.2466278 0.07019674 66
0.23474193 1.2459419 0.090419121 100
0.24101326 1.2364742 0.10876112 87
0.23468837 1.2460228 0.13182132 94
0.22568592 1.2596138 0.15736198 74
0.22924918 1.2579253 0.010192205 28
0.18904641 1.3190815 0.03443706 27
0.22275993 1.2677966 0.052119136 54
0.23813415 1.2444094 0.069709264 66
0.23640519 1.2470394 0.090419121 100
0.23940811 1.2424715 0.10990598 85
0.24491569 1.2340933 0.12822211 97
0.22633579 1.262357 0.15787962 73
0.23204693 1.2573671 0.0101573 28
0.20624334 1.2969196 0.032971654 29
0.22776544 1.2639298 0.051596198 54
0.23762277 1.2488203 0.07019674 82
0.24346897 1.2398591 0.088854775 98
0.2389138 1.2468413 0.11066922 85
0.25186145 1.2269949 0.12597258 90
0.22383419 1.2699558 0.15995017 72
0.22496834 1.2718461 0.010436539 41
0.25142208 1.2310017 0.028784776 34
0.22615588 1.2700126 0.052119136 54
0.23273757 1.2598505 0.071659178 64
0.25254565 1.2292669 0.086664692 86
0.24049678 1.2478703 0.11066922 85
0.2491411 1.2345235 0.1277722 89
0.22969463 1.2645488 0.15787962 73
0.23961222 1.252737 0.010017681 43
0.24971193 1.2370292 0.029098792 68
0.24074623 1.2509733 0.050027397 57
0.24187887 1.2492118 0.069953002 66
0.24766025 1.2402201 0.08854191 84
0.24739206 1.2406373 0.10876112 87
0.25068316 1.2355187 0.1277722 81
0.23447075 1.2607334 0.1563267 74
0.25197381 1.2369077 0.0096686333 60
0.24266553 1.2514907 0.029936166 66
0.23591104 1.2620728 0.051073264 55
0.24560577 1.2468843 0.069465525 49
0.24284428 1.2512107 0.090419121 68
0.25212333 1.2366736 0.10761628 65
0.25013155 1.239794 0.128672 81
0.23506042 1.2634054 0.15684435 66
0.2387968 1.2617046 0.0101573 71
0.25412971 1.2374785 0.028994121 100
0.23567173 1.2666422 0.051421888 82
0.24743912 1.2480496 0.069465525 49
0.25314564 1.2390332 0.087916173 70
0.24551791 1.2510852 0.11066922 92
0.25819069 1.2310621 0.12597258 90
0.23282471 1.2711406 0.15891489 65
0.23936525 1.2644271 0.010192205 85
0.24930641 1.2486041 0.029622151 100
0.23096079 1.2778041 0.052467756 80
0.2437458 1.2574546 0.070684217 98
0.25680441 1.2366698 0.087290429 71
0.25233707 1.2437803 0.10876112 87
0.26594147 1.2221266 0.12327318 93
0.23654374 1.268918 0.15787962 65
0.24955621 1.2519329 0.0099129668 87
0.25626194 1.2411764 0.029098792 100
0.23905954 1.2687702 0.051421888 82
0.24544922 1.2585207 0.070684217 65
0.25843516 1.2376904 0.087290429 85
0.24049059 1.2664747 0.11372216 89
0.26442859 1.2280765 0.12462288 92
0.24237522 1.2634516 0.15580906 67
0.25431284 1.2478251 0.0098082526 89
0.25572407 1.2455447 0.029308135 100
0.24386048 1.2647159 0.050898954 83
0.24707088 1.259528 0.070684217 65
0.25790873 1.2420142 0.087916173 70
0.26176742 1.2357787 0.10647142 73
0.25877103 1.2406209 0.1277722 89
0.24401328 1.264469 0.15580906 67
0.25502011 1.25061 0.0098431576 88
0.25433475 1.2517266 0.029622151 100
0.24671796 1.2641366 0.05072464 84
0.25821263 1.2454084 0.068490572 50
0.26377395 1.2363473 0.086664692 57
0.25423381 1.2518911 0.10990598 92
0.263556 1.2367024 0.12642249 82
0.23976442 1.275466 0.15891489 65
0.24829251 1.2652476 0.010122396 85
0.25801203 1.2492931 0.029412808 100
0.24524856 1.2702441 0.051247578 82
0.25979075 1.2463734 0.068490572 50
0.26121113 1.2440419 0.087916173 84
0.26298332 1.2411329 0.10723466 73
0.27220225 1.2260001 0.12327318 85
0.2454626 1.2698928 0.15684435 66
0.24804151 1.2697731 0.010192205 85
0.257705 1.2537791 0.029622151 100
0.24090213 1.2815895 0.052293446 80
0.2697511 1.2338414 0.066540658 52
0.27214426 1.2298806 0.085100345 58
0.24948314 1.267387 0.11295892 100
0.27387545 1.2270153 0.12327318 76
0.24230173 1.279273 0.15943253 56
0.25484258 1.2621968 0.010017681 87
0.26136521 1.2513199 0.029412808 100
0.24977297 1.2706509 0.051073264 83
0.25903985 1.2551975 0.069465525 49
0.27265489 1.2324935 0.085413218 73
0.26325038 1.2481762 0.10837951 65
0.27439025 1.2295997 0.12372308 92
0.25587103 1.2604818 -0.0099827768 86
0.25293404 1.2653795 0.15477379 67
0.26380348 1.2512442 0.0097733475 89
0.26313129 1.2523745 0.029412808 100
0.25466517 1.2666105 0.05055033 84
0.26690814 1.2460237 0.068003096 51
0.27031308 1.2402983 0.086664692 57
0.2650049 1.2492239 0.10837951 87
0.27806881 1.2272569 0.12282328 93
0.25672659 1.2631441 0.15373851 68
0.27251589 1.2401359 0.0095290141 76
0.26473248 1.2533232 0.029412808 100
0.25631359 1.2675872 0.05055033 84
0.26848826 1.2469598 0.068003096 51
0.27187419 1.2412231 0.086664692 57
0.26958933 1.2450943 0.10723466 81
0.27859607 1.2298343 0.12327318 76
0.25639963 1.2674413 0.15477379 67
0.26312971 1.2601337 0.0099129668 100
0.26650587 1.2543654 0.029412808 100
0.25411364 1.2755382 0.051247578 82
0.27023828 1.2479885 0.068003096 51
0.27559882 1.2388296 0.086038955 58
0.26934913 1.2495075 0.10799789 79
0.28028327 1.230826 0.12327318 85
0.26212817 1.261845 0.15270324 68
0.26776978 1.2558949 0.0098082526 74
0.27814516 1.2380323 0.028366089 100
0.25979453 1.2696253 0.05055033 100
0.26783672 1.2557796 0.068978049 50
0.27715501 1.239737 0.086038955 72
0.26403826 1.2623192 0.11066922 78
0.2896432 1.218237 0.11967396 87
0.26376078 1.2627969 0.15270324 68
0.26447591 1.2655404 0.0099827768 87
0.27379784 1.2493618 0.028994121 100
0.2645244 1.2654562 0.050027397 85
0.2715162 1.2533216 0.068490572 50
0.28569973 1.2287054 0.083848871 59
0.26771879 1.2599123 0.10990598 78
0.28439915 1.2309628 0.12282328 85
0.2712695 1.2537498 0.14959741 70
0.26810592 1.2630126 0.0099129668 87
0.27340624 1.2537427 0.029203463 100
0.26715791 1.2646706 0.049853086 85
0.27114981 1.257689 0.068978049 50
0.28526127 1.2330091 0.084474608 59
0.27519193 1.2506196 0.10761628 87
0.28302735 1.2369161 0.12417299 92
0.26612073 1.2664845 -0.0099827768 86
0.27095738 1.2580256 0.15063268 70
0.27591649 1.2536528 0.0097035384 90
0.26935744 1.2652271 0.029831495 99
0.2700417 1.2640196 0.049678773 86
0.27987546 1.2466668 0.067271881 34
0.28217146 1.2426152 0.086038955 72
0.27897531 1.2482553 0.10685304 81
0.2867437 1.2345469 0.12327318 85
0.27092838 1.262455 0.15166797 69
0.28046227 1.24933 0.0095988233 76
0.28079066 1.248746 0.028784776 100
0.26289245 1.280575 0.051247578 82
0.28048465 1.2492902 0.067515619 51
0.28470838 1.241779 0.08572609 58
0.27575135 1.2577076 0.10876112 87
0.29306147 1.2269243 0.12102367 86
0.27445674 1.2600099 0.15063268 78
0.28124717 1.2520612 0.0096337283 90
0.28643736 1.2427516 0.028366089 100
0.27155703 1.2694424 0.050027397 85
0.28610966 1.2433394 0.066540658 52
0.29028693 1.2358468 0.084474608 59
0.27754074 1.2587094 0.10876112 87
0.29568684 1.2261609 0.12057377 77
0.27540472 1.2625408 -0.0098431576 87
0.27437314 1.2643912 0.15166797 69
0.27510366 1.2669485 0.0099129668 87
0.28994006 1.2401277 0.028156744 100
0.276108 1.2651328 0.049504463 86
0.27711111 1.2633194 0.069221787 67
0.29374549 1.2332482 0.083848871 59
0.28011316 1.2578924 0.10837951 79
0.29625764 1.228707 0.12102367 86
0.27510366 1.2669485 -0.0099129668 97
0.27601412 1.2653024 0.15166797 69
0.27876365 1.2643986 0.0098431576 88
0.28389743 1.255041 0.028994121 100
0.28933781 1.2451245 0.047412723 90
0.27597037 1.26949 0.069953002 49
0.29536411 1.2341399 0.083848871 59
0.2893723 1.2450616 0.10532656 82
0.29317376 1.2381325 0.12327318 76
0.27684 1.267905 -0.0099129668 87
0.28053233 1.2611747 0.15011504 78
0.28900874 1.249488 0.0095290141 61
0.28359765 1.2594292 0.029203463 100
0.2909148 1.2459862 0.047412723 60
0.28711855 1.2529607 0.067515619 51
0.29029393 1.2471268 0.086038955 58
0.28907192 1.249372 0.1060898 81
0.29565918 1.2372699 0.12282328 85
0.27385041 1.2773366 0.15477379 67
0.29180104 1.2487266 0.0094941091 92
0.28737509 1.2569327 0.028994121 100
0.28234065 1.2662671 0.049330149 87
0.29839823 1.2364948 0.065078229 53
0.29494104 1.2429047 0.085100345 58
0.29371038 1.2451864 0.10494494 82
0.27851138 1.2733669 -0.0099827768 86
0.28130278 1.2681913 0.15166797 77
0.28970122 1.2566782 0.0096337283 90
0.29661208 1.243757 0.028156744 100
0.28031591 1.274226 0.050027397 85
0.29253832 1.2513738 0.067028143 51
0.29845661 1.2403083 0.084474608 59
0.29351881 1.2495406 0.10570818 81
0.28215632 1.2707849 -0.0099129668 87
0.27575451 1.2827542 0.15580906 67
0.28859079 1.2628837 0.0097384425 75
0.29265252 1.2552254 0.028784776 100
0.29234645 1.2558025 0.048109971 89
0.29515031 1.2505158 0.066784397 34
0.29732317 1.246419 0.085413218 58
0.29335451 1.2539017 0.10647142 73
0.28577992 1.2681835 -0.0098431576 87
0.28840798 1.2632284 0.14959741 78
0.29589754 1.2531741 0.0095290141 76
0.2962071 1.2525853 0.028575432 100
0.29682592 1.2514087 0.047587037 90
0.28574139 1.2724857 0.069709264 83
0.29898772 1.247298 0.085413218 58
0.28379741 1.2761823 -0.0099827768 86
0.29103047 1.2624286 0.14907977 78
0.2978932 1.2534683 0.028575432 100
0.2939018 1.2611227 0.048458595 59
0.28556594 1.2771084 -0.0099827768 86
0.29185772 1.2650425 0.14959741 70
0.29195753 1.2690929 0.049155839 87
0.28737664 1.277953 0.15322088 76
0.29449883 1.2682204 0.0097733475 89
0.29452315 1.268173 0.048981529 58
0.29908219 1.2592831 0.067515619 51
0.29915491 1.2591412 0.10685304 73
0.29523334 1.2667882 0.14959741 70
0.29986465 1.2619791 0.0096337283 100
0.29989198 1.2619255 0.067759357 100
0.29714581 1.2673267 -0.0097384425 100
0.29714319 1.2716587 0.068978049 100
0.29708323 1.2717776 -0.0098082526 100
0.29957727 1.2668296 0.14907977 78
0.29710975 1.2850749 0.050201707 28
