# .PCD v0.7 - Point Cloud Data file format
VERSION 0.7
FIELDS x y z intensity
SIZE 4 4 4 4
TYPE F F F F
COUNT 1 1 1 1
WIDTH 726
HEIGHT 1
VIEWPOINT 0 0 0 1 0 0 0
POINTS 726
DATA ascii
-1.1682209 0.15442152 0.061756428 21
-1.1764604 0.16387527 0.020733459 21
-1.1137041 0.15513362 0.058930285 28
-1.1699424 0.1671325 0.020628745 28
-1.0684433 0.15644041 0.0188486 6
-1.0204289 0.15305039 0.018010883 6
-1.0535177 0.16158724 0.018604266 2
0.055368662 0.0039513707 0.015916595 122
0.053927124 0.013363063 0.047416378 28
0.043582618 0.0034341812 0.048149079 100
0.031109929 0.0021600127 0.048567768 25
0.040797532 0.022135973 0.047416378 19
0.033670843 0.01733011 0.047835063 18
0.02890718 0.015760005 0.04804441 9
0.021713495 0.011026502 0.048463095 8
0.016773999 0.0096046925 0.048672438 8
-1.0340705 1.1269857 0.14206386 3
-1.0601246 1.138472 0.028831376 6
-1.0017018 1.1251022 0.083423518 5
-1.0289936 1.1313478 0.14171524 6
-1.0276008 1.1371192 0.028272899 8
-0.99649948 1.1298816 0.083214171 26
-1.021837 1.135778 0.1411923 39
-0.99329025 1.1345339 0.027679516 28
-0.99918503 1.1359264 0.083423518 88
-1.0186763 1.1405302 0.14101799 86
-0.9783327 1.1369202 0.027435184 40
-1.0153122 1.1457982 0.084365562 100
-1.0037463 1.1430215 0.13979781 86
-0.98092824 1.1432 0.027504992 41
-0.99070567 1.1455835 0.083109498 100
-1.000499 1.1479709 0.13962349 82
-0.98155731 1.1490221 0.027539898 23
-0.96999747 1.1461613 0.082062781 100
-1.0049725 1.1548167 0.14014643 84
-0.97828549 1.1538788 0.027504992 23
-0.98029763 1.1543841 0.082690813 46
-0.99395782 1.1578153 0.13927488 84
-0.96524233 1.156512 0.027295563 39
-0.97887856 1.1599904 0.082690813 33
-0.9905954 1.1629792 0.13910057 80
-0.96001214 1.1607969 0.027225753 61
-0.99490994 1.1698285 0.083632857 63
-0.9814989 1.1663578 0.13840333 92
-0.96637541 1.1680965 0.027365373 68
-0.96645969 1.1681186 0.082167454 100
-0.9762519 1.1706893 0.1380547 92
-0.96497649 1.1733872 0.027365373 78
-0.95155066 1.1698123 0.081434749 88
-0.9786945 1.1770399 0.13840333 100
-0.96749181 1.1794508 0.027435184 80
-0.95600146 1.1763504 0.081748761 100
-0.96964198 1.1800308 0.13770607 100
-0.94290751 1.1784133 0.027016325 93
-0.95842677 1.1826589 0.081958108 100
-0.95667082 1.1821785 0.1366602 100
-0.94147271 1.183622 0.027016325 92
-0.95120329 1.1863205 0.081644088 100
-0.95906264 1.1885002 0.13700883 91
-0.94772023 1.1909902 0.027155945 92
-0.93820447 1.1883154 0.081016064 86
-0.95951074 1.1943043 0.13718314 94
-0.95208579 1.1975969 0.027260659 72
-0.92912537 1.1910608 0.080597371 76
-0.96001166 1.1998532 0.13735744 100
-0.96403354 1.206717 0.027504992 47
-0.92764658 1.1962214 0.080597371 40
-0.94701594 1.2018085 0.13631158 99
-0.93954283 1.2050085 0.027086135 46
-0.93197662 1.2027988 0.08091139 22
-0.94940072 1.2078874 0.1366602 84
-0.92267495 1.205667 0.026806897 75
-0.92662638 1.206836 0.080702044 26
-0.94977361 1.2136838 0.13683452 84
-0.91348296 1.2085092 0.026667276 78
-0.91743964 1.2096946 0.080283359 32
-0.93676442 1.2154851 0.13578865 98
-0.91959757 1.2159376 0.026806897 78
-0.90825111 1.2124946 0.079864666 85
-0.93138725 1.2195151 0.13544002 98
-0.91803199 1.2210647 0.026806897 78
-0.91433424 1.2199285 0.080283359 100
-0.92219108 1.2223426 0.13474278 98
-0.90499192 1.2226224 0.026597468 88
-0.91275483 1.2250373 0.080283359 86
-0.9206031 1.2274787 0.13474278 71
-0.90332323 1.2279522 0.026597468 88
-0.91869682 1.2327965 0.080702044 66
-0.91131538 1.2304705 0.13404553 49
-0.89409524 1.2305919 0.026457848 81
-0.90375274 1.2336721 0.079969339 76
-0.91539365 1.237385 0.13456847 43
-0.90389675 1.2393156 0.026667276 83
-0.89642328 1.2369032 0.079655327 91
-0.91564935 1.2431093 0.13474278 45
-0.89464623 1.2419041 0.026527658 96
-0.89668328 1.2425694 0.07976 100
-0.91588277 1.2488412 0.1349171 59
-0.88539547 1.2444338 0.026388038 100
-0.8988176 1.2488701 0.079969339 100
-0.902852 1.2502036 0.13387123 80
-0.87622803 1.2466557 0.02624842 99
-0.89532727 1.2530389 0.079864666 100
-0.90314132 1.2556503 0.13404553 87
-0.8784284 1.2526629 0.02631823 93
-0.88804108 1.255911 0.079550654 100
-0.90907294 1.2630177 0.13474278 78
-0.87682003 1.2573971 0.02631823 99
-0.87697166 1.2574489 0.079027295 100
-0.90177375 1.2659211 0.13421984 89
-0.88241094 1.2657368 0.026457848 89
-0.87689084 1.2638264 0.079131968 100
-0.88470882 1.2665321 0.13282534 97
-0.8618837 1.2638814 0.0261088 79
-0.86958975 1.266577 0.078817949 89
-0.88681561 1.2726027 0.13317397 60
-0.85629374 1.2677186 0.026038991 77
-0.86587733 1.2711103 0.078713275 55
-0.88872033 1.2791951 0.1335226 43
-0.86028427 1.2743995 0.026143705 83
-0.85292417 1.2717671 0.078085244 21
-0.89077586 1.285305 0.13387123 38
-0.86039549 1.2799993 0.02617861 96
-0.86055535 1.2800571 0.07860861 48
-0.87210542 1.2842336 0.13230242 22
-0.86245304 1.286046 0.02624842 99
-0.85698026 1.2840464 0.078503937 89
-0.8647781 1.2868955 0.13177948 15
-0.8492977 1.2870607 0.026038991 100
-0.85696012 1.2898921 0.07860861 100
-0.86474305 1.292768 0.13195379 7
-0.83258802 1.2861035 0.025759751 100
-0.84025925 1.2889671 0.077771232 82
-0.87233454 1.3009404 0.13282534 1
-0.8308689 1.2906854 0.025759751 100
-0.83292419 1.2914605 0.077457212 51
-0.85938054 1.3014364 0.13177948 1
-0.84034711 1.2995322 0.025969181 79
-0.83118731 1.2960435 0.077457212 53
-0.85574859 1.305398 0.13160518 13
-0.84026307 1.3053432 0.026004085 72
-0.83297771 1.3025377 0.077666558 68
-0.85191745 1.3098308 0.13143086 52
-0.82916158 1.3063266 0.025829561 81
-0.83678859 1.3092926 0.077980578 68
-0.84454888 1.3123105 0.13090792 100
-0.82337016 1.3101544 0.025759751 93
-0.82913154 1.3124204 0.077666558 63
-0.83318561 1.3140149 0.13003637 97
-0.8141374 1.3117533 0.025620133 100
-0.82361287 1.3155165 0.077457212 89
-0.83878082 1.3215401 0.13073361 97
-0.81585413 1.3182392 0.025689943 100
-0.81975061 1.3198032 0.077352546 95
-0.83859891 1.3273687 0.13090792 100
-0.81773525 1.3242676 0.025759751 100
-0.82717508 1.3280932 0.077875905 97
-0.82751042 1.328229 0.13003637 100
-0.78383023 1.3105278 0.17671055 15
-0.80838948 1.3260086 0.025620133 100
-0.81782502 1.3298707 0.077457212 97
-0.81449002 1.3285055 0.1289905 100
-0.7929582 1.3196924 0.17817298 14
-0.79914564 1.3274555 0.025480513 100
-0.81411499 1.3336408 0.077352546 95
-0.81263036 1.3330274 0.1289905 100
-0.78378934 1.3211105 0.17719802 18
-0.79719156 1.3321615 0.025480513 100
-0.7992366 1.333015 0.076619841 100
-0.82168907 1.342384 0.13003637 100
-0.76903361 1.3204117 0.17549185 16
-0.79900581 1.3381784 0.025550323 100
-0.78999954 1.334385 0.076201156 99
-0.82161969 1.347703 0.13021068 100
-0.78732497 1.3332586 0.17817298 22
-0.80049402 1.3449204 0.025620133 92
-0.8006863 1.3450024 0.076933853 72
-0.79922622 1.3443809 0.12829325 99
-0.77601999 1.3345016 0.17695428 16
-0.8132785 1.3557106 0.025899371 61
-0.82079285 1.3589391 0.078189917 46
-0.80097526 1.3504248 0.12864187 28
-0.79785126 1.3490826 0.18012288 5
-0.80205303 1.3564869 0.025724847 90
-0.81506413 1.3621309 0.077980578 97
-0.83001417 1.3686159 0.13160518 61
-0.7757892 1.3450943 0.17744176 9
-0.7909413 1.3569579 0.025550323 100
-0.80943376 1.3650525 0.077771232 100
-0.82072073 1.3699931 0.13090792 100
-0.77387482 1.3494877 0.17744176 33
-0.79782158 1.3661469 0.025724847 100
-0.80348569 1.3686521 0.077561885 100
-0.82022899 1.3760579 0.13108224 100
-0.78253263 1.3593845 0.17890419 38
-0.80131561 1.3730581 0.025829561 100
-0.8087886 1.3763931 0.077980578 100
-0.80911452 1.3765385 0.13021068 100
-0.77694529 1.3621821 0.17841671 31
-0.79373258 1.3753073 0.025724847 100
-0.80848461 1.3819528 0.078085244 100
-0.79972261 1.3780057 0.12951343 100
-0.77306014 1.3659952 0.17817298 21
-0.78989738 1.3789327 0.025689943 100
-0.813721 1.3897595 0.078503937 100
-0.80858225 1.3874242 0.1305593 100
-0.75661868 1.3638088 0.17622307 15
-0.79129142 1.3855076 0.025759751 100
-0.80417937 1.3914218 0.078085244 100
-0.8099317 1.3940614 0.13090792 100
-0.75443357 1.3685938 0.17622307 15
-0.79831642 1.3941523 0.025934275 100
-0.79667372 1.3933918 0.077771232 100
-0.81147093 1.4002416 0.13125655 100
-0.76685292 1.3795874 0.17817298 12
-0.80326623 1.4024767 0.026073895 100
-0.80523616 1.4033974 0.078399263 100
-0.80915183 1.4052274 0.13125655 100
-0.76640815 1.3852503 0.17841671 7
-0.79392618 1.40355 0.025934275 100
-0.80854803 1.4104431 0.078713275 100
-0.80343348 1.4080319 0.13090792 100
-0.77154297 1.3929982 0.17939167 3
-0.78459412 1.4045684 0.025794657 100
-0.81363183 1.4183753 0.079131968 100
-0.80490893 1.4142277 0.13125655 100
-0.78739733 1.4059013 0.18182907 3
-0.78789181 1.4115846 0.025899371 100
-0.8006689 1.4177119 0.078503937 100
-0.81354421 1.4238863 0.13230242 100
-0.79621691 1.4219465 0.0261088 100
-0.79817194 1.4228933 0.078503937 100
-0.80385071 1.4256434 0.13160518 100
-0.80842239 1.4334276 0.026388038 100
-0.79958874 1.4291134 0.078713275 100
-0.80524963 1.4318781 0.13195379 100
-0.79174811 1.4310948 0.0261088 100
-0.80444616 1.4373512 0.079131968 100
-0.80293101 1.4366047 0.13195379 100
-0.78954846 1.4355406 0.0261088 100
-0.805803 1.4436164 0.079341307 100
-0.800713 1.4410875 0.13195379 100
-0.78698307 1.4406791 0.0261088 100
-0.80142134 1.4479218 0.079236634 100
-0.80346888 1.448949 0.13247673 100
-0.79545826 1.4505243 0.02631823 100
-0.79916579 1.4523995 0.079236634 100
-0.81365532 1.4597282 0.13369691 100
-0.80007941 1.4590874 0.026457848 100
-0.79843456 1.4582479 0.079341307 100
-0.80579442 1.4620044 0.13317397 100
-0.79067451 1.4599007 0.02631823 100
-0.79969662 1.4645435 0.079550654 100
-0.79994899 1.4646733 0.13282534 100
-0.78482932 1.462501 0.02624842 100
-0.80447751 1.4726944 0.079969339 100
-0.80471224 1.4728162 0.1335226 100
-0.78961343 1.4706306 0.026388038 100
-0.79506058 1.4734796 0.079550654 100
-0.81296712 1.4828448 0.13456847 100
-0.79411083 1.4792689 0.026527658 89
-0.78894037 1.4765406 0.079341307 100
-0.8050589 1.4850461 0.13404553 99
-0.79551929 1.486028 0.13334829 48
0.12836489 1.2925382 0.13051336 5
0.16615948 1.2491113 0.010715778 13
0.13790539 1.2843782 0.03454173 27
0.14140162 1.2800142 0.057174169 23
0.13748002 1.284909 0.10449822 11
0.15474167 1.263363 0.122881 24
0.17959562 1.2323402 0.13677025 7
0.13569853 1.2871327 0.17754987 6
0.16036519 1.2598381 0.010925206 78
0.15710995 1.2639306 0.033076324 58
0.14566496 1.2783189 0.056825545 47
0.16321057 1.256261 0.076290213 29
0.16264424 1.2569729 0.09855371 24
0.15524408 1.2662762 0.12326261 85
0.19212982 1.2199044 0.13272113 15
0.15434265 1.2674094 0.17030293 14
0.15818626 1.2657664 0.011029921 100
0.17600131 1.2432247 0.031610917 100
0.14232233 1.2858391 0.057522789 100
0.17212528 1.2481291 0.074827775 30
0.17030019 1.2504385 0.096989371 37
0.15437049 1.2705945 0.12402584 100
0.19475335 1.2194977 0.13227122 39
0.14632446 1.2807752 0.17444403 42
0.16238806 1.2639847 0.010960111 100
0.17272371 1.2508125 0.032029606 100
0.15396482 1.2747195 0.056128297 100
0.15909156 1.2681859 0.077752642 28
0.18417376 1.2362202 0.093860678 26
0.16217998 1.2642498 0.12211776 100
0.19151261 1.2268674 0.13407083 46
0.15526518 1.2730622 0.1713382 43
0.17280179 1.2543581 0.010715778 100
0.1720342 1.2553437 0.032238949 90
0.15581736 1.2761676 0.056128297 97
0.18409416 1.2398576 0.073121607 31
0.1786027 1.2469091 0.095737889 25
0.1760568 1.2501783 0.11830158 100
0.18121603 1.2435534 0.13856985 29
0.16185954 1.2684089 0.16926765 44
0.17571798 1.2540897 0.010680873 80
0.16884404 1.2629803 0.032657638 59
0.15880531 1.2759643 0.055953987 73
0.17116594 1.2599772 0.076046467 29
0.18026969 1.2482026 0.095737889 25
0.19002315 1.2355876 0.13587044 22
0.14587697 1.2926855 0.17703223 27
0.17367166 1.2600863 0.010785587 65
0.17656296 1.256321 0.032134276 30
0.17019281 1.2646167 0.054559495 50
0.18730083 1.2423372 0.073121607 62
0.17704517 1.2556931 0.096989371 50
0.18889949 1.2402554 0.11524864 13
0.20106393 1.2244139 0.13227122 23
0.15114221 1.2894261 0.17547931 56
0.17053527 1.2677581 0.010925206 52
0.17099759 1.2671516 0.032762308 29
0.16950583 1.2691085 0.054908119 50
0.18413782 1.2499151 0.07409656 76
0.19550928 1.2349987 0.092609204 53
0.18697241 1.2461969 0.11639348 19
0.20737809 1.21943 0.13047162 40
0.16701236 1.2723792 0.16926765 59
0.16753617 1.2755244 0.011064826 38
0.16800213 1.2749085 0.033180997 28
0.17013562 1.2720885 0.055082429 50
0.19308546 1.2417544 0.072634131 94
0.19602415 1.2378702 0.092922069 53
0.19345829 1.2412617 0.11486702 13
0.20902762 1.2206827 0.13047162 48
0.18051201 1.2583735 0.16409127 69
0.18611622 1.2544715 0.010576159 40
0.17936271 1.2634631 0.032343622 30
0.17548019 1.2686323 0.054559495 50
0.18758136 1.2525209 0.07409656 61
0.20359114 1.2312057 0.09135773 54
0.19864264 1.237794 0.11372216 13
0.20592153 1.2281029 0.13227122 39
0.18105882 1.261205 0.16460891 69
0.18764001 1.2556124 0.010576159 54
0.18091479 1.2646251 0.032343622 30
0.17824006 1.2682096 0.054385185 51
0.19503489 1.2457021 0.072877869 94
0.19440949 1.2465403 0.094173551 78
0.2012881 1.2373221 0.11334054 20
0.20270067 1.235429 0.13407083 31
0.1791378 1.2670065 0.16616182 68
0.19052765 1.2552674 0.010541254 81
0.204043 1.2370224 0.030459527 32
0.17879546 1.2711052 0.054559495 76
0.20378727 1.2373676 0.071415432 64
0.19372341 1.2509533 0.094799288 77
0.20642731 1.2338037 0.11219569 14
0.21708715 1.2194135 0.1291219 32
0.18432471 1.263641 0.16460891 69
0.19002533 1.259867 0.010611063 94
0.20465609 1.2399569 0.030564198 64
0.18898091 1.2612882 0.053339314 78
0.20440888 1.2402933 0.071659178 80
0.20727003 1.2363997 0.091670595 94
0.20704818 1.2367016 0.1125773 13
0.21766129 1.2222589 0.12957181 24
0.18393493 1.268155 0.16564418 68
0.18466648 1.2708137 0.010820492 78
0.20629868 1.2411594 0.030564198 64
0.18365288 1.2722032 0.054385185 76
0.20254296 1.2463078 0.072390392 95
0.21006432 1.2359973 0.09135773 94
0.20405129 1.2442403 0.11410378 13
0.23991436 1.1950777 0.12147357 8
0.18909159 1.2647476 0.16409127 69
0.19579968 1.2591288 0.010541254 81
0.206774 1.243974 0.03066887 96
0.19125095 1.2654103 0.053513627 100
0.19489342 1.2603803 0.074340299 100
0.21169305 1.2371811 0.09135773 94
0.20686027 1.2438548 0.11372216 13
0.23568523 1.2040493 0.12372308 16
0.19648606 1.258181 0.16150309 70
0.20451233 1.2506199 0.010331824 98
0.20843056 1.2451692 0.03066887 64
0.1953083 1.263424 0.053165004 100
0.21166998 1.2406627 0.071171694 81
0.21101987 1.241567 0.091983467 100
0.22570521 1.2211378 0.10799789 14
0.23947716 1.2019792 0.12282328 17
0.1970647 1.2609806 0.16202073 70
0.19913724 1.2615285 0.010541254 81
0.21697044 1.2365457 0.03004084 66
0.19000116 1.2743273 0.054210871 100
0.20515943 1.2530918 0.072877869 47
0.21258551 1.2426885 0.091983467 93
0.20667174 1.2509732 0.11486702 20
0.232986 1.2141092 0.12597258 16
0.19981718 1.2605759 0.16150309 70
0.20085514 1.2627501 0.010541254 95
0.21629164 1.2409645 0.030250182 98
0.19406757 1.2723296 0.053862248 100
0.21488148 1.2429547 0.071171694 81
0.2153796 1.2422516 0.091670595 100
0.21062282 1.248965 0.11410378 27
0.22890493 1.2231634 0.12822211 16
0.20153174 1.2617953 0.16150309 70
0.19797567 1.2705085 0.010680873 93
0.21449062 1.2470275 0.030564198 97
0.20040801 1.2670501 0.053165004 100
0.20168838 1.2652297 0.074340299 100
0.22839427 1.2272593 0.08854191 100
0.19761404 1.2710226 0.11906482 65
0.22936761 1.2258754 0.128672 32
0.20325056 1.2630086 0.16150309 70
0.21117181 1.2553377 0.010331824 84
0.22187427 1.2400075 0.03004084 66
0.20442617 1.2650001 0.05281638 100
0.21364614 1.2517934 0.072146654 63
0.22320774 1.2380974 0.090419121 100
0.20610806 1.262591 0.1167751 100
0.22649878 1.2333833 0.13047162 80
0.20829114 1.259464 0.15995017 72
0.21734008 1.2498848 0.010192205 99
0.22229683 1.2427344 0.030145511 98
0.20833972 1.2628685 0.052467756 100
0.21411476 1.2545376 0.072390392 47
0.22138563 1.2440488 0.09135773 94
0.22452074 1.2395263 0.11105084 84
0.22026569 1.2456645 0.13362093 93
0.21101674 1.2590067 0.15943253 73
0.21675023 1.254338 0.010262015 98
0.22281685 1.2455208 0.030250182 65
0.21006224 1.2640581 0.052467756 100
0.22480994 1.242624 0.070440479 65
0.21632406 1.2549573 0.093234941 100
0.22393599 1.2438943 0.11181407 91
0.23076501 1.2339692 0.13002171 88
0.20506042 1.2713277 0.163056 70
0.21384606 1.262045 0.010401634 83
0.22664884 1.243305 0.03004084 66
0.19709161 1.2865694 0.054733805 100
0.22637904 1.2436999 0.070440479 49
0.22573429 1.2446436 0.091044858 100
0.22550926 1.2449729 0.11181407 91
0.23010677 1.2382433 0.13092151 96
0.20781454 1.2708735 0.16253836 70
0.21444339 1.2648705 0.010436539 55
0.22381938 1.2510431 0.030459527 65
0.20560589 1.2779038 0.053687938 78
0.20352504 1.2809726 0.075802729 100
0.23515338 1.2343279 0.088854775 98
0.22716922 1.2461028 0.11181407 91
0.23502421 1.2345184 0.12957181 96
0.21390176 1.2656693 0.1604678 72
0.22295657 1.2561419 0.01022711 42
0.21443638 1.2688069 0.031506244 31
0.22415143 1.2543658 0.051073264 55
0.22423682 1.2542388 0.071659178 80
0.23685735 1.2354788 0.088854775 98
0.22782052 1.2489117 0.11219569 91
0.23237789 1.2421374 0.13137141 100
0.22111234 1.2588834 0.15787962 73
0.22687629 1.2539544 0.0101573 28
0.22505191 1.2566869 0.03066887 32
0.2269505 1.2538433 0.050898954 55
0.22592911 1.255373 0.071659178 80
0.23409653 1.2431405 0.090106249 100
0.23821545 1.2369714 0.10914274 85
0.23294577 1.244864 0.13182132 100
0.21853 1.2664549 0.15995017 72
0.22627318 1.2583568 0.01022711 28
0.22004646 1.26775 0.031296901 31
0.21975011 1.2681971 0.052293446 53
0.23302445 1.2481722 0.070440479 65
0.23348439 1.2474784 0.090731993 95
0.24301991 1.2330935 0.10799789 87
0.2399058 1.2377913 0.12957181 96
0.22017813 1.2675514 0.15995017 72
0.22578174 1.262825 0.010296919 28
0.23276299 1.2522132 0.030250182 32
0.22039613 1.2710114 0.052467756 53
0.23360449 1.2509341 0.070684217 65
0.24383846 1.235378 0.088229038 98
0.23061106 1.2554842 0.11295892 89
0.24689579 1.2307308 0.1273223 97
0.21873164 1.2735415 0.16150309 70
0.22750401 1.2639537 0.010296919 42
0.23226443 1.2566624 0.030459527 32
0.2319499 1.2571441 0.050898954 55
0.23962608 1.2453868 0.069709264 83
0.25302419 1.2248656 0.086038955 100
0.23982066 1.2450888 0.1102876 85
0.24530983 1.2366812 0.128672 97
0.22577193 1.2666067 0.15891489 73
0.23575431 1.255007 0.010087491 28
0.23396513 1.2577685 0.030459527 32
0.23473567 1.2565793 0.05072464 56
0.23481092 1.2564632 0.071171694 65
0.24924311 1.2341884 0.087603301 99
0.24788615 1.2362828 0.10799789 87
0.24482143 1.2410129 0.12957181 88
0.23696157 1.2531438 0.15425615 75
0.23744923 1.256101 0.010087491 71
0.2389102 1.2538289 0.030145511 65
0.22889328 1.2694079 0.051944822 54
0.23865807 1.254221 0.070684217 81
0.24552357 1.2435433 0.089167647 84
0.24739206 1.2406373 0.10876112 87
0.24752137 1.2404362 0.1291219 96
0.22820196 1.270483 0.15943253 73
0.2434504 1.250446 0.0099478718 58
0.25026968 1.2397583 0.029203463 68
0.22635177 1.2772441 0.05264207 53
0.245689 1.2469375 0.069465525 49
0.24505335 1.2479337 0.089793384 55
0.25326079 1.2350705 0.10723466 81
0.25440636 1.2332751 0.12687239 90
0.23202917 1.2683461 0.15839726 73
0.23764127 1.2633398 0.010192205 85
0.24656919 1.249239 0.029726824 100
0.22705856 1.2800541 0.05281638 79
0.2473557 1.2479968 0.069465525 49
0.2551772 1.2356435 0.087290429 71
0.24438369 1.2526908 0.11105084 84
0.26123759 1.2260717 0.12462288 92
0.23067039 1.2743496 0.15995017 64
0.24042907 1.2627338 0.0101573 71
0.24611884 1.2536776 0.029936166 99
0.2341406 1.272743 0.051944822 81
0.25008211 1.2473694 0.069221787 83
0.26100791 1.2299792 0.086038955 72
0.25233707 1.2437803 0.10876112 79
0.26283136 1.2270769 0.12462288 100
0.24065465 1.2623749 0.15580906 67
0.24955621 1.2519329 0.0099129668 87
0.25626194 1.2411764 0.029098792 100
0.25170794 1.2484813 0.049330149 87
0.25070009 1.250098 0.069465525 49
0.25843516 1.2376904 0.087290429 71
0.25295407 1.2464825 0.10914274 92
0.26133576 1.2330376 0.12597258 99
0.25055131 1.2503366 0.15166797 69
0.25334427 1.2495774 0.0098431576 88
0.25580707 1.2455959 0.029308135 100
0.23975432 1.2715471 0.051596198 82
0.25446635 1.2477634 0.068978049 50
0.25799114 1.2420652 0.087916173 70
0.26184869 1.235829 0.10647142 73
0.26192865 1.2356997 0.12642249 99
0.24206701 1.2678083 0.15684435 66
0.24865827 1.2607832 0.010052586 86
0.25634077 1.248271 0.029412808 100
0.2372492 1.2793646 0.052293446 80
0.25501361 1.2504325 0.069221787 50
0.26162535 1.2396642 0.087290429 57
0.25620422 1.2484933 0.10914274 78
0.26959255 1.2266884 0.12372308 92
0.23967621 1.2754118 0.15891489 65
0.25349438 1.2567087 0.0099478718 73
0.26320755 1.2407647 0.028889447 100
0.23591942 1.2855577 0.05281638 79
0.25772521 1.249764 0.068978049 50
0.265322 1.237294 0.086664692 57
0.24970499 1.262929 0.11219569 91
0.27422997 1.2226716 0.12237337 85
0.25245401 1.2584165 -0.0099827768 86
0.24144229 1.2764921 0.15891489 73
0.25105751 1.2645863 0.010087491 71
0.2627863 1.2451816 0.029098792 100
0.2521497 1.2627792 0.05037602 84
0.25837481 1.2524801 0.069221787 50
0.26899853 1.2349037 0.086038955 58
0.26361409 1.243812 0.10761628 72
0.27681983 1.2219638 0.12192347 85
0.2541607 1.2594521 -0.0099827768 86
0.25020733 1.2659929 0.15529142 58
0.2599847 1.2536219 0.0098431576 88
0.25931087 1.2547456 0.029622151 100
0.25284696 1.2655246 0.05055033 84
0.2621026 1.2500902 0.068734311 33
0.26655939 1.2426581 0.087290429 57
0.26325038 1.2481762 0.10837951 79
0.27439025 1.2295997 0.12372308 83
0.25293404 1.2653795 0.15477379 67
0.26576436 1.2477572 0.0097035384 100
0.25998354 1.2574738 0.029726824 100
0.25763458 1.2614222 0.050027397 100
0.2627652 1.2527983 0.068978049 50
0.27023101 1.2402494 0.086664692 57
0.26793265 1.2441125 0.10723466 88
0.27001798 1.2406075 0.12642249 90
0.25664052 1.263093 0.15373851 68
0.26540092 1.2521906 0.0097733475 89
0.26777804 1.2481631 0.029098792 100
0.25125003 1.2761662 0.051421888 82
0.26848826 1.2469598 0.068003096 51
0.2738823 1.2378209 0.086038955 58
0.26260403 1.2569294 0.10990598 92
0.27661502 1.2331908 0.12417299 75
0.25247186 1.274096 0.15684435 66
0.2660754 1.2549068 0.0098082526 74
0.27247638 1.2439747 0.028784776 100
0.25301871 1.2772059 0.051421888 100
0.27015486 1.2479396 0.068003096 51
0.27451888 1.2404864 0.086351827 58
0.27025744 1.2477643 0.10761628 72
0.28512618 1.2223705 0.12102367 86
0.26102337 1.263535 -0.0099827768 86
0.26009008 1.265129 0.15373851 68
0.26475665 1.2610824 0.0099129668 87
0.26911679 1.2535758 0.029308135 100
0.26179597 1.2661796 0.050201707 85
0.26883376 1.2540631 0.068734311 33
0.28211585 1.2311964 0.084474608 59
0.2660104 1.2589239 0.10990598 92
0.28572807 1.2249775 0.12147357 86
0.26776978 1.2558949 -0.0098082526 77
0.26182017 1.266138 0.15373851 68
0.27146426 1.2534118 0.0097384425 60
0.27080649 1.2545534 0.029308135 100
0.26850316 1.2585509 0.049330149 87
0.26755202 1.2602017 0.069465525 49
0.28175494 1.2355518 0.085100345 58
0.2765401 1.2446024 0.10647142 73
0.28342625 1.2326512 0.12327318 85
0.26741162 1.2604454 0.15166797 69
0.27513793 1.2509089 0.0096686333 90
0.27249959 1.255525 0.029308135 100
0.26427829 1.2699094 0.05037602 84
0.27123496 1.2577376 0.068978049 50
0.28338167 1.2364854 0.085100345 58
0.27722424 1.2472587 0.10685304 81
0.28504282 1.2335789 0.12327318 76
0.26624948 1.2664604 0.15322088 76
0.2767342 1.2518177 0.0096686333 75
0.27805245 1.2494934 0.028889447 100
0.26397178 1.2743201 0.05072464 84
0.28362635 1.2396656 0.06629692 35
0.28005743 1.2459582 0.086664692 57
0.27977693 1.2464528 0.10647142 81
0.28946573 1.2293696 0.12192347 85
0.26885042 1.2657182 0.15270324 68
0.27449596 1.25974 0.0098082526 59
0.28168634 1.2469583 0.028680105 100
0.26866451 1.2701061 0.050201707 85
0.27456132 1.2596239 0.068978049 50
0.28850013 1.234846 0.084474608 59
0.27470368 1.2593708 0.10914274 85
0.2958481 1.2217841 0.11967396 78
0.26679379 1.2734315 0.15477379 67
0.2762928 1.2607465 0.0098082526 89
0.285382 1.2444499 0.02847076 100
0.27244034 1.2676538 0.049853086 85
0.27829158 1.2571628 0.068490572 50
0.29020563 1.2358013 0.084474608 59
0.28128064 1.2518035 0.10723466 81
0.29560721 1.2261165 0.12057377 86
0.2762928 1.2607465 -0.0098082526 88
0.27052286 1.2710917 0.15373851 68
0.28381515 1.2512 0.0095988233 76
0.29284036 1.2348846 0.027842728 100
0.27996564 1.258159 0.048807215 88
0.27999374 1.2581083 0.068490572 50
0.28992081 1.2401624 0.085100345 58
0.28201377 1.2544565 0.10761628 79
0.29625764 1.228707 0.12102367 86
0.27413571 1.2686982 -0.0099478718 86
0.2741439 1.2686834 0.15270324 68
0.28541234 1.2520801 0.0095988233 76
0.28092986 1.2602472 0.029308135 100
0.28254452 1.2573053 0.048632905 88
0.28543431 1.25204 0.067515619 51
0.28958046 1.2444857 0.08572609 58
0.28362176 1.2553425 0.10761628 79
0.29309204 1.2380877 0.12327318 76
0.27858761 1.2645148 0.15115032 77
0.28414348 1.2582234 0.0097035384 90
0.2901983 1.2471043 0.02847076 100
0.27082244 1.2826865 0.051073264 83
0.2908316 1.2459412 0.066540658 52
0.29021066 1.2470815 0.086038955 72
0.28898826 1.2493265 0.1060898 81
0.27745736 1.270502 0.15270324 76
0.28869987 1.2538699 0.0095988233 76
0.28996724 1.251523 0.028680105 100
0.28018743 1.2696331 0.049678773 86
0.28023237 1.2695498 0.069709264 83
0.29750934 1.2375567 0.084161744 59
0.29159588 1.2485071 0.10570818 73
0.2810984 1.2679461 -0.0098780617 97
0.2792061 1.2714503 0.15270324 76
0.28369546 1.2670724 0.0098431576 88
0.29345185 1.2488616 0.02847076 100
0.28466842 1.2652564 0.049155839 87
0.29032743 1.2546935 0.067515619 51
0.29040268 1.2545531 0.10685304 73
0.28369546 1.2670724 -0.0098431576 97
0.28816888 1.2587225 0.14856213 71
0.29396001 1.2521501 0.0095290141 92
0.28771481 1.2639104 0.029308135 100
0.28928876 1.2609465 0.048632905 88
0.2902436 1.2591484 0.068003096 51
0.29586354 1.2485656 0.10532656 75
0.29020849 1.2592145 -0.0096686333 89
0.28814977 1.2630913 0.14959741 70
0.29462826 1.2547657 0.0095639192 91
0.2949394 1.2541751 0.028680105 100
0.29184684 1.2600455 0.048458595 88
0.29556793 1.2529819 0.067028143 51
0.28978637 1.2639569 0.14959741 78
0.29926714 1.2504244 0.009459204 77
0.29004306 1.2680985 0.049155839 87
0.29926124 1.2504356 0.066540658 52
0.29957446 1.2498355 0.08572609 58
0.29257876 1.2632399 0.14907977 78
0.29350704 1.2654599 0.0097384425 90
0.28803235 1.2760352 0.049853086 85
0.29998633 1.252944 0.10570818 73
0.2898297 1.2725632 -0.0098780617 97
0.28799886 1.2760999 0.15270324 68
0.29989308 1.2574923 0.047935657 59
0.29691032 1.2633061 0.14856213 71
0.29909211 1.2630725 0.028994121 100
0.29881999 1.2636073 0.068003096 51
0.29768294 1.2745252 0.15115032 77
