# .PCD v0.7 - Point Cloud Data file format
VERSION 0.7
FIELDS x y z intensity
SIZE 4 4 4 4
TYPE F F F F
COUNT 1 1 1 1
WIDTH 718
HEIGHT 1
VIEWPOINT 0 0 0 1 0 0 0
POINTS 718
DATA ascii
-1.1503209 0.15266827 0.060814381 22
-1.1743653 0.16441928 0.020698555 22
-1.1116176 0.15563416 0.058825616 30
-1.1242992 0.16141313 0.019825934 5
-1.0446199 0.15351094 0.018429741 6
-1.0065067 0.15150116 0.01776655 5
-1.0692155 0.16475905 0.018883504 1
-1.0138814 1.1255922 0.084051549 3
-1.0411534 1.1317933 0.14276111 4
-1.0398657 1.1373417 0.028482327 7
-0.99511689 1.1270024 0.083109498 9
-1.0224094 1.1333084 0.1411923 13
-0.99769133 1.1332927 0.027749326 12
-1.0133054 1.1369579 0.084156215 65
-1.0133731 1.1369737 0.14049506 52
-0.99258751 1.1374962 0.027679516 41
-1.0101371 1.141677 0.084051549 100
-1.0160239 1.1430795 0.14084367 100
-0.98352081 1.1409976 0.027539898 37
-0.99135882 1.1428939 0.083109498 100
-1.0127754 1.1480751 0.14066938 87
-0.98991829 1.1485252 0.027679516 32
-0.96864694 1.1432965 0.081958108 100
-1.0075097 1.1528493 0.14032075 87
-0.97888654 1.1514777 0.027504992 23
-0.97896177 1.1514964 0.082586139 70
-0.99069887 1.1544249 0.13892625 87
-0.97761315 1.1565455 0.027504992 28
-0.98156065 1.1575444 0.082795486 39
-0.98555249 1.1585546 0.13857763 78
-0.95882267 1.1573998 0.027190849 50
-0.97246057 1.1609014 0.082376793 36
-0.97839743 1.1624258 0.1380547 89
-0.95939642 1.1631683 0.027225753 61
-0.96335572 1.1641996 0.081958108 88
-0.98280257 1.1692652 0.13857763 89
-0.96768147 1.1709888 0.027400278 71
-0.96583241 1.1705002 0.082167454 98
-0.98717839 1.1761401 0.13910057 91
-0.96047789 1.1747313 0.027295563 81
-0.95092076 1.1721705 0.081434749 94
-0.97227973 1.1778936 0.13788038 100
-0.95519644 1.1789528 0.027225753 89
-0.94950777 1.1774073 0.081434749 100
-0.95931059 1.1800706 0.13683452 100
-0.94233578 1.1804974 0.027016325 92
-0.95592338 1.1842349 0.081853434 100
-0.9618569 1.1858671 0.13718314 98
-0.94089371 1.185704 0.027016325 92
-0.93907732 1.1851976 0.081016064 94
-0.96231526 1.191677 0.13735744 91
-0.94328231 1.1919934 0.027086135 92
-0.93377501 1.1893066 0.080806717 84
-0.95699948 1.1958697 0.13700883 100
-0.96871406 1.2049105 0.027574802 56
-0.9342224 1.1950333 0.08091139 62
-0.94784218 1.1989336 0.13631158 100
-0.95374328 1.2063086 0.027330469 41
-0.92505711 1.1979854 0.080492698 22
-0.94633573 1.2041594 0.13631158 91
-0.92918867 1.2047879 0.026911611 63
-0.92738658 1.2042582 0.080702044 26
-0.94672269 1.2099417 0.13648589 85
-0.91999573 1.2076662 0.026771991 74
-0.91820484 1.2071328 0.080283359 26
-0.94135875 1.2140266 0.13613728 89
-0.91845912 1.2127947 0.026771991 75
-0.91284555 1.211102 0.080074012 50
-0.94170731 1.2198049 0.13631158 99
-0.92272049 1.2194128 0.026876707 78
-0.90946454 1.2153676 0.079969339 100
-0.92496246 1.2200969 0.1349171 100
-0.90585822 1.2198281 0.026597468 81
-0.91553396 1.2228178 0.080388032 92
-0.91386431 1.222302 0.13404553 87
-0.89648706 1.2230244 0.026457848 85
-0.9175964 1.2296355 0.080597371 78
-0.91782075 1.2297058 0.13456847 61
-0.90252167 1.2304881 0.026597468 83
-0.89884812 1.2293234 0.079655327 74
-0.91240865 1.2336224 0.13421984 43
-0.90471357 1.2367773 0.026667276 77
-0.89533418 1.2337677 0.079550654 85
-0.92026705 1.241768 0.13509139 45
-0.90117341 1.2412348 0.026632372 83
-0.89560622 1.239427 0.079655327 100
-0.90913635 1.2438207 0.13421984 52
-0.88638598 1.2414265 0.026388038 99
-0.89602202 1.244589 0.07976 100
-0.90196151 1.2465384 0.13369691 73
-0.87714046 1.2439166 0.02624842 99
-0.9019385 1.2521515 0.080178685 100
-0.90974361 1.2547433 0.13456847 85
-0.87547749 1.2488954 0.02624842 96
-0.88131386 1.2508562 0.079131968 100
-0.90426522 1.2585667 0.13421984 78
-0.8813706 1.2564421 0.026388038 96
-0.87395352 1.2539215 0.078817949 100
-0.90821034 1.2655634 0.13474278 82
-0.87966388 1.2614355 0.026388038 99
-0.87414449 1.2595383 0.078922622 100
-0.89139813 1.2654691 0.13334829 100
-0.86660689 1.2624831 0.02617861 85
-0.87808651 1.266474 0.079236634 100
-0.89342362 1.271806 0.13369691 84
-0.86299258 1.2667618 0.026143705 74
-0.87822896 1.2721183 0.079341307 76
-0.90294093 1.2808063 0.13474278 42
-0.86124998 1.2716911 0.026143705 83
-0.85200304 1.2684038 0.077980578 36
-0.89551717 1.2838728 0.13421984 35
-0.86898834 1.2797484 0.02631823 96
-0.84470361 1.2710246 0.077666558 19
-0.88817984 1.2866428 0.13369691 29
-0.86720031 1.2846985 0.02631823 99
-0.85420996 1.2799807 0.07829459 63
-0.87887686 1.2889392 0.13299966 20
-0.84662324 1.2827506 0.025969181 99
-0.85429615 1.2855675 0.078399263 100
-0.8620941 1.2884305 0.13160518 13
-0.83732587 1.2848396 0.025829561 100
-0.85623282 1.2918561 0.07860861 100
-0.83917397 1.2913262 0.025899371 100
-0.8225221 1.2850771 0.07682918 56
-0.87140578 1.303422 0.13282534 1
-0.84108514 1.2975904 0.025969181 96
-0.83192056 1.2941146 0.077457212 51
-0.86022061 1.3048477 0.13195379 5
-0.8411023 1.3031585 0.026004085 71
-0.83754247 1.3017943 0.077875905 55
-0.84718245 1.3054888 0.13090792 24
-0.82804435 1.3036783 0.025794657 74
-0.83381528 1.3059132 0.077771232 68
-0.8285833 1.3038869 0.12933913 60
-0.81695527 1.3046033 0.025620133 81
-0.83017045 1.3097717 0.077666558 59
-0.85092729 1.3178895 0.13160518 100
-0.82251996 1.3123109 0.025759751 96
-0.82084781 1.3116503 0.077247873 76
-0.84344727 1.3205798 0.13108224 97
-0.82071406 1.3168595 0.025759751 100
-0.82646435 1.3191535 0.077666558 91
-0.83791274 1.3237209 0.13073361 99
-0.82250637 1.3231359 0.025829561 100
-0.81712919 1.3209687 0.077247873 95
-0.82488364 1.3240938 0.12968774 100
-0.80575019 1.3218918 0.025550323 100
-0.8207472 1.3279966 0.077561885 100
-0.82294112 1.3288897 0.12968774 100
-0.81423551 1.325346 0.18085411 17
-0.80381554 1.3266208 0.025550323 100
-0.80770773 1.3282211 0.076933853 100
-0.81361097 1.3306482 0.1289905 100
-0.78842109 1.3202915 0.1776855 15
-0.80186433 1.3313432 0.025550323 100
-0.78546077 1.3245318 0.075782463 100
-0.8153258 1.3369329 0.12933913 100
-0.80115873 1.3310502 0.17963541 28
-0.79989654 1.3360586 0.025550323 100
-0.78720075 1.3307347 0.075991809 100
-0.82068807 1.3447771 0.13003637 100
-0.77356285 1.325016 0.17622307 18
-0.80527812 1.3438861 0.025689943 100
-0.78891355 1.3369566 0.076201156 96
-0.80583054 1.34412 0.12881619 100
-0.77344543 1.3304067 0.17646681 18
-0.79591185 1.3454688 0.025550323 67
-0.79794496 1.346338 0.07682918 42
-0.79649037 1.3457161 0.12811895 75
-0.76965588 1.3342426 0.17622307 13
-0.81062311 1.3568217 0.025864467 67
-0.81996924 1.3608525 0.078189917 61
-0.82394689 1.362568 0.13090792 20
-0.79521865 1.3501778 0.17987914 8
-0.79573256 1.3559792 0.025620133 100
-0.80141765 1.3584547 0.077247873 100
-0.82369679 1.3681558 0.13108224 82
-0.77680486 1.3477374 0.1776855 20
-0.79164225 1.3603368 0.025585229 100
-0.80097634 1.3644438 0.077352546 100
-0.81956631 1.3726236 0.13090792 100
-0.78366166 1.3568251 0.17890419 38
-0.79688352 1.3682632 0.025724847 100
-0.80984491 1.3740206 0.077980578 100
-0.81381267 1.375783 0.1305593 100
-0.77072006 1.356642 0.17744176 24
-0.79499739 1.3724917 0.025724847 100
-0.80794054 1.3782897 0.077980578 100
-0.80281144 1.3759921 0.12968774 100
-0.78698689 1.3689034 0.17987914 24
-0.78924185 1.3755352 0.025655037 100
-0.81126863 1.3854946 0.07829459 100
-0.80613416 1.383173 0.13021068 100
-0.78669697 1.3743846 0.18012288 19
-0.79621607 1.3843575 0.025829561 100
-0.80366093 1.3877549 0.077980578 100
-0.81123585 1.3912119 0.13090792 100
-0.76110214 1.3683329 0.17695428 16
-0.79587966 1.3898895 0.025864467 100
-0.7996822 1.3916409 0.077875905 100
-0.81629771 1.3992937 0.13160518 100
-0.76441473 1.3753972 0.1776855 13
-0.8045879 1.399641 0.026073895 100
-0.80293745 1.3988739 0.078189917 100
-0.80325228 1.3990202 0.1305593 100
-0.77489442 1.3858389 0.17939167 12
-0.78970879 1.398421 0.025829561 100
-0.80796689 1.4069855 0.07860861 100
-0.79744071 1.4020479 0.13021068 100
-0.77812821 1.3929889 0.18012288 5
-0.7911219 1.4048047 0.025899371 100
-0.81115085 1.4142852 0.078922622 100
-0.80603129 1.4118619 0.13125655 100
-0.79029936 1.4044154 0.1820728 3
-0.79431123 1.4120678 0.026004085 100
-0.80348688 1.4164503 0.07860861 100
-0.80737823 1.4183089 0.13160518 100
-0.79938096 1.4199934 0.026143705 100
-0.8031351 1.4218018 0.078713275 100
-0.81240088 1.426265 0.13230242 100
-0.79890233 1.4255738 0.02617861 100
-0.79905528 1.4256481 0.07860861 100
-0.80830985 1.4301459 0.1321281 100
-0.78942388 1.4267569 0.026038991 100
-0.80213827 1.432991 0.078922622 100
-0.80420834 1.434006 0.13195379 100
-0.79070801 1.4332016 0.0261088 100
-0.81055707 1.4430201 0.079550654 100
-0.80188221 1.438729 0.13195379 100
-0.79554194 1.4414489 0.02624842 100
-0.79926389 1.4433063 0.079027295 100
-0.81736714 1.4523401 0.13369691 100
-0.79318994 1.4461417 0.02624842 100
-0.79868942 1.44891 0.079131968 100
-0.80785853 1.4535257 0.13299966 100
-0.79795367 1.4544476 0.026388038 100
-0.79987305 1.4554222 0.079341307 100
-0.80546433 1.4582613 0.13299966 100
-0.79199654 1.4573256 0.02631823 100
-0.8010276 1.461951 0.079550654 100
-0.80305356 1.4629886 0.13299966 100
-0.78603595 1.4601703 0.02624842 100
-0.80747634 1.471246 0.080074012 100
-0.80593675 1.4704506 0.1335226 100
-0.79425925 1.4703736 0.026457848 100
-0.79616398 1.4713659 0.079550654 100
-0.80701739 1.4770207 0.13387123 100
-0.79547006 1.4766872 0.026527658 100
-0.79029435 1.4739687 0.079341307 100
-0.81524867 1.4870756 0.1349171 100
-0.79652923 1.4832515 0.026597468 61
-0.78076905 1.4749033 0.078922622 63
-0.80745536 1.4890389 0.13439415 91
0.14008248 1.2792883 0.12707879 11
0.18710074 1.2208719 0.13362093 7
0.16041812 1.2573225 0.010890301 26
0.15465707 1.264529 0.033180997 28
0.14442411 1.2773293 0.056825545 23
0.14590952 1.2754712 0.07945881 14
0.15035421 1.2699114 0.10136953 11
0.14790311 1.2729775 0.12517071 48
0.19346526 1.2159843 0.13182132 15
0.15192214 1.2679501 0.17082056 7
0.15599224 1.2665797 0.011064826 100
0.16764498 1.2518934 0.032238949 90
0.1450479 1.2803732 0.056999855 94
0.16503879 1.2551781 0.076046467 14
0.1669229 1.2528034 0.097615108 24
0.16683319 1.2529166 0.11982805 100
0.18541223 1.2295008 0.13542053 30
0.14294308 1.283026 0.17547931 42
0.15764111 1.2678835 0.011064826 100
0.17295375 1.2484527 0.031924933 100
0.15044221 1.2770185 0.056476921 100
0.15559164 1.2704842 0.078240119 28
0.18564346 1.23235 0.093234941 26
0.15871534 1.2665205 0.122881 100
0.19658747 1.2184626 0.13182132 39
0.15182096 1.275269 0.17237349 49
0.16932428 1.2567172 0.010785587 100
0.17594036 1.2482581 0.03182026 100
0.15966797 1.2690634 0.055431053 100
0.16232049 1.265672 0.077265166 29
0.18977445 1.2305703 0.092609204 26
0.17626143 1.2478476 0.11791996 100
0.18622789 1.2351049 0.13632034 38
0.15367556 1.2767251 0.17237349 42
0.16848692 1.2611353 0.010855397 100
0.16650125 1.2636915 0.032762308 58
0.16010281 1.2719285 0.055605363 98
0.16518411 1.2653871 0.077021427 29
0.1743384 1.2536025 0.096989371 25
0.18868747 1.2351304 0.1144854 94
0.18896767 1.2347697 0.13587044 30
0.15061763 1.2841392 0.17444403 42
0.17028958 1.2625303 0.010855397 65
0.17441055 1.257185 0.032238949 60
0.16194507 1.2733542 0.055605363 49
0.18397063 1.2447844 0.073609084 31
0.17370123 1.258105 0.097615108 37
0.18948376 1.2376332 0.13632034 22
0.14896619 1.2901893 0.17599694 48
0.16949362 1.2669623 0.010925206 52
0.16995719 1.2663568 0.032762308 29
0.16603887 1.2714744 0.055256739 49
0.1843403 1.2475717 0.073852822 46
0.1909335 1.2389606 0.093547814 52
0.19194347 1.2376416 0.1144854 13
0.20169875 1.2249006 0.13227122 31
0.15656558 1.283847 0.17340876 57
0.176157 1.2619848 0.010785587 65
0.1766125 1.2613854 0.032343622 30
0.16787943 1.2728783 0.055256739 49
0.18369111 1.2520698 0.074340299 46
0.19384986 1.2387006 0.093234941 53
0.18415746 1.251456 0.11753834 19
0.20690545 1.2215192 0.13092151 40
0.17598358 1.262213 0.16564418 68
0.18019968 1.2600294 0.010715778 39
0.15418217 1.2945058 0.03443706 27
0.1803506 1.2598295 0.053687938 52
0.17931291 1.2612045 0.07555899 60
0.19540611 1.2398791 0.093234941 53
0.20704302 1.2244588 0.11066922 14
0.20840463 1.2226546 0.13092151 40
0.17761788 1.2634506 0.16564418 68
0.18670836 1.2549157 0.010576159 40
0.17996585 1.2639155 0.032343622 30
0.18923029 1.2515496 0.05264207 53
0.19055161 1.2497859 0.073609084 62
0.19823286 1.2395331 0.092922069 53
0.20627719 1.2287956 0.11143246 14
0.2146605 1.2176058 0.1291219 32
0.18165922 1.2616553 0.16460891 69
0.1883184 1.2561178 0.010576159 81
0.18399021 1.2619351 0.032134276 30
0.17655745 1.2719252 0.054733805 50
0.19688439 1.2446047 0.072634131 78
0.1974335 1.2438667 0.093547814 52
0.21014434 1.2267827 0.11066922 14
0.20916712 1.2280961 0.13182132 31
0.1809853 1.2659739 0.16564418 68
0.18891478 1.2590489 0.010611063 81
0.21308136 1.226318 0.029726824 67
0.17958304 1.2716877 0.054559495 76
0.19626808 1.2490897 0.073121607 62
0.20386603 1.2387991 0.092296332 80
0.204824 1.2375016 0.11295892 13
0.21895102 1.2183683 0.128672 32
0.18395308 1.265769 0.16512655 68
0.18817362 1.263469 0.010680873 80
0.21459642 1.2274327 0.029726824 67
0.18713933 1.2648795 0.053687938 78
0.19785875 1.2502601 0.073121607 78
0.21243086 1.2303863 0.090419121 82
0.20985886 1.233894 0.11181407 14
0.22504893 1.2131773 0.12687239 16
0.19016841 1.2607484 0.163056 70
0.19460556 1.2582619 0.010541254 81
0.21031836 1.2366747 0.030250182 65
0.19238651 1.2613106 0.053165004 100
0.20304194 1.2466714 0.072390392 95
0.21403998 1.2315617 0.090419121 96
0.20801416 1.2398403 0.11295892 13
0.24150649 1.1938267 0.12102367 17
0.1987049 1.25263 0.15995017 72
0.20091239 1.2529551 0.010401634 97
0.20952776 1.2410359 0.030459527 65
0.19051626 1.2673379 0.053687938 78
0.19066998 1.2671252 0.075315252 100
0.20978647 1.240678 0.091983467 100
0.21072417 1.2393807 0.1125773 13
0.24747998 1.1885298 0.11922406 17
0.19351715 1.2631862 0.163056 70
0.20035389 1.2574812 0.010471444 96
0.22056901 1.2292969 0.029622151 100
0.19001904 1.2718902 0.054036561 100
0.21100608 1.2426298 0.071415432 64
0.20805994 1.2467372 0.092922069 100
0.20558134 1.250193 0.11486702 13
0.23992971 1.2023041 0.12282328 17
0.19194931 1.2691989 0.16460891 69
0.20197237 1.258638 0.010471444 82
0.22441128 1.2271333 0.029412808 67
0.1928412 1.2714584 0.053862248 100
0.21372685 1.2421345 0.071171694 65
0.21537265 1.2398237 0.09135773 100
0.2117314 1.244936 0.11334054 20
0.23119017 1.2176156 0.12687239 16
0.19472742 1.26881 0.16409127 69
0.20145741 1.2631763 0.010541254 95
0.21110374 1.2495271 0.030773543 96
0.19928113 1.2662557 0.053165004 100
0.21660525 1.2417426 0.070927955 65
0.22393736 1.2313679 0.089480512 97
0.2010105 1.2638087 0.11753834 46
0.23508233 1.2155982 0.12597258 16
0.20213285 1.2622206 0.16150309 70
0.20768952 1.257782 0.010401634 83
0.21613765 1.2457438 0.030459527 97
0.20092872 1.267416 0.053165004 100
0.21246991 1.2509701 0.072146654 79
0.22093022 1.2389145 0.090731993 95
0.20490548 1.2617493 0.1167751 92
0.22424808 1.2341866 0.13092151 48
0.20709619 1.2586275 0.15995017 72
0.20702243 1.2621958 0.010471444 96
0.21771708 1.2468482 0.030459527 65
0.1980238 1.2751095 0.053862248 100
0.21406671 1.2520868 0.072146654 63
0.2179696 1.2464859 0.091983467 100
0.22225201 1.2403404 0.11143246 84
0.22467503 1.2368631 0.13137141 78
0.20430052 1.266102 0.16202073 70
0.21320775 1.2567527 0.010331824 98
0.22043663 1.2463051 0.030354854 97
0.20650265 1.2664434 0.05281638 100
0.22696227 1.2368739 0.069709264 66
0.22292343 1.2427111 0.091044858 100
0.22157937 1.2446536 0.11219569 91
0.23176908 1.2299267 0.1291219 96
0.20704678 1.2656569 0.16150309 70
0.21046695 1.2645782 0.010471444 96
0.23461896 1.2293973 0.029203463 68
0.20606923 1.2709842 0.053165004 100
0.21519345 1.2576934 0.072634131 78
0.22242215 1.2471638 0.091670595 100
0.22443241 1.2442355 0.11181407 84
0.23566282 1.2278769 0.12822211 97
0.20995912 1.2653179 0.16098544 72
0.21436149 1.2623968 0.010401634 83
0.22264495 1.2502446 0.030459527 65
0.20997682 1.2688293 0.05281638 79
0.22128487 1.2522399 0.071659178 64
0.2384702 1.2270283 0.087603301 99
0.22158372 1.2518015 0.11334054 100
0.23498771 1.2321372 0.1291219 96
0.21269161 1.2648466 0.1604678 72
0.21952921 1.2586542 0.010296919 42
0.22888282 1.2448235 0.03004084 33
0.21738815 1.2618202 0.051944822 54
0.22527868 1.2501527 0.071171694 81
0.22465473 1.2510753 0.091983467 100
0.22775111 1.2464969 0.11181407 100
0.23013347 1.2429742 0.13182132 100
0.22208321 1.2548777 0.15684435 74
0.22561041 1.2531068 0.0101573 42
0.2215521 1.2591507 0.030878214 31
0.21679959 1.2662287 0.052293446 53
0.23129913 1.2446347 0.07019674 99
0.23285893 1.2423117 0.090106249 100
0.23589957 1.2377834 0.10952436 99
0.23279002 1.2424144 0.13137141 94
0.21400064 1.2703969 0.16150309 70
0.22516596 1.257621 0.01022711 42
0.21670336 1.2703246 0.031506244 31
0.21641138 1.2707629 0.05264207 53
0.23194033 1.2474518 0.070440479 98
0.23459217 1.2434709 0.090106249 100
0.2354393 1.2421993 0.1102876 85
0.24100602 1.2338428 0.128672 97
0.21690798 1.2700174 0.16098544 72
0.22457853 1.2620313 0.010296919 42
0.22056788 1.2680953 0.031296901 31
0.21587563 1.2751899 0.05299069 52
0.23133522 1.2518153 0.070927955 97
0.24270225 1.2346286 0.088229038 100
0.23917294 1.2399648 0.10952436 85
0.24039584 1.2381158 0.12957181 96
0.21750224 1.2727306 0.16150309 70
0.21102604 1.2866278 0.010785587 39
0.21143904 1.2859983 0.032343622 30
0.21772948 1.2764112 0.05299069 52
0.22983634 1.2579591 0.071659178 80
0.24765825 1.2307969 0.087290429 99
0.23658949 1.2476668 0.11105084 84
0.2453208 1.2343594 0.12822211 97
0.22676557 1.2626393 0.15787962 73
0.23457018 1.2542378 0.010087491 43
0.22841373 1.2636889 0.030878214 31
0.23463514 1.254138 0.05055033 56
0.24012408 1.2457116 0.069709264 83
0.24595344 1.2367625 0.088229038 100
0.23710364 1.2503484 0.11143246 91
0.24579871 1.2370001 0.128672 97
0.23156425 1.2588524 0.1563267 74
0.23626238 1.2553359 0.010087491 43
0.25182447 1.2312622 0.028784776 34
0.23308212 1.2602556 0.051073264 55
0.23639816 1.2551259 0.070927955 97
0.24865699 1.2361621 0.087916173 84
0.24837461 1.236599 0.10799789 87
0.25060451 1.2331494 0.1273223 97
0.22698003 1.2696953 0.15943253 73
0.23571351 1.2597395 0.0101573 57
0.24364737 1.2473766 0.029726824 67
0.22932923 1.2696879 0.051944822 54
0.24444145 1.2461392 0.069465525 49
0.24807072 1.2404838 0.08854191 84
0.25098389 1.2359443 0.10761628 87
0.25003701 1.2374198 0.12822211 97
0.22550872 1.2756412 0.16098544 64
0.23536292 1.264262 0.01022711 70
0.25290686 1.2367022 0.028994121 100
0.22795308 1.275902 0.052467756 80
0.24405661 1.2506051 0.069953002 49
0.25510108 1.2332554 0.086977564 57
0.23898807 1.2585672 0.1125773 96
0.25907758 1.2270087 0.12507279 92
0.23358864 1.2670491 0.15787962 73
0.24127665 1.2585409 0.010087491 71
0.25018835 1.2444384 0.029412808 100
0.23388985 1.2702301 0.051770512 81
0.24034983 1.2600075 0.071171694 65
0.25769418 1.2325609 0.086664692 57
0.25109774 1.2429994 0.10876112 79
0.25747159 1.232913 0.12642249 99
0.23730266 1.2648294 0.15684435 66
0.24413136 1.2579746 0.010052586 86
0.25299001 1.2438419 0.029308135 100
0.24313253 1.2595682 0.05055033 84
0.24531072 1.2560931 0.070440479 49
0.26778454 1.220239 0.084161744 74
0.24761993 1.2524092 0.11066922 92
0.25813526 1.2356333 0.12687239 99
0.24117044 1.2626985 0.15580906 67
0.2499769 1.2521949 0.0099129668 87
0.24823219 1.2549989 0.029936166 99
0.24265257 1.2639664 0.050898954 83
0.24482694 1.2604718 0.070927955 48
0.25675628 1.2412992 0.087916173 56
0.25855583 1.2384069 0.10723466 81
0.25556296 1.243217 0.128672 89
0.24892944 1.2538784 0.15270324 68
0.24859568 1.2583964 0.010017681 72
0.25420746 1.2493031 0.029517479 100
0.2402797 1.2718716 0.051596198 82
0.25705186 1.244694 0.068490572 50
0.25641081 1.2457328 0.08854191 70
0.25408825 1.2494962 0.10952436 85
0.27060392 1.2227342 0.12282328 85
0.23954481 1.2730625 0.15839726 65
0.24612537 1.2662671 0.0101573 85
0.25796828 1.2469261 0.029308135 100
0.23995259 1.276348 0.051944822 81
0.25663739 1.2490995 0.068978049 50
0.26426247 1.2366469 0.086664692 71
0.25063777 1.2588978 0.11143246 91
0.27218598 1.2237067 0.12282328 85
0.23827627 1.2790856 0.15995017 64
0.24785951 1.2673248 0.0101573 71
0.25652379 1.2530633 0.029622151 100
0.25413585 1.2569939 0.049853086 85
0.25418875 1.2569069 0.069953002 49
0.2710214 1.2292002 0.085100345 58
0.26050106 1.2465167 0.10837951 65
0.27478322 1.2230083 0.12237337 85
0.25209191 1.2603582 0.15373851 68
0.25682354 1.2563879 0.0099129668 87
0.25924283 1.2523743 0.029517479 100
0.25583759 1.2580237 0.049853086 85
0.25589019 1.2579365 0.069953002 49
0.26752722 1.2386303 0.086664692 57
0.26824716 1.2374358 0.1060898 73
0.26831815 1.237318 0.12597258 90
0.25779453 1.2547771 0.15166797 69
0.25852314 1.2574084 0.0099129668 87
0.26297855 1.249958 0.029308135 100
0.2534526 1.2658874 0.05055033 84
0.2616705 1.2521453 0.068978049 50
0.27119246 1.2362227 0.086038955 72
0.26484242 1.2468412 0.10799789 87
0.26795074 1.2416434 0.12687239 99
0.24560741 1.279006 0.15891489 65
0.25920594 1.2601427 0.0099478718 87
0.26873201 1.2440861 0.028889447 100
0.25111896 1.2737736 0.051247578 82
0.26335528 1.2531488 0.068978049 50
0.26878989 1.2439886 0.087290429 57
0.27251905 1.237703 0.10570818 73
0.27556479 1.2325693 0.12417299 92
0.25034317 1.2750812 0.15736198 74
0.25584704 1.2697715 0.010122396 99
0.27241477 1.2416226 0.028680105 100
0.24883682 1.281682 0.051944822 81
0.26504353 1.2541465 0.068978049 50
0.27445406 1.2381577 0.086038955 58
0.26319915 1.2572801 0.10990598 92
0.28607741 1.2184095 0.12012386 77
0.25308797 1.2744591 0.15684435 66
0.26162654 1.2638876 0.0099827768 87
0.27204859 1.2460382 0.028889447 100
0.25866169 1.2689655 0.05055033 100
0.26673526 1.2551382 0.068978049 50
0.27708596 1.2374109 0.08572609 58
0.27084136 1.2481058 0.10761628 65
0.28273124 1.2277424 0.12237337 85
0.25485066 1.2754925 0.15684435 66
0.2672762 1.2579204 0.0098431576 88
0.27162603 1.2504135 0.029098792 100
0.26830915 1.2561378 0.049155839 87
0.27232656 1.2492046 0.068003096 68
0.27962783 1.2366042 0.085413218 58
0.27144405 1.2507277 0.10799789 79
0.28522763 1.2269402 0.12192347 85
0.2662141 1.2597533 0.15166797 69
0.27396369 1.2502358 0.0096686333 75
0.26932344 1.2583086 0.029517479 100
0.25809324 1.2778466 0.051247578 82
0.26707628 1.2622182 0.069709264 66
0.28027382 1.2392577 0.08572609 58
0.27508053 1.2482928 0.10723466 81
0.28488201 1.2312405 0.12282328 85
0.26407453 1.2674406 0.15373851 68
0.27572569 1.2512443 0.0096686333 75
0.28100461 1.2419819 0.02847076 100
0.27080852 1.2598721 0.049330149 87
0.27576277 1.2511792 0.068003096 51
0.28590801 1.2333783 0.084474608 59
0.27294692 1.25612 0.10876112 87
0.28946912 1.2271299 0.12147357 77
0.26016027 1.2785556 0.15684435 66
0.27248678 1.2609028 0.0098431576 88
0.28265378 1.242918 0.02847076 100
0.26369575 1.2764535 0.050898954 83
0.27353644 1.259046 0.068978049 50
0.28558287 1.2377366 0.085100345 58
0.27947628 1.2485387 0.10685304 66
0.29202539 1.2263402 0.12102367 86
0.26193723 1.2795641 0.15684435 66
0.27509448 1.2600763 0.0098082526 89
0.28617772 1.2403181 0.028261416 100
0.27317467 1.2634988 0.049504463 86
0.27807319 1.2547661 0.068246834 68
0.29003465 1.2334423 0.084161744 59
0.27434129 1.2614191 0.10952436 78
0.29544684 1.223794 0.12012386 77
0.27509448 1.2600763 -0.0098082526 88
0.27118954 1.2670376 0.15270324 68
0.28264016 1.2505481 0.0095988233 76
0.28587899 1.2447268 0.02847076 100
0.27780497 1.2592388 0.048981529 87
0.27880189 1.257447 0.068490572 50
0.29261434 1.2326207 0.083848871 59
0.28273982 1.2503691 0.10685304 81
0.29324266 1.2314914 0.12192347 85
0.27486241 1.2645278 -0.0098780617 87
0.28044009 1.2545025 0.14856213 79
0.27948865 1.2602327 0.0097733475 89
0.28753772 1.2456458 0.02847076 100
0.28143957 1.2566972 0.048632905 88
0.28434128 1.2514385 0.067515619 51
0.29232204 1.2369754 0.084474608 59
0.28441826 1.251299 0.10685304 81
0.29203066 1.2375035 0.12327318 76
0.27653295 1.2655891 0.15166797 69
0.28792149 1.2488946 0.0095290141 76
0.29111728 1.243055 0.028261416 100
0.27931413 1.2646227 0.049330149 87
0.29364729 1.2384319 0.065565705 53
0.29016036 1.2448035 0.08572609 58
0.28609994 1.2522231 0.10685304 81
0.27455485 1.2733195 0.15373851 76
0.2857793 1.2568367 0.0096686333 75
0.28705391 1.2544881 0.028889447 100
0.2829431 1.2620624 0.048981529 87
0.2914964 1.2463026 0.066540658 52
0.29747292 1.2352906 0.083848871 59
0.28591183 1.2565924 0.10761628 79
0.2771945 1.2726544 -0.0099827768 96
0.27447042 1.2776736 0.15477379 67
0.28653255 1.2595168 0.0097035384 90
0.29063982 1.2518857 0.028680105 100
0.27899677 1.2735181 0.050027397 85
0.28751576 1.2576901 0.068003096 51
0.28668153 1.25924 0.10799789 79
0.29971111 1.2350314 0.12192347 76
0.28368938 1.2647994 -0.0098082526 88
0.28723109 1.258219 0.14856213 71
0.28918445 1.2586694 0.0096686333 90
0.29796603 1.242216 0.028052073 100
0.28075603 1.274461 0.050027397 85
0.28735033 1.2621058 0.068490572 50
0.29793701 1.2422704 0.084787481 59
0.29486179 1.2480322 0.10532656 75
0.28165188 1.2727826 -0.0099478718 86
0.28893688 1.2591332 0.14856213 71
0.2983751 1.2454374 0.0093893949 77
0.28653616 1.2678066 0.029517479 100
0.2890425 1.2630711 0.048807215 58
0.29928404 1.2437199 0.065809444 52
0.29866305 1.2448933 0.085100345 58
0.29836872 1.2454494 0.10456333 75
0.28340855 1.2737162 -0.0099478718 86
0.28883851 1.2634565 0.14959741 70
0.29260233 1.2604783 0.0096686333 75
0.28798774 1.2692716 0.049330149 87
0.29848641 1.249266 0.08572609 58
0.28068781 1.2831817 0.15529142 75
0.29708514 1.256052 0.0095639192 91
0.29157147 1.2666483 0.048981529 87
0.29435056 1.2613074 0.068003096 51
0.29806918 1.2541609 0.1060898 73
0.29154685 1.2666955 -0.0097733475 99
0.2887229 1.2721226 0.15166797 69
0.29970017 1.2551548 0.0095290141 76
0.29787415 1.2586942 0.048109971 89
0.29236537 1.2693717 -0.0098082526 99
0.29933468 1.2558632 0.14649157 72
0.29597875 1.2666148 0.068490572 100
0.29927269 1.2601751 0.14752686 71
0.29579785 1.2710598 0.049155839 58
0.29942322 1.2639139 0.068003096 100
0.29305625 1.2764637 -0.0099129668 100
0.29827744 1.2661723 0.14907977 78
0.29567084 1.2756772 0.15166797 77
0.29666427 1.2783351 0.1521856 77
0.29848278 1.2836374 -0.0099827768 100
