# .PCD v0.7 - Point Cloud Data file format
VERSION 0.7
FIELDS x y z intensity
SIZE 4 4 4 4
TYPE F F F F
COUNT 1 1 1 1
WIDTH 729
HEIGHT 1
VIEWPOINT 0 0 0 1 0 0 0
POINTS 729
DATA ascii
-1.1103319 0.16019908 0.019581599 4
-1.0326164 0.15266769 0.018220313 6
-1.0123056 0.15327755 0.017871264 5
-1.0374538 0.16079174 0.018325027 1
0.054887921 0.0032067895 0.047835063 61
0.045784473 0.0067670941 0.047939736 100
0.042016625 0.0068691969 0.04804441 90
0.044918478 0.016940653 0.047521047 68
0.031109929 0.0021600127 0.048567768 25
0.031937838 0.0088382363 0.048253752 17
0.0311777 0.019046426 0.047835063 9
0.033123612 0.027419031 0.047416378 9
0.0095132589 0.0049456358 0.049091127 7
-1.0347202 1.1329494 0.028377613 5
-1.0327895 1.1325072 0.085098267 5
-1.0366988 1.1334026 0.14241248 6
-1.0276008 1.1371192 0.028272899 8
-0.99649948 1.1298816 0.083214171 20
-1.025718 1.1366811 0.14154093 35
-0.99711877 1.1357234 0.027749326 28
-0.99134642 1.1343589 0.083004825 88
-1.0263674 1.1426375 0.14171524 84
-0.99012834 1.1391835 0.027644612 40
-0.99602085 1.140596 0.083318844 100
-1.0135639 1.1448013 0.14066938 95
-0.98105842 1.1426656 0.027504992 43
-0.98501486 1.1436286 0.082795486 99
-0.99482328 1.1460161 0.13910057 91
-0.97774094 1.1477947 0.027470088 23
-0.98751277 1.1502111 0.083004825 95
-0.9953689 1.1521538 0.13927488 94
-0.97059435 1.1516647 0.027365373 26
-0.98423904 1.1550896 0.082900152 50
-1.0036876 1.1599711 0.14014643 74
-0.97125822 1.1571984 0.027400278 41
-0.97714704 1.1586972 0.082586139 36
-0.99852437 1.1641383 0.13979781 74
-0.96989733 1.1625062 0.027400278 59
-0.98158234 1.1655238 0.082900152 60
-0.97977716 1.1650577 0.13822901 91
-0.96264559 1.166553 0.027295563 67
-0.97432643 1.1696153 0.082586139 100
-0.97060984 1.1686409 0.13753176 94
-0.9496569 1.1687475 0.027086135 78
-0.96520144 1.1728808 0.082167454 90
-0.96920913 1.1739464 0.13753176 98
-0.95211726 1.1750212 0.027155945 92
-0.95028716 1.1745276 0.081434749 96
-0.96586615 1.1787282 0.13735744 100
-0.95455223 1.1813166 0.027225753 92
-0.94115978 1.1776555 0.081016064 100
-0.96827394 1.1850679 0.13770607 100
-0.94925314 1.1854979 0.027155945 89
-0.94357711 1.1839249 0.081225403 100
-0.9610557 1.1887689 0.13718314 89
-0.94779366 1.1907287 0.027155945 89
-0.94789165 1.1907563 0.081539422 86
-0.94232136 1.1891916 0.13561434 99
-0.94062012 1.1940517 0.027051231 75
-0.94072503 1.1940817 0.081225403 76
-0.94475585 1.1952283 0.13596296 100
-0.96026689 1.205345 0.027435184 48
-0.93155915 1.1970699 0.080806717 40
-0.94900566 1.202099 0.13648589 98
-0.94345802 1.205869 0.027155945 46
-0.92438298 1.2003019 0.080492698 22
-0.95712751 1.2098584 0.13735744 82
-0.93233925 1.2082448 0.026981421 71
-0.92095667 1.2048795 0.080388032 28
-0.93838722 1.2100328 0.13578865 87
-0.91930646 1.2099746 0.026771991 74
-0.9156031 1.2088656 0.080178685 32
-0.92539018 1.2117963 0.13474278 98
-0.91202086 1.2133598 0.026667276 78
-0.9274413 1.2180362 0.08091139 84
-0.92765242 1.2181001 0.13509139 100
-0.91619915 1.2202215 0.026771991 83
-0.90677565 1.2173278 0.079864666 100
-0.92798382 1.2238402 0.13526571 99
-0.91270906 1.2247431 0.026737086 89
-0.90329808 1.2218173 0.07976 91
-0.92829317 1.229588 0.13544002 77
-0.9110325 1.2301011 0.026737086 81
-0.90544242 1.2283407 0.079969339 66
-0.91519648 1.2314124 0.13439415 50
-0.90179664 1.232769 0.026597468 79
-0.90573663 1.234025 0.080074012 76
-0.90408546 1.2334987 0.1335226 46
-0.88875371 1.2341502 0.026388038 83
-0.90410799 1.2391036 0.080074012 84
-0.90814716 1.2404066 0.13404553 45
-0.88712472 1.2391696 0.026388038 99
-0.88917106 1.2398376 0.079341307 100
-0.91596633 1.2485853 0.1349171 59
-0.88935882 1.2451864 0.026457848 100
-0.88381201 1.2433553 0.079131968 100
-0.91247934 1.2528194 0.13474278 77
-0.88769132 1.2502079 0.026457848 99
-0.88593966 1.2496228 0.079341307 100
-0.90511578 1.2560279 0.13421984 85
-0.87472349 1.2511339 0.02624842 93
-0.89001817 1.256299 0.079655327 100
-0.89405781 1.2576632 0.13334829 82
-0.86925071 1.2548114 0.02617861 93
-0.89020187 1.2619683 0.07976 100
-0.89611751 1.263989 0.13369691 91
-0.86368436 1.2587032 0.0261088 89
-0.87895077 1.2639809 0.079236634 100
-0.89618033 1.2699369 0.13387123 92
-0.87329584 1.2675946 0.02631823 79
-0.86590558 1.265011 0.07860861 93
-0.90947253 1.2802422 0.13526571 59
-0.87720627 1.2745594 0.026422944 75
-0.85663694 1.2672875 0.078189917 55
-0.89265484 1.280021 0.13387123 40
-0.86037225 1.2741534 0.026143705 88
-0.84736961 1.2695055 0.077771232 21
-0.87960905 1.2810297 0.13282534 43
-0.84920055 1.2756751 0.025969181 99
-0.86440104 1.2811686 0.078817949 44
-0.87032133 1.2833081 0.1321281 26
-0.84742695 1.2805561 0.025969181 93
-0.85510427 1.283361 0.078399263 89
-0.87600654 1.2909977 0.13282534 16
-0.8531397 1.288202 0.0261088 99
-0.85330373 1.2882626 0.078399263 100
-0.87791723 1.2973528 0.13317397 7
-0.84757537 1.2916981 0.026038991 100
-0.83464581 1.2868717 0.077457212 87
-0.87233454 1.3009404 0.13282534 1
-0.83835334 1.2935076 0.025899371 100
-0.83479303 1.2921652 0.077561885 48
-0.86310905 1.3028424 0.1321281 1
-0.82904297 1.2955024 0.025759751 81
-0.8441599 1.301263 0.078189917 53
-0.83517534 1.2978393 0.12968774 11
-0.83279866 1.3024688 0.025864467 74
-0.83484155 1.3032554 0.077771232 59
-0.86121398 1.3134105 0.13230242 50
-0.83093148 1.3072923 0.025864467 74
-0.82924908 1.3066378 0.077561885 68
-0.86116534 1.3190558 0.13247673 100
-0.83090872 1.3128411 0.025899371 93
-0.81993228 1.3085262 0.0771432 61
-0.83884329 1.3159602 0.1305593 100
-0.8141374 1.3117533 0.025620133 100
-0.82918149 1.3177279 0.077771232 89
-0.83322567 1.319334 0.13021068 100
-0.81233341 1.3162739 0.025620133 100
-0.82921141 1.3230418 0.077875905 95
-0.82584864 1.3216934 0.12968774 99
-0.81041819 1.3210261 0.025620133 100
-0.81801659 1.3241038 0.077352546 97
-0.83499438 1.3309805 0.13073361 100
-0.81588966 1.3288002 0.025759751 100
-0.8012858 1.3228257 0.076515168 100
-0.82196361 1.3312851 0.12968774 100
-0.81762713 1.3350919 0.025829561 100
-0.79565603 1.3260137 0.076305822 100
-0.81263036 1.3330274 0.1289905 100
-0.79663187 1.326417 0.17890419 19
-0.80088252 1.3337017 0.025550323 100
-0.80476636 1.3353224 0.076933853 100
-0.81433421 1.3393149 0.12933913 100
-0.77819353 1.324234 0.17671055 15
-0.78784996 1.3337545 0.025340894 100
-0.80094415 1.3392724 0.07682918 100
-0.80866653 1.3425264 0.1289905 100
-0.7817387 1.3311794 0.17744176 22
-0.79691416 1.3431189 0.025550323 96
-0.79159755 1.3408566 0.076410495 72
-0.81215972 1.3496059 0.12951343 100
-0.76333219 1.3288295 0.17524812 16
-0.8132785 1.3557106 0.025899371 61
-0.80611235 1.3526318 0.077352546 51
-0.82660359 1.3614355 0.13108224 30
-0.79237956 1.3467318 0.17939167 8
-0.81316334 1.3610237 0.025934275 90
-0.81150252 1.3603036 0.077771232 97
-0.83194667 1.3691676 0.13177948 58
-0.77771074 1.3456526 0.1776855 11
-0.79643697 1.3593636 0.025655037 100
-0.81309301 1.3666543 0.077980578 100
-0.81342 1.3667974 0.13021068 100
-0.79387838 1.3582437 0.18012288 26
-0.79071325 1.3624434 0.025585229 100
-0.80734831 1.3697942 0.077771232 100
-0.809506 1.3707477 0.13003637 100
-0.78455395 1.3597217 0.17914793 29
-0.79411584 1.3695636 0.025689943 100
-0.80342239 1.3737149 0.077666558 100
-0.80194205 1.3730546 0.12951343 100
-0.76254529 1.3554811 0.17646681 35
-0.80113178 1.3783568 0.025864467 100
-0.80130678 1.3784356 0.077666558 100
-0.81436259 1.3843141 0.13090792 100
-0.76773387 1.3633192 0.17744176 20
-0.80082041 1.3838968 0.025899371 100
-0.80281132 1.3848016 0.077875905 100
-0.80495447 1.3857756 0.13021068 100
-0.7710765 1.3703792 0.17817298 15
-0.79685169 1.3877746 0.025864467 100
-0.80973393 1.3936834 0.078399263 100
-0.79917485 1.3888402 0.12986206 100
-0.7761901 1.3782976 0.17914793 12
-0.79105765 1.3907921 0.025794657 100
-0.81298608 1.400943 0.078713275 100
-0.80062252 1.3952198 0.13021068 100
-0.77225715 1.3820891 0.17890419 10
-0.79442734 1.397774 0.025899371 100
-0.80545717 1.4029243 0.078399263 100
-0.80576295 1.4030671 0.13090792 100
-0.73964292 1.3721926 0.17476064 5
-0.79946357 1.4058726 0.026038991 100
-0.79781944 1.405098 0.078085244 100
-0.81075412 1.4111928 0.13160518 100
-0.75728589 1.3859982 0.17744176 3
-0.80637807 1.4146359 0.026213514 100
-0.80292159 1.4129932 0.078503937 100
-0.80682093 1.4148464 0.13143086 100
-0.78033668 1.4022595 0.18085411 1
-0.79149789 1.413314 0.025969181 100
-0.80967337 1.42203 0.079027295 100
-0.79917222 1.4169941 0.13090792 100
-0.78541833 1.4167171 0.025899371 100
-0.81255239 1.4298575 0.079341307 100
-0.80385071 1.4256434 0.13160518 100
-0.79393297 1.4266417 0.0261088 100
-0.7994737 1.4293489 0.078713275 100
-0.80871433 1.4338639 0.13230242 100
-0.79533571 1.4328624 0.02617861 100
-0.79548818 1.4329376 0.07860861 100
-0.82080323 1.4454106 0.13369691 100
-0.80017644 1.4411147 0.02631823 100
-0.78958887 1.4358522 0.078399263 100
-0.81130069 1.4466442 0.13299966 100
-0.79067522 1.4422383 0.02617861 100
-0.803325 1.4485812 0.079341307 100
-0.80536848 1.4496058 0.13265105 100
-0.78475171 1.445109 0.0261088 100
-0.81164151 1.4587097 0.079969339 100
-0.80654377 1.4561312 0.13299966 100
-0.79307455 1.4552166 0.02631823 100
-0.80211288 1.4598279 0.079550654 100
-0.81123942 1.4644842 0.13369691 100
-0.79423076 1.4617307 0.026388038 100
-0.79969662 1.4645435 0.079550654 100
-0.82120806 1.4756131 0.1349171 100
-0.79890746 1.4701035 0.026527658 100
-0.79371864 1.4674103 0.079341307 100
-0.80458945 1.4730525 0.1335226 100
-0.79291207 1.4729531 0.026457848 100
-0.80189294 1.4776541 0.079969339 100
-0.80389231 1.4787006 0.13369691 100
-0.78349942 1.4736694 0.02631823 89
-0.79600602 1.480269 0.07976 100
-0.8050589 1.4850461 0.13404553 99
-0.79162675 1.4839565 0.026527658 22
-0.79175538 1.4840249 0.079655327 19
-0.8043136 1.4907079 0.13421984 49
0.12818253 1.2923908 0.13051336 5
0.15589979 1.26139 0.010995016 12
0.13888571 1.2826042 0.03443706 27
0.1286692 1.2953429 0.05891728 22
0.16192842 1.2538731 0.098240845 12
0.14220029 1.2784715 0.12669717 23
0.20008054 1.2063025 0.1291219 8
0.13784513 1.2839017 0.1765146 6
0.14889786 1.2737129 0.01123935 74
0.15685138 1.2637247 0.033076324 58
0.15780994 1.2625209 0.055082429 50
0.15924633 1.260717 0.077021427 14
0.16238931 1.25677 0.09855371 24
0.15253836 1.2691411 0.12402584 85
0.18582472 1.2273393 0.13497064 15
0.14926869 1.2732472 0.17237349 14
0.16430068 1.2578547 0.010855397 100
0.16229323 1.2603939 0.032762308 100
0.14717495 1.2795162 0.056825545 95
0.15726823 1.2667496 0.077752642 28
0.1628657 1.2596697 0.098866582 36
0.15793589 1.2659051 0.122881 100
0.19104913 1.2240217 0.13362093 38
0.15582025 1.2685812 0.17030293 43
0.16230184 1.263917 0.010960111 100
0.17633942 1.2460334 0.031715591 100
0.15387675 1.2746503 0.056128297 100
0.17371291 1.2493796 0.074827775 30
0.17189547 1.2516949 0.096989371 25
0.17057917 1.2533718 0.11944643 100
0.19744912 1.2191403 0.13182132 39
0.15159893 1.2775521 0.17289113 35
0.16648671 1.2621127 0.010890301 100
0.17677566 1.2489102 0.03182026 91
0.15319127 1.279173 0.056476921 96
0.16806713 1.2600847 0.076290213 29
0.18815035 1.2343146 0.093234941 26
0.17830282 1.2469506 0.11753834 100
0.18704018 1.2357391 0.13632034 38
0.15337303 1.2789397 0.17289113 35
0.16943052 1.2618668 0.010855397 65
0.17600521 1.2533695 0.032029606 60
0.17204019 1.258494 0.054036561 51
0.16856542 1.262985 0.076533951 29
0.1801028 1.2480736 0.095737889 25
0.17756715 1.2513506 0.11830158 26
0.18866813 1.2370032 0.13632034 22
0.15515199 1.2803211 0.17289113 28
0.17358613 1.2600206 0.010785587 65
0.17404473 1.2594236 0.032343622 30
0.16767907 1.2677106 0.054908119 50
0.1787535 1.2532938 0.074827775 45
0.18899396 1.2399626 0.093860678 52
0.18642548 1.2433062 0.11601187 13
0.18792623 1.2413526 0.13722014 22
0.15811259 1.2801642 0.17237349 57
0.17772415 1.2581514 0.010715778 53
0.16122165 1.2797906 0.033599682 28
0.16216958 1.2785475 0.055953987 48
0.1828503 1.2514298 0.074340299 46
0.18943876 1.2427906 0.094173551 52
0.20355669 1.2242782 0.11105084 14
0.19548237 1.2348658 0.13497064 45
0.16692469 1.2723124 0.16926765 66
0.17460212 1.2658252 0.010855397 39
0.18229306 1.255667 0.031924933 30
0.16755506 1.2751329 0.055431053 49
0.1929208 1.2416298 0.072634131 78
0.18989891 1.2456212 0.094486415 52
0.19210875 1.2427025 0.11524864 13
0.21239924 1.2159027 0.1291219 40
0.17567712 1.2644053 0.16616182 68
0.17633516 1.2671325 0.010855397 39
0.15518987 1.2952647 0.03443706 27
0.16812351 1.2780575 0.055605363 49
0.18502751 1.255568 0.074584037 61
0.18918756 1.2500334 0.095112152 51
0.19022217 1.2486569 0.11639348 13
0.20459077 1.2295406 0.13272113 47
0.17508373 1.2687974 0.16719711 67
0.18055102 1.2652929 0.010785587 52
0.17622444 1.2710932 0.032762308 29
0.1854746 1.2586923 0.053339314 52
0.18918344 1.25372 0.07409656 61
0.20512244 1.2323518 0.09135773 54
0.19080511 1.251546 0.1167751 13
0.21326837 1.2214313 0.13002171 32
0.18153468 1.2639742 0.16512655 68
0.18585223 1.2617583 0.010680873 93
0.20412451 1.2370828 0.030459527 32
0.19192538 1.253557 0.05264207 53
0.1955995 1.2485954 0.073121607 78
0.20791399 1.2319653 0.091044858 68
0.20767662 1.232286 0.11181407 14
0.21484619 1.2226038 0.13002171 32
0.18441087 1.2637048 0.16460891 69
0.19222373 1.2565193 0.010541254 95
0.18792662 1.2623626 0.032029606 60
0.18762907 1.2627673 0.053513627 78
0.19013229 1.2593633 0.074584037 91
0.20593697 1.2378714 0.091983467 93
0.20572218 1.2381635 0.11295892 13
0.21634892 1.2237128 0.13002171 24
0.18833905 1.2618017 0.16357364 69
0.18920794 1.2642256 0.010680873 80
0.21202233 1.2329737 0.03004084 66
0.17995334 1.2769029 0.054908119 100
0.20588806 1.2413766 0.071659178 80
0.19708976 1.2534288 0.094799288 100
0.20041305 1.2488765 0.11524864 13
0.23631895 1.1996913 0.12282328 17
0.19005796 1.2630613 0.16357364 69
0.19084883 1.2654194 0.010680873 80
0.20887041 1.2405601 0.030459527 65
0.18865278 1.2684486 0.053862248 100
0.20279258 1.2489439 0.072634131 94
0.20565134 1.2450005 0.092922069 100
0.2066122 1.243675 0.11372216 13
0.25604621 1.1754849 0.11562485 18
0.19056112 1.2658162 0.16409127 77
0.19491643 1.2634238 0.010611063 81
0.2081818 1.2449902 0.03066887 64
0.18806735 1.2729414 0.054210871 100
0.20098799 1.2549868 0.073365346 46
0.21654218 1.2333727 0.090419121 82
0.22088203 1.227342 0.10952436 14
0.23811275 1.2033982 0.12327318 17
0.19229403 1.2670679 0.16409127 77
0.1989657 1.2614059 0.010541254 95
0.21216381 1.2429302 0.030459527 65
0.20140633 1.2579893 0.052467756 100
0.20268306 1.256202 0.073365346 93
0.21586522 1.2377486 0.091044858 100
0.21563333 1.2380732 0.11181407 14
0.22716728 1.2219272 0.12822211 16
0.20076889 1.2588817 0.16098544 72
0.20299652 1.2593658 0.010471444 96
0.2068851 1.2538819 0.031087559 94
0.19850206 1.2657042 0.053165004 100
0.21012348 1.2493149 0.072146654 63
0.21292955 1.2453576 0.092296332 100
0.20704886 1.2536509 0.11524864 27
0.22536513 1.2278202 0.12957181 16
0.20024267 1.2632495 0.16202073 78
0.20931074 1.2540331 0.010331824 84
0.21777284 1.2420106 0.030250182 98
0.19564745 1.2734452 0.053862248 100
0.21865413 1.2407585 0.070684217 65
0.21800187 1.2416853 0.09135773 100
0.20760921 1.2564505 0.11563025 60
0.23257345 1.2209827 0.1273223 32
0.2041904 1.2613078 0.16098544 72
0.20871189 1.258498 0.010401634 97
0.22399795 1.2366184 0.029831495 66
0.19512478 1.2779455 0.054210871 100
0.22029939 1.2419124 0.070684217 81
0.22304437 1.2379833 0.090419121 100
0.20256296 1.2672991 0.11791996 100
0.23638177 1.2188931 0.12642249 66
0.20037547 1.2704301 0.16357364 69
0.20358196 1.2695457 0.010611063 81
0.22335246 1.2410359 0.03004084 99
0.20030612 1.2742696 0.053687938 100
0.22081748 1.2446916 0.070927955 48
0.22580561 1.2374985 0.090106249 96
0.21884495 1.2475359 0.11295892 89
0.22906664 1.232796 0.13002171 88
0.20762879 1.26371 0.16098544 72
0.21213055 1.2608685 0.010401634 97
0.22499868 1.2421733 0.03004084 99
0.21449462 1.257434 0.051770512 100
0.21797442 1.2523785 0.071902916 64
0.22743946 1.2386273 0.090106249 100
0.22385326 1.2438374 0.11181407 91
0.22957915 1.2355187 0.13047162 96
0.21592617 1.2553542 0.15787962 73
0.21835819 1.2554404 0.010262015 84
0.22890216 1.2400067 0.029831495 66
0.20945466 1.2684729 0.05281638 100
0.22301963 1.2486172 0.071171694 81
0.22350565 1.2479057 0.091670595 100
0.22993916 1.2384887 0.1102876 85
0.22900748 1.2398524 0.13137141 94
0.21326336 1.262898 0.15995017 72
0.22342148 1.2516298 0.0101573 71
0.22718206 1.2460839 0.030145511 65
0.20672405 1.2762548 0.053513627 78
0.22469231 1.2497556 0.071171694 81
0.22628447 1.2474076 0.09135773 100
0.22827101 1.2444779 0.11143246 91
0.23502421 1.2345184 0.12957181 96
0.20956501 1.2720649 0.16253836 70
0.2116192 1.2726157 0.010576159 40
0.23880127 1.2322407 0.029203463 34
0.20840475 1.2773904 0.053513627 52
0.23071948 1.2442451 0.07019674 82
0.23338532 1.2402853 0.089793384 100
0.22765338 1.2487993 0.11219569 91
0.23983127 1.2307107 0.12822211 97
0.2112318 1.2731912 0.16253836 70
0.21337572 1.2737938 0.010576159 40
0.22710127 1.2532521 0.030459527 32
0.21017796 1.2785797 0.053513627 52
0.21362826 1.2734158 0.074340299 92
0.23941869 1.2348177 0.08854191 100
0.22605449 1.2548187 0.11334054 89
0.23927602 1.2350314 0.1291219 96
0.21835673 1.2663393 0.15995017 72
0.22176731 1.2649665 0.010366729 41
0.20892143 1.2843378 0.032343622 30
0.22406766 1.2614976 0.051596198 54
0.23184392 1.2497712 0.070684217 65
0.23995137 1.2375454 0.088854775 98
0.24185407 1.2346761 0.10837951 87
0.23443916 1.2458576 0.13182132 100
0.22436196 1.2610538 0.15787962 73
0.2212984 1.2694499 0.010436539 41
0.20413092 1.2955353 0.032971654 29
0.22688061 1.260968 0.051421888 55
0.2378858 1.244246 0.069709264 99
0.24158531 1.2386248 0.088854775 100
0.23916075 1.2423089 0.10990598 85
0.23717347 1.2453284 0.13137141 94
0.22182986 1.2686424 0.15995017 72
0.2262378 1.2655151 0.010331824 28
0.23209456 1.2565515 0.030459527 32
0.22415131 1.2687085 0.052119136 54
0.24163178 1.2419548 0.069221787 83
0.24314103 1.239645 0.088854775 98
0.24072871 1.243337 0.10990598 92
0.24727881 1.2333121 0.1277722 97
0.2255986 1.2664934 0.15891489 73
0.23776093 1.2515416 0.010017681 43
0.23379487 1.2576582 0.030459527 32
0.22481015 1.2715147 0.052293446 53
0.23680112 1.253022 0.070684217 98
0.2490811 1.2340834 0.087603301 99
0.24345094 1.2427664 0.10952436 85
0.25101835 1.2310958 0.12687239 99
0.22418058 1.2724855 0.1604678 72
0.22871011 1.2695011 0.010366729 41
0.23990622 1.2520947 0.03004084 66
0.2309618 1.2660005 0.051596198 54
0.24179524 1.249158 0.069953002 49
0.25612721 1.2268764 0.086038955 87
0.2409375 1.2504915 0.11105084 91
0.25271034 1.2321885 0.12687239 99
0.23229495 1.2639278 0.15736198 74
0.23798701 1.2588204 0.010122396 85
0.24374014 1.2498072 0.029831495 66
0.23912695 1.2570345 0.05055033 84
0.23812944 1.2585973 0.071171694 65
0.24922121 1.2412201 0.08854191 70
0.24895442 1.2416382 0.10876112 79
0.25118002 1.2381513 0.12822211 97
0.23817864 1.2585201 0.15529142 75
0.25138313 1.2412717 0.0097384425 60
0.24105689 1.2575685 0.030250182 65
0.23861092 1.2614286 0.050898954 55
0.24612635 1.249568 0.069709264 66
0.24867091 1.2455522 0.089167647 84
0.24421522 1.252584 0.11105084 84
0.25377715 1.2374936 0.1277722 89
0.23876634 1.2611834 0.15580906 67
0.24557915 1.2541614 0.0099827768 87
0.25445491 1.2400451 0.029098792 100
0.23502564 1.270946 0.051770512 81
0.24885887 1.2489452 0.069465525 49
0.25033274 1.2466011 0.089167647 70
0.24590164 1.2536485 0.11105084 84
0.26163453 1.2286264 0.12507279 92
0.23842621 1.2655377 0.15684435 66
0.24621254 1.2569177 0.010017681 87
0.25186867 1.2478518 0.029517479 100
0.23572156 1.2737329 0.051944822 81
0.25263405 1.2466251 0.068978049 50
0.26245442 1.2308848 0.086038955 58
0.24551332 1.2580384 0.11181407 84
0.26426873 1.2279768 0.12462288 92
0.22993204 1.2830124 0.16202073 63
0.24265122 1.2664764 0.010192205 85
0.25353852 1.2488897 0.029517479 100
0.24377415 1.2646625 0.050898954 83
0.25220984 1.2510359 0.069465525 49
0.26406494 1.2318857 0.086038955 72
0.2554858 1.245744 0.10876112 79
0.26586908 1.2289714 0.12462288 100
0.24392697 1.2644156 0.15580906 75
0.25380573 1.2522109 0.0098780617 73
0.2562573 1.2482197 0.029412808 100
0.24758831 1.262333 0.05055033 84
0.25181282 1.2554554 0.069953002 49
0.25947559 1.2429802 0.087916173 56
0.24790031 1.2618251 0.11219569 84
0.26645297 1.2316209 0.12507279 92
0.24565467 1.265481 0.15580906 67
0.25445011 1.2549495 0.0099129668 87
0.25273138 1.2577696 0.029936166 99
0.24930871 1.2633857 0.05055033 84
0.25764146 1.2497129 0.068978049 50
0.2631844 1.2406179 0.087290429 71
0.25574917 1.2528179 0.10990598 92
0.26705191 1.2342719 0.12552269 90
0.24738607 1.2665403 0.15580906 67
0.25200588 1.2628229 0.010052586 86
0.26063648 1.2485497 0.029308135 100
0.24278539 1.2780718 0.051944822 81
0.26856208 1.2354423 0.066784397 34
0.26482892 1.2416161 0.087290429 71
0.26251554 1.245442 0.10799789 72
0.26968259 1.2335892 0.12507279 92
0.24212399 1.2791655 0.15943253 73
0.25578541 1.2604306 0.0099827768 87
0.26436362 1.2461314 0.029098792 100
0.24456078 1.2791409 0.051944822 81
0.26099759 1.2517422 0.068978049 50
0.27257419 1.2324451 0.085413218 73
0.25811705 1.2565439 0.1102876 85
0.27431005 1.2295516 0.12372308 83
0.24688464 1.2752674 0.15787962 65
0.25528094 1.2647884 0.010052586 86
0.26483876 1.2487423 0.029203463 100
0.25941649 1.2578455 0.049678773 86
0.26454416 1.2492368 0.068490572 50
0.27605012 1.2299201 0.084787481 59
0.2656751 1.2473383 0.10799789 72
0.27774963 1.2270669 0.12282328 85
0.2484735 1.2762171 0.15787962 65
0.26311383 1.2554847 0.0098431576 88
0.2675277 1.2480153 0.029098792 100
0.26112115 1.2588568 0.049678773 86
0.26217917 1.2570664 0.069465525 49
0.27665225 1.2325742 0.085100345 58
0.26734304 1.2483277 0.10799789 79
0.27934676 1.2280145 0.12282328 85
0.25904453 1.2623711 -0.0099827768 86
0.25810486 1.2639612 0.15373851 68
0.26396936 1.2583082 0.0098780617 73
0.27138418 1.2456497 0.028889447 100
0.25595123 1.2719966 0.050898954 83
0.2720781 1.244465 0.067515619 51
0.27443677 1.2404383 0.086351827 58
0.27414322 1.2409395 0.1060898 81
0.2811074 1.2290503 0.12282328 93
0.25805083 1.2684122 0.15477379 67
0.26768497 1.2558457 0.0098082526 74
0.27706003 1.2397118 0.02847076 100
0.2557033 1.2764653 0.051247578 82
0.27573067 1.2419995 0.067028143 51
0.27310318 1.2465212 0.087290429 57
0.26888418 1.2537818 0.10876112 87
0.28466958 1.2266163 0.12192347 85
0.25688061 1.2744393 0.1563267 74
0.26938263 1.2568282 0.0098082526 74
0.28069615 1.237201 0.028261416 100
0.25747299 1.2774895 0.051247578 82
0.26746649 1.2601523 0.069465525 49
0.2816737 1.235505 0.085100345 58
0.26959419 1.2564611 0.10914274 85
0.28626508 1.2275397 0.12192347 85
0.25381944 1.2838279 0.15891489 65
0.27009109 1.2595407 0.0098431576 88
0.27935448 1.2433397 0.028575432 100
0.26814687 1.262941 0.049678773 86
0.26622313 1.2663054 0.07019674 66
0.28330025 1.2364388 0.085100345 58
0.26934496 1.2608457 0.10990598 85
0.28979838 1.2250741 0.12102367 77
0.27009109 1.2595407 -0.0098431576 87
0.26520392 1.268088 0.15373851 76
0.28068027 1.2448601 0.0095290141 92
0.2800231 1.2460188 0.028680105 100
0.26790345 1.267388 0.050027397 100
0.27677113 1.2517526 0.068003096 51
0.28590459 1.2356486 0.084787481 59
0.27880839 1.2481606 0.10685304 81
0.28850433 1.2310648 0.12237337 85
0.26982856 1.2639936 -0.0099129668 87
0.26885042 1.2657182 0.15270324 68
0.28331992 1.2440544 0.0094941091 92
0.27581087 1.2574027 0.029308135 100
0.27061823 1.2666332 0.049853086 85
0.27845442 1.2527034 0.068003096 51
0.28850013 1.234846 0.084474608 59
0.27759141 1.2542375 0.10799789 87
0.29011536 1.2319748 0.12237337 68
0.26959375 1.2684543 -0.0099827768 86
0.27437121 1.2599618 0.15063268 70
0.27913019 1.25546 0.0097035384 90
0.28335288 1.2478919 0.028680105 100
0.27429509 1.2641256 0.049504463 100
0.28400999 1.2467144 0.067028143 51
0.28531182 1.2443811 0.086038955 58
0.28980592 1.2363267 0.1038001 76
0.29457808 1.2277739 0.12102367 86
0.27608317 1.2609209 0.15063268 70
0.28469944 1.249404 0.0095639192 91
0.28308851 1.2523148 0.028889447 100
0.26733917 1.2807744 0.051073264 83
0.28183094 1.2545874 0.068003096 51
0.29462114 1.2314751 0.083536007 60
0.28192922 1.2544098 0.10761628 79
0.29617757 1.2286626 0.12102367 86
0.27792168 1.2616515 -0.0098082526 88
0.26844448 1.2787769 0.15580906 67
0.27474132 1.2713153 0.0099827768 87
0.29045701 1.2426931 0.028261416 100
0.27766487 1.2659907 0.049504463 86
0.28535017 1.2519939 0.067515619 68
0.29425135 1.2357826 0.084161744 59
0.28164726 1.2587378 0.10837951 87
0.29957578 1.2260854 0.12012386 86
0.28129068 1.2593873 0.14959741 78
0.28414348 1.2582234 0.0097035384 90
0.2863777 1.2541205 0.028889447 100
0.29178455 1.2441912 0.047238413 91
0.28608492 1.2546581 0.067759357 51
0.2968235 1.2349377 0.083848871 59
0.29180494 1.2441537 0.10494494 75
0.29557765 1.2372255 0.12282328 85
0.27936187 1.2670045 -0.0098780617 97
0.28854382 1.2501426 0.14649157 72
0.29820168 1.2362746 0.0092497757 94
0.28806919 1.2550378 0.028889447 100
0.28492099 1.2608676 0.048807215 88
0.28872156 1.2538297 0.067515619 51
0.29281622 1.2462473 0.08572609 58
0.290663 1.2502346 0.1060898 81
0.28394896 1.2626675 -0.0097733475 88
0.28471375 1.2612512 0.14959741 70
0.29227853 1.2512534 0.0095290141 76
0.29542118 1.2453849 0.028261416 100
0.27911136 1.275841 0.050201707 85
0.28760061 1.2599887 0.068246834 68
0.29541275 1.2454008 0.085413218 58
0.28956041 1.2563291 0.10723466 81
0.28643015 1.2621742 0.14959741 70
0.28560606 1.2680913 0.0098431576 88
0.29716527 1.2463149 0.028261416 100
0.28283545 1.2733108 0.049853086 85
0.28939825 1.2609471 0.068246834 34
0.29226515 1.2555462 0.10685304 73
0.28560606 1.2680913 -0.0098431576 87
0.28098977 1.2767879 0.15373851 68
0.28920913 1.2654721 0.0097733475 89
0.29324788 1.2577989 0.028889447 100
0.28737795 1.2689511 0.049330149 87
0.29573655 1.2530707 0.067028143 51
0.29396158 1.2564429 0.10685304 66
0.29107189 1.261933 -0.0097035384 89
0.2899588 1.2640477 0.14959741 70
0.29918331 1.2503805 0.009459204 77
0.29671571 1.2551067 0.028680105 100
0.29733324 1.2539239 0.047761347 60
0.29550233 1.2574306 0.067515619 51
0.29830205 1.2520684 0.10570818 73
0.29338682 1.2614824 0.14856213 71
0.29985803 1.2529854 0.0094941091 92
0.29465169 1.263038 0.029098792 100
0.29344171 1.2653743 0.048807215 58
0.29712012 1.2582718 0.067515619 51
0.29590645 1.2606152 0.1480445 79
0.29426235 1.2680392 0.048981529 58
0.29320836 1.2700918 0.15063268 70
0.29320267 1.2742107 0.049504463 57
0.29399139 1.272662 0.15115032 77
0.29780877 1.269904 -0.0097733475 100
0.29678363 1.2761025 -0.0098780617 100
0.29686388 1.2806106 -0.0099478718 100
