# .PCD v0.7 - Point Cloud Data file format
VERSION 0.7
FIELDS x y z intensity
SIZE 4 4 4 4
TYPE F F F F
COUNT 1 1 1 1
WIDTH 732
HEIGHT 1
VIEWPOINT 0 0 0 1 0 0 0
POINTS 732
DATA ascii
-1.1701168 0.16590725 0.020628745 28
-1.1825335 0.16766778 0.062593803 30
-1.0943322 0.15906067 0.019302361 5
-1.0305048 0.15327455 0.018185407 6
-1.0062407 0.15325761 0.01776655 2
-1.0847626 0.16889957 0.019162742 1
0.062801212 0.00051760674 0.047730394 48
0.057560742 0.0096780062 0.015811881 73
0.051279992 0.0055484176 0.047835063 35
0.046286643 0.0040439963 0.04804441 21
0.042646468 0.0040534735 0.048149079 100
0.036515474 0.00093501806 0.048463095 68
0.038426101 0.0092714429 0.04804441 36
0.03676194 0.012804866 0.047939736 27
0.034253836 0.014510989 0.047939736 18
0.025827646 0.0081793666 0.048463095 8
0.023304284 0.0099217296 0.048463095 8
0.020654321 0.011764884 0.048463095 8
0.013064384 0.012219608 0.048672438 8
-1.0197241 1.1269207 0.084365562 5
-1.0392106 1.1313515 0.1425868 4
-1.0320723 1.135541 0.028342709 8
-0.98927885 1.1256535 0.082795486 9
-1.0301745 1.1351025 0.14188954 13
-1.0113187 1.1364915 0.02799366 13
-1.0133054 1.1369579 0.084156215 69
-1.0114334 1.1365185 0.14032075 53
-0.99258751 1.1374962 0.027679516 41
-1.01208 1.1421399 0.084156215 100
-1.0121477 1.142156 0.14049506 100
-0.97574633 1.1391169 0.027400278 42
-1.0049477 1.1461813 0.083842203 100
-1.0050294 1.1462011 0.13997212 87
-0.98415846 1.1468254 0.027574802 32
-0.98228937 1.1463664 0.082690813 100
-1.0056417 1.1521022 0.14014643 86
-0.98283368 1.1521783 0.027574802 23
-0.98096627 1.1517128 0.082690813 65
-0.99849874 1.1560841 0.13962349 82
-0.98149031 1.1575266 0.027574802 28
-0.98349696 1.1580343 0.082900152 39
-0.98941559 1.1595321 0.13892625 77
-0.96269649 1.1583945 0.027260659 50
-0.98406762 1.1638815 0.083004825 39
-0.97260815 1.1609393 0.13753176 82
-0.96326667 1.1641765 0.027295563 61
-0.98075062 1.1687306 0.082900152 82
-0.9770183 1.1677585 0.1380547 91
-0.95608145 1.1679239 0.027190849 71
-0.96003944 1.1689696 0.081853434 98
-0.97947317 1.1741042 0.13840333 92
-0.9527517 1.1726611 0.027155945 81
-0.95477921 1.1732044 0.081644088 96
-0.97420424 1.1784093 0.1380547 100
-0.96291536 1.1810501 0.027365373 92
-0.9475804 1.1768836 0.081330076 100
-0.96507865 1.1816378 0.13735744 100
-0.9460482 1.1820803 0.027086135 92
-0.94807655 1.182639 0.081434749 100
-0.95786995 1.1853366 0.13683452 98
-0.9368965 1.185149 0.026946515 93
-0.94855076 1.1884029 0.081539422 92
-0.96024901 1.1916691 0.13718314 98
-0.94328231 1.1919934 0.027086135 92
-0.92800897 1.1876771 0.080492698 84
-0.95316488 1.1947861 0.1366602 99
-0.95333463 1.2005064 0.027295563 60
-0.92846209 1.1933837 0.080597371 60
-0.95550376 1.2011275 0.13700883 100
-0.96142524 1.2085376 0.027470088 38
-0.93656594 1.2013247 0.081120729 24
-0.94824928 1.2047145 0.13648589 89
-0.93110722 1.2053518 0.026946515 61
-0.92355412 1.2031317 0.080492698 24
-0.9390766 1.2076943 0.13578865 84
-0.91999573 1.2076662 0.026771991 74
-0.92203325 1.2082727 0.080492698 28
-0.93372053 1.2117524 0.13544002 89
-0.91080087 1.2104855 0.026632372 75
-0.92049438 1.2134085 0.080492698 52
-0.93598467 1.2180793 0.13578865 98
-0.92638844 1.2210954 0.026946515 81
-0.90739888 1.2152934 0.079864666 100
-0.93623775 1.2241049 0.13596296 99
-0.91716331 1.2238823 0.026806897 85
-0.91155976 1.2221488 0.080178685 88
-0.9213199 1.2251682 0.13474278 87
-0.90809613 1.2261013 0.026667276 85
-0.91203827 1.2273345 0.080283359 78
-0.90276891 1.224435 0.13317397 60
-0.89505678 1.2275664 0.026457848 88
-0.91424114 1.2336409 0.080492698 64
-0.90877157 1.231909 0.13387123 43
-0.90106791 1.235049 0.026597468 83
-0.9012019 1.2350919 0.079864666 85
-0.91473967 1.2394305 0.13456847 43
-0.89563137 1.2388774 0.026527658 92
-0.89387017 1.2383062 0.079550654 100
-0.91498727 1.2451553 0.13474278 54
-0.8976199 1.2456732 0.026597468 99
-0.8958562 1.2450937 0.07976 100
-0.90936643 1.2495331 0.13439415 71
-0.88077015 1.2456765 0.02631823 99
-0.89608425 1.2507679 0.079864666 100
-0.89823037 1.2514814 0.1335226 91
-0.87547749 1.2488954 0.02624842 93
-0.89267355 1.2546725 0.07976 100
-0.89671069 1.2560288 0.1335226 86
-0.87758392 1.2551552 0.02631823 96
-0.88529974 1.2577775 0.07944598 100
-0.90066451 1.2629991 0.13404553 82
-0.87588161 1.2601354 0.02631823 96
-0.87225562 1.2588891 0.078817949 100
-0.89705068 1.2674122 0.13387123 100
-0.88171738 1.2677363 0.026457848 85
-0.87242693 1.2645066 0.078922622 100
-0.89342362 1.271806 0.13369691 85
-0.86487919 1.2674251 0.02617861 79
-0.87822896 1.2721183 0.079341307 70
-0.89918166 1.2794847 0.13439415 42
-0.85936576 1.2710212 0.0261088 81
-0.87270373 1.2757628 0.079131968 31
-0.88613063 1.2805359 0.13334829 35
-0.85760838 1.2759378 0.0261088 99
-0.85777289 1.2759969 0.078399263 19
-0.88808972 1.2868937 0.13369691 28
-0.8520748 1.2794822 0.026038991 93
-0.85412091 1.2802258 0.07829459 61
-0.88253146 1.2905495 0.13334829 18
-0.85788625 1.2868856 0.02617861 100
-0.8505463 1.2841909 0.078189917 100
-0.85835356 1.2870572 0.13125655 13
-0.84107536 1.286231 0.025899371 100
-0.85061544 1.2897714 0.07829459 100
-0.86774749 1.2961292 0.13230242 3
-0.83168513 1.2885158 0.025759751 100
-0.83935136 1.2913928 0.077771232 51
-0.87140578 1.303422 0.13282534 1
-0.83360618 1.2947538 0.025829561 93
-0.83565539 1.295531 0.077666558 51
-0.84904307 1.3006085 0.13090792 5
-0.83736783 1.3017273 0.025934275 74
-0.83194751 1.29965 0.077561885 55
-0.86020547 1.3104801 0.1321281 28
-0.84296221 1.3094555 0.026073895 72
-0.83754021 1.3073556 0.077980578 72
-0.85273641 1.3132408 0.13160518 86
-0.82999164 1.3097017 0.025864467 88
-0.83017045 1.3097717 0.077666558 65
-0.8453607 1.3157125 0.13108224 100
-0.81508082 1.3093717 0.025620133 99
-0.83013541 1.31532 0.077771232 76
-0.83047634 1.3154547 0.12986206 95
-0.816809 1.3158545 0.025689943 100
-0.82070822 1.3174118 0.077352546 95
-0.83401877 1.3227276 0.130385 97
-0.82231313 1.3236148 0.025829561 100
-0.81693679 1.3214459 0.077247873 97
-0.83762401 1.3297915 0.13090792 100
-0.81676573 1.326654 0.025759751 100
-0.80955142 1.3237157 0.076933853 100
-0.82837921 1.3313839 0.13021068 100
-0.80741698 1.3283786 0.025620133 100
-0.80761033 1.3284581 0.076933853 100
-0.8135131 1.3308862 0.1289905 100
-0.79447705 1.3282757 0.025410704 100
-0.8112846 1.3352548 0.077247873 99
-0.80796558 1.3338766 0.12864187 100
-0.79382545 1.3280051 0.17866045 21
-0.79620832 1.334512 0.025480513 100
-0.79456824 1.3338242 0.076410495 100
-0.81333846 1.3416953 0.12933913 100
-0.77173227 1.3242483 0.17597933 20
-0.79791242 1.3407671 0.025550323 100
-0.78523523 1.335399 0.075991809 96
-0.80583054 1.34412 0.12881619 100
-0.76978952 1.3288586 0.17597933 18
-0.80878264 1.3509719 0.025794657 70
-0.8016178 1.3479085 0.077038527 42
-0.80381829 1.3488493 0.12881619 71
-0.7806074 1.3389251 0.1776855 13
-0.81225413 1.3580892 0.025899371 67
-0.81609553 1.3597474 0.077980578 61
-0.82374007 1.3630476 0.13090792 16
-0.79683858 1.3514342 0.18012288 5
-0.79186159 1.354851 0.025550323 100
-0.81219763 1.3637145 0.077875905 100
-0.8161822 1.3654511 0.130385 86
-0.78570193 1.3521662 0.17890419 22
-0.79347259 1.3611422 0.025620133 100
-0.8046326 1.3660526 0.077561885 100
-0.81956631 1.3726236 0.13090792 100
-0.78184468 1.3560257 0.17866045 33
-0.79505593 1.3674515 0.025689943 100
-0.79706782 1.3683453 0.077247873 100
-0.82291692 1.379827 0.13143086 100
-0.77434844 1.3582537 0.17792924 35
-0.79843634 1.3745974 0.025794657 100
-0.80955058 1.3795807 0.078085244 100
-0.80078179 1.3756491 0.12951343 100
-0.77590972 1.3644972 0.17841671 19
-0.79267401 1.3776517 0.025724847 100
-0.8128733 1.3867933 0.078399263 100
-0.7950291 1.3787175 0.12916481 100
-0.79010302 1.3764881 0.18061037 19
-0.79054481 1.3823348 0.025724847 100
-0.81434542 1.3932065 0.07860861 100
-0.80739433 1.3900313 0.1305593 100
-0.76450449 1.3704401 0.17744176 16
-0.78839916 1.3870105 0.025724847 100
-0.80309266 1.3937843 0.078085244 100
-0.81245929 1.3981023 0.13125655 100
-0.75699228 1.3725317 0.17671055 13
-0.79530257 1.3958962 0.025899371 100
-0.79909617 1.3976612 0.077980578 100
-0.81025845 1.4028543 0.13125655 100
-0.76388031 1.3812771 0.17792924 11
-0.8021602 1.4048376 0.026073895 100
-0.80412871 1.4057617 0.078399263 100
-0.80804104 1.4075987 0.13125655 100
-0.78150445 1.3951397 0.18061037 5
-0.79654425 1.4073713 0.026004085 100
-0.80754036 1.4125762 0.078713275 100
-0.79882795 1.4084523 0.1305593 100
-0.79029936 1.4044154 0.1820728 3
-0.78348452 1.4068968 0.025794657 100
-0.80889362 1.4190326 0.078922622 100
-0.80018681 1.4148741 0.13090792 100
-0.79386324 1.4176245 0.026038991 100
-0.80302137 1.4220378 0.078713275 100
-0.80510694 1.423043 0.13160518 100
-0.80238467 1.4275579 0.02624842 100
-0.79534847 1.4241369 0.078399263 100
-0.81715363 1.434739 0.13299966 100
-0.80008119 1.4322747 0.02624842 100
-0.80022949 1.4323474 0.078817949 100
-0.80051488 1.4324875 0.13160518 100
-0.78700775 1.4316616 0.026038991 100
-0.80148929 1.4388282 0.079027295 100
-0.79819411 1.4371976 0.13160518 100
-0.78468996 1.4363246 0.026038991 100
-0.80808121 1.4480023 0.079550654 100
-0.80298728 1.4454594 0.13230242 100
-0.78949994 1.4445772 0.02617861 100
-0.80213851 1.4509422 0.079341307 100
-0.80595976 1.4528666 0.13282534 100
-0.79426843 1.4528716 0.02631823 100
-0.79263073 1.4520396 0.078922622 100
-0.81600219 1.463912 0.13404553 100
-0.80255467 1.4630311 0.026527658 100
-0.79735178 1.4603652 0.079341307 100
-0.80647892 1.4650419 0.13334829 100
-0.78603595 1.4601703 0.02624842 100
-0.80392748 1.4694127 0.079864666 100
-0.7988562 1.4667929 0.13282534 100
-0.78361863 1.4648297 0.02624842 100
-0.8067916 1.476903 0.080178685 100
-0.81055123 1.4788618 0.13421984 100
-0.79180628 1.4750617 0.026457848 96
-0.79370755 1.4760606 0.079550654 100
-0.8115961 1.4854603 0.13456847 100
-0.79287082 1.4816138 0.026527658 59
-0.77888125 1.4742005 0.078817949 63
-0.80380887 1.4874101 0.13404553 89
0.15028766 1.2671418 0.011134636 12
0.098065168 1.3320935 0.063100755 19
0.12681717 1.2963333 0.13127659 16
0.1555886 1.2605488 0.14531837 7
0.16067335 1.2575265 0.010890301 26
0.16364032 1.2538112 0.032448292 29
0.16458234 1.2526315 0.054036561 51
0.13626441 1.2880921 0.081408724 13
0.13828936 1.2855564 0.10449822 11
0.15306693 1.2670515 0.12364423 49
0.19248277 1.2176938 0.13227122 15
0.15097743 1.2696681 0.1713382 7
0.16370493 1.2573831 0.010855397 100
0.17410031 1.2442673 0.031715591 92
0.15026546 1.2743394 0.056302611 96
0.1763902 1.2413783 0.073852822 31
0.17453775 1.2437155 0.095737889 38
0.17196396 1.2469628 0.11830158 100
0.18565288 1.2296916 0.13542053 30
0.14441171 1.281725 0.17496167 28
0.16284949 1.2618039 0.010925206 100
0.17443973 1.2470806 0.03182026 100
0.14824295 1.2803588 0.056825545 100
0.16813245 1.2550929 0.075802729 30
0.17611071 1.2449579 0.095737889 25
0.16018972 1.2651826 0.12249938 100
0.19682235 1.2186476 0.13182132 39
0.14611089 1.2830672 0.17496167 35
0.1620191 1.2662357 0.010995016 100
0.1723333 1.2530437 0.032134276 90
0.15730071 1.2722707 0.055779677 100
0.16485241 1.2626119 0.076777689 29
0.18012121 1.2430828 0.095112152 25
0.16908941 1.2571927 0.12020966 100
0.19111025 1.2290275 0.13452072 31
0.15971348 1.2691847 0.16978529 36
0.16979909 1.2596225 0.010820492 100
0.17761207 1.249561 0.03182026 61
0.16385633 1.2672756 0.055082429 75
0.1604006 1.2717259 0.077996381 28
0.17926896 1.2474272 0.095737889 25
0.19238096 1.2305416 0.11334054 68
0.18665841 1.2379111 0.13677025 30
0.15189222 1.2826829 0.1739264 35
0.18258211 1.2467575 0.010506349 68
0.17083806 1.2619965 0.032552965 59
0.16324914 1.2718437 0.055431053 49
0.18041828 1.2495652 0.074340299 46
0.1713748 1.2613 0.098240845 36
0.18208721 1.2473997 0.11715672 13
0.18361762 1.2454138 0.13856985 22
0.15377399 1.2841387 0.1739264 49
0.17452759 1.2607424 0.010785587 65
0.17134413 1.2649032 0.032657638 29
0.16863531 1.2684436 0.054908119 50
0.194157 1.2350868 0.071902916 48
0.18509552 1.2469301 0.095112152 51
0.20284352 1.2237334 0.11105084 14
0.19712093 1.2312129 0.13407083 31
0.15674496 1.2839843 0.17340876 57
0.17874736 1.2589301 0.010715778 39
0.17316058 1.2662877 0.032657638 29
0.158416 1.2857059 0.056651235 47
0.18986171 1.2442927 0.073121607 62
0.19281891 1.2403982 0.093547814 52
0.19263634 1.2406387 0.11486702 13
0.21177697 1.215431 0.1291219 40
0.17148235 1.2684979 0.16771474 67
0.17323396 1.2698039 0.010925206 39
0.17249072 1.2707899 0.032866981 29
0.16861385 1.2759328 0.055431053 49
0.18076509 1.2598134 0.075315252 45
0.2039758 1.229023 0.091044858 54
0.19309956 1.2434509 0.11524864 13
0.20629558 1.2259456 0.13182132 47
0.17438763 1.2682735 0.16719711 67
0.18199819 1.2613815 0.010715778 39
0.1668824 1.2815652 0.033495013 28
0.18095407 1.2627758 0.053862248 51
0.18706548 1.2546153 0.074340299 92
0.19713068 1.2411757 0.093234941 53
0.20047298 1.2367127 0.11334054 13
0.21240228 1.2207839 0.13002171 32
0.17942896 1.2648122 0.16564418 68
0.18729502 1.2578489 0.010611063 94
0.1877369 1.2572545 0.03182026 30
0.18980893 1.2544675 0.05281638 53
0.19349691 1.2495071 0.073365346 46
0.20702773 1.2313077 0.091044858 68
0.20093289 1.2395055 0.11372216 13
0.21397787 1.2219596 0.13002171 32
0.18115845 1.2661027 0.16564418 68
0.18900013 1.2591119 0.010611063 81
0.20485863 1.2376256 0.030459527 65
0.17612115 1.2765615 0.055082429 75
0.18809992 1.2603316 0.074827775 100
0.20629397 1.2356808 0.091670595 81
0.20723733 1.2344027 0.11219569 14
0.22134376 1.2152902 0.1277722 32
0.18289241 1.2673872 0.16564418 68
0.18834591 1.2635952 0.010680873 80
0.19941044 1.248494 0.031087559 63
0.18260187 1.2714348 0.054385185 76
0.20271939 1.2439778 0.072146654 79
0.21025661 1.2336909 0.091044858 81
0.21002084 1.2340126 0.11181407 14
0.22750714 1.2101469 0.12597258 16
0.18120551 1.2733406 0.16719711 67
0.1878925 1.2682154 0.010750682 79
0.20007607 1.2514522 0.03119223 63
0.18804407 1.2680068 0.053862248 100
0.19987354 1.2517309 0.073121607 78
0.21203953 1.234992 0.091044858 81
0.21642199 1.2289622 0.1102876 14
0.23721957 1.2003473 0.12282328 17
0.19449878 1.2591259 0.16202073 70
0.19431385 1.2629896 0.010611063 94
0.20526457 1.2478117 0.030878214 63
0.19677913 1.2595727 0.05281638 100
0.20388016 1.2497305 0.072634131 94
0.20788577 1.2441787 0.092609204 100
0.2180261 1.2301239 0.1102876 14
0.23416287 1.2077579 0.12462288 16
0.19846895 1.2572305 0.16098544 72
0.19595063 1.2641664 0.010611063 94
0.20801416 1.2473286 0.030773543 96
0.19840455 1.2607414 0.05281638 100
0.20547292 1.2508756 0.072634131 63
0.20830962 1.2469163 0.092922069 100
0.21498013 1.2376059 0.11181407 14
0.24923575 1.1897933 0.11922406 8
0.20008662 1.2583935 0.16098544 72
0.20231357 1.2588809 0.010471444 96
0.22357294 1.2289881 0.029517479 100
0.19319138 1.2717075 0.053862248 100
0.21290603 1.2439868 0.071415432 64
0.21341103 1.2432767 0.091983467 93
0.20751172 1.2515717 0.11486702 20
0.2292439 1.2210141 0.1277722 16
0.19731501 1.2659093 0.163056 70
0.20171568 1.2633588 0.010541254 95
0.21826598 1.2399147 0.030145511 98
0.19494483 1.2729499 0.053862248 100
0.22028682 1.237052 0.07019674 66
0.21962205 1.2379937 0.090731993 100
0.20693034 1.255972 0.11563025 47
0.23419181 1.217355 0.12642249 24
0.19793409 1.2687156 0.16357364 69
0.20343995 1.2645715 0.010541254 95
0.22793138 1.2296201 0.029412808 67
0.19898933 1.2709229 0.053513627 100
0.21508411 1.2479542 0.071659178 80
0.22239128 1.2375263 0.090419121 100
0.2007423 1.2684213 0.11830158 91
0.22792715 1.2296262 0.12957181 56
0.2074374 1.2588668 0.15995017 72
0.2119346 1.2558694 0.010331824 84
0.22147223 1.2421618 0.030145511 98
0.20520416 1.2655424 0.05281638 100
0.21780467 1.2474328 0.071415432 48
0.2261999 1.2353672 0.089793384 100
0.22258046 1.2405691 0.11143246 91
0.22054902 1.2434887 0.13317102 85
0.21016377 1.2584144 0.15943253 73
0.22045091 1.2471739 0.010122396 99
0.2208524 1.2465925 0.030354854 97
0.20467156 1.2700217 0.053165004 100
0.21608904 1.2534897 0.072146654 79
0.22445863 1.2413709 0.090731993 95
0.22422504 1.2417091 0.11143246 84
0.22552606 1.2398252 0.13182132 94
0.20857728 1.2643664 0.16098544 72
0.21751145 1.2548609 0.010262015 98
0.22356421 1.2460341 0.030250182 98
0.20633161 1.2711642 0.053165004 100
0.22667542 1.2414972 0.07019674 66
0.22490638 1.244077 0.091044858 100
0.22246015 1.2476442 0.1125773 100
0.23039213 1.2360772 0.13047162 96
0.20475578 1.2734621 0.16357364 69
0.21358019 1.2642841 0.010436539 68
0.23084676 1.2389152 0.029726824 67
0.20023581 1.2838902 0.054385185 76
0.22385547 1.2491871 0.071171694 65
0.23212051 1.2370437 0.089480512 97
0.22302482 1.2504076 0.11295892 89
0.23640689 1.230746 0.128672 89
0.20977625 1.269873 0.16202073 70
0.21091777 1.2721428 0.010576159 40
0.22697896 1.2483579 0.030250182 32
0.21550161 1.2653546 0.052293446 80
0.22339216 1.2536695 0.071659178 64
0.23825637 1.2316574 0.088229038 98
0.22698516 1.2483487 0.11219569 84
0.23482603 1.2367373 0.13002171 96
0.22025958 1.2583085 0.15787962 73
0.22380555 1.256712 0.01022711 42
0.20863587 1.2793465 0.032134276 30
0.21612352 1.2681743 0.052467756 53
0.22618762 1.2531577 0.071415432 96
0.23547074 1.2393064 0.089480512 100
0.22647086 1.2527351 0.11295892 96
0.23645717 1.2378346 0.13002171 96
0.22304162 1.2578518 0.15736198 74
0.22320578 1.2611207 0.010296919 42
0.21253964 1.2771502 0.031924933 30
0.22108856 1.2643025 0.051944822 54
0.23329005 1.2459655 0.07019674 99
0.23265153 1.2469251 0.090731993 95
0.23786175 1.239095 0.10952436 85
0.23369208 1.2453613 0.13182132 94
0.21931022 1.266975 0.15995017 72
0.22712603 1.258921 0.01022711 42
0.22531816 1.2616587 0.030878214 31
0.21513045 1.2770857 0.053165004 52
0.23823515 1.2420987 0.069465525 99
0.23649535 1.2447333 0.090106249 96
0.23409173 1.248373 0.11143246 98
0.24179661 1.2367057 0.1291219 100
0.21998245 1.2697384 0.1604678 72
0.22225788 1.2700801 0.010436539 27
0.23141551 1.2561071 0.030459527 32
0.23110014 1.2565882 0.050898954 55
0.24097311 1.2415237 0.069221787 83
0.24573398 1.2342595 0.087916173 100
0.23361117 1.2527568 0.11219569 84
0.24449578 1.2361488 0.128672 97
0.2227878 1.2692716 0.15995017 72
0.22182491 1.2745738 0.010506349 40
0.23093638 1.2605648 0.03066887 32
0.22519651 1.2693899 0.052119136 54
0.23612699 1.2525841 0.070684217 65
0.25166449 1.228695 0.086664692 100
0.23636866 1.2522125 0.11181407 84
0.2461248 1.2372123 0.128672 97
0.22558588 1.2687912 0.15943253 73
0.23660129 1.2555548 0.010087491 43
0.24348176 1.2448947 0.029622151 33
0.23774633 1.2537808 0.05037602 56
0.24211946 1.2470055 0.069709264 66
0.25112498 1.233053 0.087290429 99
0.24231246 1.2467064 0.1102876 85
0.24775755 1.2382703 0.128672 89
0.23466238 1.2585588 0.15580906 75
0.25115934 1.2363869 0.0096686333 60
0.24398071 1.2475903 0.029726824 67
0.22752833 1.2732668 0.052293446 80
0.2490578 1.2396667 0.068490572 50
0.24413633 1.2473474 0.089793384 83
0.25342765 1.2328469 0.10685304 88
0.24720934 1.2425516 0.12957181 96
0.23107302 1.2677348 0.15839726 73
0.23454878 1.2661141 0.010262015 84
0.24886465 1.2435994 0.029412808 67
0.23463225 1.2659829 0.051421888 82
0.24324319 1.2524403 0.07019674 66
0.24792427 1.2450783 0.089167647 56
0.24451098 1.2504464 0.11066922 85
0.25722566 1.2304499 0.12597258 90
0.22970268 1.2737355 0.15995017 64
0.24046513 1.2603934 0.010122396 85
0.24297437 1.256418 0.030145511 98
0.23415181 1.2703955 0.051770512 81
0.25014254 1.2450616 0.068978049 50
0.25899079 1.2310433 0.086351827 58
0.23877051 1.2630782 0.11334054 89
0.263955 1.2231786 0.12372308 100
0.22518802 1.2845968 0.163056 63
0.2422646 1.2615246 0.010122396 85
0.25111842 1.247383 0.029517479 100
0.24233165 1.2614175 0.05072464 84
0.24767211 1.2528875 0.069953002 49
0.25963432 1.2337811 0.086664692 71
0.25412345 1.2425833 0.10837951 79
0.26251557 1.2291791 0.12507279 83
0.23732781 1.2694098 0.15787962 65
0.24284071 1.2642407 0.0101573 85
0.25059465 1.2517642 0.029726824 100
0.2492213 1.253974 0.049853086 57
0.24194032 1.2656896 0.071659178 96
0.26117384 1.2347414 0.086664692 71
0.24636558 1.258569 0.11181407 91
0.26712573 1.2251645 0.12372308 92
0.24918285 1.2540359 0.15270324 68
0.25409794 1.2500428 0.0098431576 88
0.2523624 1.2528583 0.029726824 100
0.25099719 1.2550732 0.049853086 85
0.24688411 1.2617458 0.070927955 48
0.25665992 1.2458864 0.08854191 56
0.25536954 1.2479799 0.10914274 71
0.25857028 1.2427872 0.12822211 89
0.23778087 1.2765141 0.15943253 73
0.25360414 1.2544329 0.0099129668 87
0.25917715 1.2453244 0.029203463 100
0.24012938 1.2764562 0.051944822 81
0.25887671 1.2458153 0.068490572 50
0.25823963 1.2468566 0.08854191 56
0.25183305 1.2573276 0.11105084 84
0.27132732 1.225466 0.12327318 85
0.23845398 1.2791945 0.15995017 64
0.25538167 1.2555159 0.0099129668 100
0.25574061 1.2549244 0.029726824 100
0.2481893 1.2673687 0.050898954 83
0.25650337 1.2536675 0.069465525 49
0.27331141 1.2259687 0.084474608 59
0.25463969 1.2567387 0.11066922 100
0.27299854 1.2264843 0.12327318 85
0.24032238 1.2803329 0.15995017 64
0.25905675 1.2530643 0.0098431576 88
0.25941122 1.2524757 0.029517479 100
0.24881235 1.2700734 0.051073264 83
0.26015723 1.2512372 0.068978049 50
0.2738058 1.2285759 0.084787481 73
0.26537162 1.2425795 0.10723466 66
0.2735084 1.2290697 0.12372308 92
0.24999011 1.268118 0.15580906 67
0.25775295 1.2592777 0.0099478718 73
0.26527825 1.2466788 0.029098792 100
0.25371227 1.2660426 0.05055033 84
0.26599476 1.2454793 0.068003096 51
0.27447549 1.231281 0.085100345 58
0.26005843 1.2554178 0.10990598 78
0.27619213 1.2284069 0.12327318 85
0.25776163 1.2592632 0.15270324 68
0.2644757 1.2516434 0.0097733475 89
0.2617681 1.2562108 0.029622151 100
0.26043886 1.258453 0.049678773 86
0.26352394 1.2532489 0.068978049 50
0.273992 1.2355906 0.08572609 58
0.26867774 1.244555 0.10723466 81
0.27473253 1.2343414 0.12462288 83
0.25741544 1.2635531 0.15373851 68
0.26725635 1.2509627 0.0097384425 75
0.27063739 1.2452114 0.028889447 100
0.25415334 1.2732518 0.051073264 100
0.2673091 1.2508731 0.068490572 50
0.27369812 1.2400049 0.086351827 58
0.26942402 1.2472754 0.10761628 79
0.28038666 1.2286273 0.12282328 85
0.25335214 1.2746146 0.15684435 66
0.26582974 1.2570794 0.0098431576 88
0.27020183 1.2495855 0.029098792 100
0.25080374 1.2828345 0.051944822 81
0.26590428 1.2569517 0.069221787 33
0.27824458 1.2357999 0.085413218 58
0.26309359 1.2617693 0.11066922 78
0.28289101 1.2278357 0.12237337 85
0.25697416 1.2722583 0.15580906 67
0.26444063 1.2632108 0.0099478718 73
0.27779821 1.24014 0.02847076 100
0.25849584 1.2734785 0.050898954 83
0.26851526 1.2561731 0.068978049 50
0.27583161 1.2435366 0.086664692 71
0.26669335 1.2593199 0.10990598 85
0.2834343 1.2304054 0.12282328 93
0.26644456 1.2597497 -0.0098780617 87
0.26444912 1.2631961 0.15270324 68
0.27404749 1.250284 0.0096686333 60
0.26642367 1.2635529 0.029831495 100
0.27505571 1.2485292 0.048284281 88
0.26617324 1.2639887 0.069953002 49
0.28035572 1.2393048 0.08572609 58
0.27516401 1.2483407 0.10723466 81
0.28787503 1.2262177 0.12147357 77
0.26607776 1.264155 -0.0099478718 86
0.26993588 1.2574401 0.15063268 70
0.27284011 1.2565048 0.0097733475 89
0.27120048 1.2593827 0.029517479 100
0.26892152 1.2633832 0.049678773 86
0.27584675 1.2512271 0.068003096 51
0.28207761 1.2402899 0.08572609 58
0.27886268 1.2459332 0.10647142 88
0.28183183 1.2407213 0.12507279 83
0.27363685 1.2551062 0.14959741 70
0.2774072 1.2521988 0.0096686333 90
0.27675644 1.25335 0.029098792 100
0.2685982 1.2677814 0.050027397 85
0.27939788 1.2486775 0.067515619 51
0.2826665 1.2428954 0.086038955 58
0.27851012 1.2502478 0.10723466 81
0.28914836 1.2314295 0.12237337 85
0.26383862 1.2762008 0.15580906 67
0.27331018 1.2636609 0.0098780617 73
0.28634194 1.2404101 0.028261416 100
0.27237281 1.2653334 0.049678773 86
0.27921298 1.2531294 0.068003096 51
0.29116225 1.2318099 0.083848871 59
0.2764326 1.25809 0.10876112 79
0.29751086 1.2204828 0.11922406 87
0.27428788 1.2619166 -0.0098431576 87
0.26569587 1.2772462 0.15580906 67
0.27883637 1.2575853 0.0097384425 75
0.28596187 1.2447729 0.02847076 100
0.27789038 1.2592864 0.048981529 87
0.27695733 1.260964 0.068978049 50
0.29269508 1.2326657 0.083848871 59
0.27805266 1.2589946 0.10876112 87
0.29332322 1.2315361 0.12192347 85
0.27494875 1.2645757 -0.0098780617 87
0.27301314 1.2680562 0.15270324 68
0.2786943 1.2620783 0.0098082526 89
0.28384647 1.2527335 0.028889447 100
0.28545737 1.2498118 0.047935657 89
0.27875865 1.2619615 0.068978049 50
0.28962377 1.242255 0.085413218 58
0.28458628 1.2513916 0.10685304 88
0.29595745 1.2307674 0.12147357 77
0.27676329 1.2655805 -0.0098780617 87
0.28043693 1.2589176 0.14959741 70
0.29376322 1.2384142 0.0093195848 78
0.2796976 1.2641268 0.029517479 100
0.28035665 1.262922 0.049155839 87
0.28420225 1.255892 0.068003096 51
0.2930873 1.2396498 0.084787481 59
0.29277951 1.2402124 0.10418171 82
0.29748681 1.2316072 0.12147357 69
0.28020546 1.2631984 0.15063268 78
0.28594923 1.2569288 0.0096686333 90
0.29293558 1.2440455 0.028261416 100
0.27456698 1.2779186 0.05055033 84
0.28882381 1.2516279 0.067271881 86
0.29198539 1.2457978 0.08572609 58
0.29263288 1.2446038 0.10494494 75
0.27833131 1.2709768 0.15270324 68
0.28472316 1.2630849 0.0097733475 89
0.29450899 1.2448953 0.028261416 100
0.27908465 1.2735654 0.050027397 85
0.28760087 1.2577358 0.068003096 68
0.29918 1.2362131 0.083848871 59
0.28676692 1.2592859 0.10799789 87
0.27998605 1.2718899 -0.0099478718 96
0.27816355 1.2752776 0.15373851 76
0.28841409 1.2605249 0.0097035384 90
0.29061243 1.2564025 0.028889447 100
0.29311988 1.2517006 0.047761347 90
0.28565395 1.2657007 0.068978049 50
0.29872391 1.2411919 0.1038001 76
0.28747314 1.2622893 -0.0097384425 88
0.29274377 1.2524059 0.14649157 72
0.29012793 1.261435 0.0097035384 90
0.29604647 1.2502427 0.02847076 100
0.29666567 1.2490717 0.047412723 60
0.29480958 1.2525816 0.067028143 51
0.29853469 1.2455373 0.10456333 75
0.28901079 1.2635477 0.14959741 70
0.29834527 1.2499421 0.009459204 77
0.29957935 1.2475885 0.028261416 100
0.29186291 1.2623048 0.048632905 88
0.29465201 1.2569857 0.067515619 51
0.2925294 1.2610338 0.14856213 79
0.29172024 1.2667857 0.0097733475 89
0.29174483 1.2667384 0.048981529 87
0.29818484 1.2543514 0.067028143 51
0.29246274 1.2653576 0.14959741 70
0.29528838 1.2641294 0.0097035384 90
0.28709018 1.2800336 0.050201707 56
0.29987708 1.2552276 0.067028143 51
0.28795856 1.2783489 -0.0099827768 100
0.29065284 1.2731221 0.15166797 77
0.29976562 1.2596328 0.067515619 51
0.29246467 1.2739186 -0.0098780617 100
0.2976855 1.263703 0.14856213 79
0.29512906 1.2730308 -0.0098431576 100
0.2994104 1.2645807 0.14856213 79
0.29506853 1.2775366 0.1521856 77
0.29876542 1.2747808 0.049330149 58
0.2995128 1.2732792 0.15063268 78
0.29872939 1.2793022 -0.0099129668 100
