# .PCD v0.7 - Point Cloud Data file format
VERSION 0.7
FIELDS x y z intensity
SIZE 4 4 4 4
TYPE F F F F
COUNT 1 1 1 1
WIDTH 728
HEIGHT 1
VIEWPOINT 0 0 0 1 0 0 0
POINTS 728
DATA ascii
-1.1842382 0.16601232 0.020873077 23
-1.1096125 0.1555509 0.058720943 29
-1.1123949 0.15990222 0.019616505 4
-1.0445931 0.15369326 0.018429741 6
-1.032186 0.15555069 0.018220313 5
-1.0454991 0.1611045 0.018464645 1
0.057671249 0.007225275 0.015846785 123
0.050169945 0.001504302 0.04804441 46
0.052964389 0.011606038 0.047521047 30
0.048251569 0.0099247694 0.047730394 100
0.038643003 0.0067204237 0.048149079 62
0.037099183 0.010165453 0.04804441 27
0.039935172 0.020307004 0.047521047 19
0.0316751 0.013855159 0.04804441 18
0.025633812 0.01073879 0.048358422 8
0.015893281 0.0077829361 0.048777111 8
0.017843306 0.016178548 0.048358422 8
-1.0560975 1.1381404 0.028761566 6
-1.0015779 1.1256437 0.083423518 5
-1.0424614 1.1350149 0.14293543 6
-1.0256531 1.1366659 0.028237993 10
-0.99649948 1.1298816 0.083214171 28
-1.0198963 1.1353263 0.14101799 37
-0.99322659 1.1348033 0.027679516 28
-0.99717754 1.1357372 0.083318844 91
-1.0147336 1.1398873 0.14066938 84
-0.98021299 1.1376541 0.027470088 38
-1.0113626 1.1451383 0.084156215 100
-1.0094929 1.144689 0.14032075 95
-0.97697765 1.1425194 0.027435184 42
-0.9731769 1.1415921 0.082167454 100
-1.0120468 1.1510748 0.14066938 87
-0.99320418 1.1519043 0.027749326 23
-0.97969133 1.1485603 0.082586139 100
-0.99917024 1.1533809 0.13962349 87
-0.97828549 1.1538788 0.027504992 23
-0.98223478 1.1548707 0.082795486 45
-0.9958902 1.1583008 0.13944919 78
-0.96724755 1.1567415 0.027330469 38
-0.98281735 1.1607102 0.082900152 33
-0.98294133 1.1607418 0.13840333 80
-0.95620829 1.159532 0.027155945 61
-1.0027142 1.1715592 0.084051549 63
-0.98156816 1.1660905 0.13840333 91
-0.96257633 1.1668169 0.027295563 68
-0.97232479 1.1693745 0.082481466 100
-0.98403054 1.1724453 0.13875194 92
-0.96504694 1.1731228 0.027365373 78
-0.95355052 1.1700639 0.081539422 90
-0.97491473 1.1757485 0.1380547 99
-0.96749181 1.1794508 0.027435184 81
-0.95407313 1.1758301 0.081644088 98
-0.96964198 1.1800308 0.13770607 100
-0.95062274 1.1805239 0.027155945 92
-0.94879442 1.1800238 0.081434749 100
-0.95667082 1.1821785 0.1366602 100
-0.94147271 1.183622 0.027016325 99
-0.94735414 1.185253 0.081434749 98
-0.95522279 1.1874352 0.1366602 91
-0.94001979 1.1888256 0.027016325 96
-0.94012719 1.1888559 0.081120729 90
-0.95951074 1.1943043 0.13718314 98
-0.95201117 1.197859 0.027260659 71
-0.927131 1.1907718 0.080492698 80
-0.95610422 1.199025 0.13700883 100
-0.96779984 1.2080904 0.027574802 47
-0.92565328 1.1959255 0.080492698 38
-0.94311208 1.2009647 0.13596296 99
-0.9355523 1.2044059 0.027016325 48
-0.92799145 1.2021949 0.080702044 22
-0.94733554 1.2078515 0.13648589 84
-0.91485339 1.2039094 0.026667276 75
-0.92455882 1.2067842 0.080597371 24
-0.93815666 1.2108121 0.13578865 87
-0.92114526 1.2108051 0.026806897 78
-0.90978676 1.2074016 0.079864666 34
-0.9405815 1.2166288 0.13613728 98
-0.91959757 1.2159376 0.026806897 78
-0.91016227 1.2130744 0.079969339 88
-0.93329376 1.2200936 0.13561434 100
-0.91795331 1.2213209 0.026806897 88
-0.90852851 1.2184234 0.079969339 98
-0.92211205 1.2225995 0.13474278 98
-0.90491289 1.2228763 0.026597468 89
-0.91648942 1.2264798 0.080492698 84
-0.92052323 1.2277354 0.13474278 71
-0.8956942 1.2255483 0.026457848 88
-0.92250675 1.2339971 0.08091139 66
-0.91131538 1.2304705 0.13404553 52
-0.89790553 1.2318071 0.026527658 83
-0.89994711 1.2324584 0.07976 80
-0.91539365 1.237385 0.13456847 43
-0.90389675 1.2393156 0.026667276 88
-0.89262193 1.2356762 0.07944598 95
-0.90996116 1.2412732 0.13421984 43
-0.90224963 1.2443879 0.026667276 96
-0.89668328 1.2425694 0.07976 100
-0.91398889 1.2482226 0.13474278 63
-0.88539547 1.2444338 0.026388038 100
-0.89692122 1.2482433 0.079864666 100
-0.90474373 1.2508289 0.13404553 78
-0.87993771 1.248173 0.02631823 99
-0.89524299 1.2532911 0.079864666 100
-0.89927739 1.2546401 0.13369691 84
-0.87455553 1.2516313 0.02624842 93
-0.88228017 1.2542429 0.079236634 100
-0.89766234 1.2594435 0.13369691 78
-0.88043398 1.2591892 0.026388038 93
-0.88058108 1.2592396 0.079236634 100
-0.90160054 1.266428 0.13421984 89
-0.87863141 1.2644287 0.026388038 92
-0.88066572 1.2651328 0.079341307 100
-0.8884744 1.2678353 0.13317397 97
-0.86934716 1.2667702 0.02624842 79
-0.87515837 1.2688041 0.079131968 91
-0.89048892 1.2741698 0.1335226 58
-0.85440868 1.2670513 0.026004085 75
-0.87340862 1.2737758 0.079131968 53
-0.89623326 1.2818539 0.13421984 38
-0.86396176 1.2759931 0.026213514 90
-0.84907562 1.2706661 0.077875905 21
-0.89068586 1.2855566 0.13387123 40
-0.85654563 1.2788848 0.0261088 99
-0.85483199 1.2782648 0.07829459 48
-0.87950987 1.2871931 0.13299966 22
-0.85851675 1.2851652 0.02617861 99
-0.85492498 1.2838515 0.078399263 85
-0.86833996 1.288758 0.1321281 15
-0.84179479 1.2842883 0.025899371 100
-0.85321325 1.2885076 0.078399263 100
-0.86848074 1.2941492 0.13230242 7
-0.83249789 1.2863448 0.025759751 100
-0.84391063 1.2906073 0.077980578 78
-0.90210527 1.3123422 0.13561434 1
-0.83442885 1.2925799 0.025829561 100
-0.83647925 1.2933538 0.077666558 51
-0.86292297 1.3033355 0.1321281 1
-0.84006971 1.3002601 0.025969181 79
-0.8346439 1.2981904 0.077666558 53
-0.86291426 1.3089745 0.13230242 15
-0.84016961 1.3055856 0.026004085 72
-0.84033972 1.3056512 0.078085244 68
-0.85182327 1.3100755 0.13143086 52
-0.82897431 1.306808 0.025829561 78
-0.82915539 1.3068786 0.077561885 68
-0.84807283 1.3142426 0.13125655 100
-0.81964833 1.3086905 0.025689943 96
-0.83284897 1.3138824 0.077875905 61
-0.83689386 1.3154733 0.130385 99
-0.82147628 1.314945 0.025759751 100
-0.81980532 1.3142811 0.077247873 89
-0.84053606 1.3225183 0.13090792 100
-0.81966168 1.31949 0.025759751 100
-0.81984657 1.3195642 0.077352546 95
-0.84239453 1.3286102 0.13125655 100
-0.82144183 1.3257698 0.025829561 100
-0.81421787 1.3228424 0.0771432 95
-0.8312034 1.3297256 0.130385 100
-0.78199047 1.3097823 0.17646681 11
-0.81209081 1.3275236 0.025689943 100
-0.81782502 1.3298707 0.077457212 97
-0.82002169 1.3307698 0.12951343 100
-0.80030674 1.3227003 0.17914793 15
-0.80274433 1.3292189 0.025550323 100
-0.82139963 1.336931 0.077771232 100
-0.81437331 1.3340263 0.12916481 100
-0.78369313 1.3213432 0.17719802 16
-0.79699522 1.3326318 0.025480513 100
-0.79351121 1.3311765 0.076305822 100
-0.82332772 1.3436307 0.13021068 100
-0.77616829 1.3239324 0.17646681 16
-0.80239302 1.3404388 0.025620133 100
-0.78786367 1.3343104 0.076096483 100
-0.81213814 1.3445494 0.12933913 100
-0.78154272 1.3316443 0.17744176 22
-0.81153339 1.3496201 0.025829561 89
-0.79333562 1.341873 0.076515168 72
-0.80655903 1.3475025 0.1289905 97
-0.76323467 1.3290588 0.17524812 16
-0.81317621 1.3559486 0.025899371 57
-0.82435995 1.3607557 0.078399263 51
-0.80087394 1.3506606 0.12864187 24
-0.78133649 1.3422625 0.17792924 5
-0.80561942 1.3583151 0.025794657 90
-0.81496078 1.3623691 0.077980578 93
-0.82442659 1.366477 0.13108224 52
-0.7902568 1.351648 0.17939167 17
-0.79623109 1.3598335 0.025655037 100
-0.80739659 1.3647256 0.077666558 100
-0.81868631 1.3696719 0.13073361 100
-0.78458184 1.3547295 0.17890419 35
-0.79782158 1.3661469 0.025724847 100
-0.80165917 1.3678443 0.077457212 100
-0.82205111 1.3768637 0.13125655 100
-0.76619369 1.3521578 0.17671055 30
-0.79573244 1.3708481 0.025724847 100
-0.80503529 1.3750017 0.077771232 100
-0.80173141 1.3735266 0.12951343 100
-0.76777881 1.3583672 0.17719802 31
-0.79555577 1.3761287 0.025759751 100
-0.8121267 1.3835933 0.07829459 100
-0.80335587 1.3796422 0.12986206 100
-0.76039058 1.3602879 0.17646681 20
-0.7861504 1.3775111 0.025620133 100
-0.8117947 1.3891709 0.078399263 100
-0.7975921 1.3827134 0.12951343 100
-0.76374334 1.3673234 0.17719802 16
-0.79300135 1.3865759 0.025794657 100
-0.80225581 1.3908248 0.077980578 100
-0.8134442 1.3959614 0.13125655 100
-0.76515335 1.373791 0.1776855 16
-0.80172735 1.3963042 0.026004085 100
-0.80732924 1.3988998 0.078399263 100
-0.81125087 1.4007169 0.13125655 100
-0.77024227 1.3817161 0.17866045 12
-0.79953283 1.4010189 0.026004085 100
-0.80331641 1.4027879 0.07829459 100
-0.80182165 1.4020891 0.1305593 100
-0.78428298 1.3938882 0.18085411 7
-0.79189652 1.4031658 0.025899371 100
-0.81374329 1.4134741 0.079027295 100
-0.79960698 1.4068038 0.1305593 100
-0.77850658 1.3968478 0.18036664 3
-0.78798383 1.4067528 0.025864467 100
-0.80979854 1.4171345 0.078922622 100
-0.802885 1.4138443 0.13108224 100
-0.78395039 1.4105538 0.025829561 100
-0.80393046 1.4201481 0.078713275 100
-0.81320161 1.4246001 0.13230242 100
-0.79250389 1.4204377 0.026038991 100
-0.79985529 1.4239994 0.07860861 100
-0.81449443 1.431092 0.13265105 100
-0.80100459 1.4303889 0.02624842 100
-0.79935855 1.4295844 0.078713275 100
-0.80501848 1.4323511 0.13195379 100
-0.78793031 1.4297942 0.026038991 100
-0.80242187 1.4369407 0.079027295 100
-0.80269819 1.4370769 0.13195379 100
-0.78561908 1.4344604 0.026038991 100
-0.80723828 1.4452158 0.07944598 100
-0.80392915 1.4435695 0.13230242 100
-0.7904405 1.4427063 0.02617861 100
-0.80308801 1.4490535 0.079341307 100
-0.80869251 1.4518661 0.13299966 100
-0.79165238 1.4491875 0.02624842 100
-0.79536361 1.4510663 0.079027295 100
-0.81341451 1.4602042 0.13369691 100
-0.80019969 1.4588518 0.026457848 100
-0.79677552 1.4571049 0.079236634 100
-0.80414039 1.4608624 0.13299966 100
-0.79423076 1.4617307 0.026388038 100
-0.79969662 1.4645435 0.079550654 100
-0.79640585 1.4628501 0.13247673 100
-0.78458744 1.4629669 0.02624842 100
-0.80777723 1.4750079 0.080178685 100
-0.80800325 1.4751253 0.13387123 100
-0.7927894 1.4731874 0.026457848 100
-0.79823071 1.4760369 0.07976 100
-0.8072986 1.4807856 0.13404553 100
-0.79739958 1.4816058 0.026597468 92
-0.78516144 1.4751425 0.079131968 100
-0.80833286 1.48738 0.13439415 98
-0.79702777 1.4874341 0.1335226 43
0.12229317 1.3002522 0.13242145 5
0.16749313 1.2476175 0.010680873 26
0.14798316 1.2719786 0.033704355 28
0.16889066 1.2458724 0.053339314 26
0.12275207 1.3034834 0.10825265 10
0.15973675 1.2573024 0.12135452 25
0.18698534 1.2232785 0.13407083 7
0.15390298 1.2645868 0.16978529 7
0.16169527 1.2583408 0.010890301 78
0.16714054 1.2514927 0.032238949 60
0.15691388 1.2643541 0.055256739 49
0.16700187 1.2516671 0.07555899 15
0.16764694 1.2508559 0.097302236 25
0.15655258 1.2648084 0.122881 85
0.19584692 1.2153909 0.13137141 23
0.1544295 1.2674785 0.17030293 29
0.15844586 1.2659714 0.011029921 100
0.17377394 1.2465558 0.03182026 100
0.15123448 1.275106 0.056302611 96
0.16745549 1.2545592 0.075802729 30
0.17544791 1.2444354 0.095737889 25
0.15584916 1.2692606 0.12364423 100
0.19015867 1.2258017 0.13407083 38
0.14419785 1.284019 0.17547931 42
0.16388035 1.2626137 0.010925206 100
0.17543975 1.2478662 0.03182026 100
0.15914556 1.2686543 0.055431053 100
0.16425085 1.262141 0.076777689 29
0.17710629 1.2457399 0.095737889 38
0.16486108 1.2613624 0.12135452 100
0.1917519 1.2270551 0.13407083 38
0.15433687 1.2747893 0.17185585 36
0.16674444 1.2623135 0.010890301 100
0.17089203 1.2569857 0.032343622 90
0.1595774 1.2715199 0.055605363 98
0.17320144 1.254019 0.075315252 30
0.18111283 1.2438564 0.095112152 38
0.18096459 1.2440468 0.1167751 100
0.18129867 1.2436177 0.13856985 29
0.15245289 1.2806718 0.17340876 42
0.1782482 1.2509906 0.010611063 81
0.18236527 1.2456638 0.031506244 62
0.1698592 1.2618446 0.054385185 51
0.16518179 1.2678967 0.077265166 43
0.17793718 1.2513931 0.096363634 25
0.18772098 1.2387342 0.13677025 22
0.14833099 1.289699 0.17599694 27
0.17384276 1.2602177 0.010785587 52
0.18038031 1.2516978 0.03182026 30
0.16551393 1.2710719 0.055256739 49
0.19109106 1.2377392 0.072390392 47
0.19284767 1.23545 0.092922069 53
0.1926491 1.2357087 0.11410378 13
0.19647729 1.2307198 0.13407083 31
0.15837976 1.2803694 0.17237349 57
0.1779798 1.2583463 0.010715778 53
0.17238146 1.2656951 0.032657638 29
0.16968009 1.2692412 0.054908119 50
0.18791419 1.2453055 0.073365346 62
0.1992628 1.2304084 0.091670595 54
0.18594894 1.2478853 0.1167751 19
0.20517313 1.2226499 0.13137141 39
0.17187047 1.266366 0.16719711 67
0.17244932 1.2692115 0.010925206 39
0.16206646 1.2829401 0.033704355 28
0.16902143 1.273744 0.055256739 49
0.17640388 1.2639827 0.076046467 89
0.20206362 1.2300544 0.09135773 54
0.19117203 1.2444556 0.11563025 13
0.20675528 1.2238508 0.13137141 39
0.17943195 1.2599788 0.16460891 69
0.18379945 1.2577333 0.010645968 40
0.17824966 1.265125 0.032448292 29
0.1971001 1.2400186 0.051421888 55
0.19243315 1.2462343 0.073121607 78
0.1989274 1.2375848 0.092609204 53
0.19518796 1.2425653 0.11486702 13
0.20834163 1.2250463 0.13137141 39
0.17882472 1.264359 0.16564418 68
0.19028446 1.2525954 0.010506349 54
0.1871419 1.2568115 0.03182026 30
0.17731029 1.2700016 0.054559495 50
0.18342063 1.261804 0.075315252 100
0.19229797 1.2498941 0.094799288 77
0.20270613 1.2359304 0.11295892 13
0.20527366 1.2324859 0.13317102 38
0.18286166 1.2625539 0.16460891 69
0.18721336 1.260278 0.010645968 66
0.20309958 1.238809 0.030564198 32
0.17787278 1.2729011 0.054733805 50
0.20048967 1.242336 0.072146654 79
0.1986753 1.2447881 0.093547814 78
0.19499233 1.2497654 0.11601187 13
0.21848166 1.2180213 0.128672 32
0.17768857 1.27315 0.16771474 75
0.18774313 1.263153 0.010680873 93
0.20828533 1.2351881 0.030250182 65
0.17845097 1.2758027 0.054908119 75
0.20449099 1.2403536 0.071659178 80
0.20735145 1.2364595 0.091670595 81
0.20945418 1.2335969 0.11181407 14
0.22004756 1.2191758 0.128672 24
0.18059084 1.2728896 0.16719711 67
0.19417962 1.2579515 0.010541254 81
0.21344158 1.2315369 0.029936166 66
0.18726227 1.2674376 0.053862248 100
0.19093001 1.2624079 0.074827775 100
0.21014565 1.2360566 0.09135773 94
0.21223125 1.2331965 0.11143246 14
0.22506207 1.2156011 0.1273223 16
0.19259265 1.2601278 0.16253836 70
0.19353992 1.2624303 0.010611063 81
0.20802787 1.242416 0.030564198 64
0.19367397 1.2622451 0.053165004 100
0.20312706 1.2491862 0.072634131 78
0.20945796 1.2404404 0.091983467 93
0.21730375 1.2296019 0.1102876 14
0.23233294 1.2088399 0.12507279 16
0.19770405 1.2566777 0.16098544 72
0.20459622 1.2506802 0.010331824 84
0.21434093 1.2371191 0.030145511 65
0.20004496 1.2570139 0.052467756 100
0.20596021 1.248782 0.072390392 95
0.20764405 1.2464387 0.092922069 100
0.21661881 1.2339489 0.11105084 14
0.22818086 1.2178588 0.1273223 16
0.19602308 1.262611 0.16253836 70
0.20619214 1.2518229 0.010331824 84
0.22053218 1.2317264 0.029726824 100
0.1900892 1.2743901 0.054210871 100
0.1960195 1.2660792 0.074827775 100
0.20807847 1.2491794 0.093234941 100
0.20561534 1.2526313 0.11524864 20
0.24325076 1.1998879 0.12192347 17
0.19653648 1.2653546 0.163056 70
0.20325279 1.2595475 0.010471444 96
0.21637383 1.2410228 0.030250182 98
0.19300365 1.2740176 0.054036561 77
0.20807973 1.2527326 0.072634131 63
0.21888733 1.2374742 0.090731993 95
0.20503262 1.2570347 0.11601187 26
0.23123676 1.2200389 0.1273223 16
0.19715112 1.268162 0.16357364 69
0.20036328 1.2672982 0.010611063 94
0.22376364 1.2340152 0.029726824 100
0.19820294 1.270371 0.053513627 100
0.21205032 1.2506754 0.072146654 63
0.22392955 1.2337792 0.089793384 100
0.19995981 1.2678721 0.11830158 71
0.23168883 1.222743 0.1277722 40
0.20444769 1.2614888 0.16098544 72
0.21125653 1.2553968 0.010331824 84
0.2208133 1.2417026 0.030145511 65
0.20451257 1.2650604 0.05281638 100
0.20691398 1.2616194 0.073609084 93
0.22328946 1.2381544 0.090419121 100
0.20619404 1.262651 0.1167751 100
0.22657967 1.2334398 0.13047162 72
0.20837659 1.2595236 0.15995017 72
0.2106756 1.259864 0.010401634 97
0.21450084 1.2543416 0.030878214 95
0.20624277 1.2662634 0.05281638 100
0.21541429 1.253023 0.072146654 63
0.22380078 1.2409159 0.090731993 100
0.22468466 1.2396399 0.11105084 98
0.21932209 1.2473814 0.13407083 93
0.21008742 1.2607131 0.15995017 72
0.21238759 1.2610455 0.010401634 97
0.22071975 1.2489266 0.030459527 97
0.20571956 1.2707438 0.053165004 100
0.22722426 1.2394661 0.069953002 66
0.21985084 1.2501905 0.092296332 100
0.22410142 1.2440081 0.11181407 100
0.22540671 1.2421097 0.13227122 94
0.20632994 1.2698561 0.16253836 70
0.21410373 1.262221 0.010401634 83
0.23702887 1.2286265 0.029098792 68
0.21196178 1.2653598 0.052467756 100
0.21431878 1.2619058 0.073121607 100
0.23043671 1.2382867 0.089793384 100
0.21801162 1.2564944 0.1144854 100
0.23145044 1.2368011 0.13047162 100
0.20807686 1.2710527 0.16253836 70
0.21245974 1.2683575 0.010506349 54
0.24535185 1.2197943 0.02847076 35
0.21481028 1.2648871 0.052293446 80
0.22605675 1.2482823 0.070927955 97
0.23318103 1.2377638 0.089480512 97
0.22631758 1.2478973 0.11219569 91
0.23417464 1.2362968 0.13002171 96
0.2174114 1.2610466 0.15891489 73
0.21188241 1.2727928 0.010576159 40
0.22232524 1.257264 0.030773543 32
0.22201234 1.2577293 0.051421888 55
0.22875234 1.2477067 0.070684217 81
0.2369386 1.2355335 0.088854775 98
0.23557305 1.237564 0.10952436 92
0.23572269 1.2373415 0.13002171 96
0.22335374 1.2557346 0.15684435 74
0.22252035 1.2606639 0.010296919 42
0.22624558 1.2550824 0.030564198 32
0.21597451 1.2704716 0.05264207 53
0.23262578 1.2455229 0.07019674 82
0.23527572 1.2415525 0.089793384 100
0.24265644 1.2304939 0.10761628 87
0.22870141 1.2514029 0.13362093 93
0.21968907 1.2649059 0.15943253 73
0.21752179 1.2717488 0.010506349 40
0.21241069 1.2794621 0.032029606 30
0.21103272 1.2815416 0.053687938 52
0.23420444 1.2465727 0.07019674 66
0.23356774 1.2475336 0.090731993 95
0.23442513 1.2462397 0.11105084 98
0.24214032 1.2345965 0.128672 97
0.22239918 1.2643882 0.15891489 73
0.22476903 1.2645524 0.010331824 28
0.2207756 1.2706249 0.031401575 31
0.2215783 1.2694042 0.052293446 53
0.23150697 1.2543064 0.071171694 65
0.23740736 1.2453343 0.090106249 96
0.23501071 1.2489786 0.11143246 91
0.25125924 1.2242708 0.12552269 99
0.22518837 1.2639147 0.15839726 73
0.23086897 1.2589862 0.010192205 28
0.24435678 1.2383196 0.029308135 34
0.23747954 1.2488571 0.050027397 57
0.23536932 1.2520905 0.070684217 81
0.24770546 1.2331886 0.087603301 99
0.23775759 1.2484312 0.11105084 91
0.24645635 1.2351025 0.12822211 97
0.22480276 1.268281 0.15943253 81
0.23149073 1.2617756 0.01022711 42
0.23947895 1.2494419 0.029936166 33
0.23265442 1.2599789 0.051073264 55
0.23489583 1.2565181 0.071171694 81
0.2461026 1.2392149 0.08854191 84
0.24583304 1.2396312 0.10876112 94
0.24596301 1.2394305 0.1291219 96
0.23179498 1.2613058 0.15684435 74
0.24626616 1.242751 0.0098082526 74
0.23584035 1.2589784 0.030459527 65
0.23014459 1.2678437 0.051770512 54
0.24204615 1.2493193 0.069953002 49
0.24889216 1.2386637 0.088229038 98
0.24755636 1.2407429 0.10876112 87
0.24663222 1.2421813 0.12957181 96
0.23150939 1.2657194 0.15787962 73
0.24039304 1.2556114 0.010052586 86
0.24828625 1.2432311 0.029412808 67
0.23402652 1.2655971 0.051421888 82
0.25012422 1.2403483 0.068490572 50
0.24734408 1.2447089 0.089167647 70
0.25131226 1.2384849 0.10799789 72
0.25771096 1.2284486 0.12552269 82
0.23324171 1.2668281 0.15787962 73
0.23772737 1.2633942 0.010192205 85
0.25092533 1.2425413 0.029308135 100
0.23034415 1.2750599 0.052293446 53
0.24319264 1.2547591 0.070440479 49
0.25737131 1.2323567 0.086664692 71
0.24341801 1.254403 0.11143246 91
0.25923285 1.2294154 0.12552269 90
0.22765899 1.2793025 0.16150309 63
0.24051508 1.2627878 0.0101573 71
0.24938995 1.2486565 0.029622151 100
0.23740724 1.2677364 0.051421888 82
0.24488664 1.2558271 0.070440479 49
0.26108819 1.2300296 0.086038955 58
0.25033146 1.2471573 0.10952436 78
0.26083827 1.2304275 0.12552269 90
0.23663083 1.2689726 0.15787962 65
0.24972448 1.2520376 0.0099129668 87
0.24903429 1.2531457 0.029831495 99
0.25292844 1.2468944 0.049155839 87
0.24457017 1.260312 0.070927955 48
0.26277623 1.2310854 0.086038955 72
0.2479302 1.2549181 0.11105084 98
0.25943667 1.2364465 0.12687239 99
0.24459037 1.2602795 0.15477379 67
0.25666583 1.2445779 0.0097384425 75
0.25282282 1.2507954 0.029622151 100
0.24202448 1.2682657 0.051247578 82
0.25150204 1.2529323 0.069709264 83
0.25815594 1.2421671 0.087916173 56
0.26201132 1.2359295 0.10647142 81
0.26004207 1.2391156 0.1273223 97
0.2402094 1.2712023 0.15787962 65
0.25309703 1.2541223 0.0099129668 87
0.25450292 1.2518299 0.029622151 100
0.24272403 1.2710361 0.051421888 82
0.25630301 1.2488947 0.068978049 50
0.26187131 1.2398151 0.087290429 57
0.24824375 1.2620358 0.11219569 91
0.26983169 1.2268351 0.12372308 83
0.23994088 1.2755742 0.15891489 65
0.25063083 1.2619889 0.010052586 86
0.25826302 1.2494459 0.029412808 100
0.24654618 1.2687016 0.051073264 100
0.25591266 1.2533085 0.069465525 49
0.26556671 1.237443 0.086664692 57
0.26425058 1.2396059 0.10685304 73
0.27142805 1.2278103 0.12372308 83
0.24371597 1.2733529 0.15787962 65
0.25114381 1.2646384 0.010087491 71
0.26183638 1.2469411 0.029203463 100
0.25326604 1.261126 0.050201707 85
0.25743249 1.25423 0.069465525 49
0.27316579 1.2281898 0.084787481 73
0.25455946 1.2589853 0.11105084 84
0.26883668 1.2353549 0.12552269 99
0.25129291 1.2643917 0.15477379 67
0.25801286 1.2571028 0.0099129668 87
0.25939548 1.2547964 0.029622151 100
0.2580553 1.2570322 0.049678773 86
0.26320699 1.2484379 0.068490572 50
0.27273563 1.2325419 0.085413218 58
0.26333383 1.2482263 0.10837951 72
0.27146471 1.2346621 0.12507279 100
0.25595662 1.2605332 -0.0099827768 86
0.2530205 1.2654314 0.15477379 67
0.26380348 1.2512442 0.0097733475 89
0.26211038 1.2540911 0.029517479 100
0.25670195 1.2631856 0.050201707 85
0.26487881 1.249436 0.068490572 50
0.27637127 1.2301112 0.084787481 59
0.2650049 1.2492239 0.10837951 87
0.27408445 1.2339566 0.12462288 83
0.25475168 1.2664649 0.15477379 67
0.26446897 1.2539626 0.0098082526 74
0.27090615 1.2430518 0.028784776 100
0.25640044 1.2676383 0.05055033 84
0.27159762 1.2418798 0.067271881 69
0.27095267 1.242973 0.086977564 57
0.26368663 1.2552886 0.10952436 85
0.28362751 1.2214897 0.12102367 86
0.25255987 1.274148 0.15684435 66
0.26523489 1.2567319 0.0098431576 88
0.27163327 1.2457955 0.028889447 100
0.25722024 1.2704308 0.05072464 84
0.266312 1.2548908 0.068978049 50
0.27667817 1.2371726 0.08572609 58
0.27240705 1.244473 0.10685304 66
0.27839556 1.2342371 0.12417299 92
0.26119566 1.2636359 -0.0099827768 96
0.25636074 1.2718999 0.15580906 67
0.26492807 1.261182 0.0099129668 87
0.26828304 1.2554013 0.029412808 100
0.25796875 1.273173 0.050898954 83
0.26999921 1.2524444 0.068490572 50
0.28227684 1.2312899 0.084474608 59
0.26519561 1.260721 0.1102876 78
0.27903953 1.2368678 0.12462288 92
0.26199338 1.2662385 0.15373851 68
0.27362847 1.250043 0.0096686333 75
0.27795127 1.2425345 0.028575432 100
0.26569143 1.2638292 0.049853086 85
0.26574227 1.2637409 0.069953002 49
0.28585985 1.2287977 0.083848871 59
0.27278757 1.2515036 0.10799789 87
0.28067085 1.2378107 0.12462288 83
0.26464888 1.26564 -0.0099827768 86
0.2695106 1.2571955 0.15063268 78
0.27728918 1.2475319 0.0095988233 76
0.27167863 1.2573562 0.029412808 100
0.26939306 1.2613584 0.049504463 86
0.27337408 1.2543874 0.068490572 50
0.28550375 1.2331476 0.084474608 59
0.27836445 1.245649 0.10647142 73
0.28230545 1.2387481 0.12462288 83
0.27312902 1.2548165 0.14959741 78
0.27698651 1.2519608 0.0096686333 75
0.27928796 1.2478979 0.028784776 100
0.26227188 1.2779369 0.051073264 100
0.27898026 1.2484411 0.067515619 51
0.28420117 1.2392244 0.085413218 58
0.28002644 1.2465942 0.10647142 81
0.28682479 1.2345929 0.12327318 85
0.26054049 1.2809935 0.15736198 74
0.27181384 1.2651143 0.0099129668 87
0.28487113 1.2418749 0.028366089 100
0.2630707 1.2806753 0.051247578 82
0.27870721 1.2528455 0.068003096 51
0.28197023 1.247038 0.086664692 57
0.27495995 1.2595148 0.10914274 78
0.29322097 1.2270139 0.12102367 86
0.27181384 1.2651143 -0.0099129668 87
0.26895002 1.2702112 0.15373851 68
0.2764641 1.2608421 0.0098082526 74
0.28263089 1.2497761 0.028784776 100
0.27455384 1.2642698 0.049504463 86
0.28232697 1.2503215 0.067515619 51
0.29132983 1.2341665 0.084161744 59
0.27284756 1.2673317 0.11066922 92
0.29292056 1.231312 0.12192347 85
0.27822107 1.2576892 0.14959741 70
0.28398314 1.2512929 0.0095988233 76
0.28430724 1.2507066 0.028784776 100
0.28495505 1.2495345 0.047935657 89
0.2820847 1.2547277 0.068003096 51
0.28912938 1.2419821 0.085413218 58
0.28503203 1.2493953 0.10647142 73
0.29453239 1.2322066 0.12192347 85
0.28011382 1.2582935 -0.0097384425 88
0.27992511 1.258635 0.14959741 78
0.28854844 1.246958 0.0094941091 92
0.28598684 1.251631 0.028784776 100
0.2799266 1.2626865 0.049155839 87
0.28186995 1.2591414 0.068490572 100
0.28792989 1.2480865 0.086351827 58
0.29236925 1.2399879 0.10418171 82
0.29614735 1.2330955 0.12192347 76
0.28163239 1.2595748 0.14959741 70
0.29021493 1.2478677 0.0094941091 92
0.29339322 1.2420213 0.028156744 100
0.27784163 1.2706281 0.049853086 85
0.28926769 1.2496102 0.067028143 51
0.29243076 1.2437918 0.085413218 58
0.29026064 1.2477837 0.10570818 73
0.27684364 1.2724638 -0.0099827768 86
0.27227071 1.2808757 0.15580906 67
0.28239504 1.2663735 0.0098431576 88
0.29693806 1.2393981 0.0279474 100
0.27486339 1.2803438 0.05072464 84
0.29942167 1.2347913 0.06483449 35
0.29877323 1.2359941 0.083848871 59
0.28820336 1.2555999 0.10723466 73
0.28239504 1.2663735 -0.0098431576 87
0.28138974 1.2682383 0.15166797 69
0.28884336 1.2584872 0.0096686333 75
0.29104486 1.2543693 0.028784776 100
0.28885815 1.2584596 0.048458595 88
0.29168642 1.2531693 0.067271881 51
0.2899 1.2565107 0.10723466 73
0.28790057 1.2602507 -0.0097035384 89
0.28859547 1.2589508 0.14856213 71
0.29242337 1.2558622 0.0095988233 76
0.29273719 1.2552702 0.028784776 100
0.29336444 1.2540871 0.047935657 89
0.28872555 1.2628374 0.068490572 50
0.29711726 1.2470082 0.10494494 75
0.2839936 1.2717632 -0.0099129668 87
0.28668436 1.2666876 0.15063268 70
0.2950514 1.2549884 0.0095639192 91
0.29505581 1.25498 0.047935657 89
0.29414219 1.2567179 0.067515619 51
0.28662193 1.2710238 0.15166797 69
0.29573649 1.2576042 0.0095988233 76
0.29850787 1.2522895 0.047587037 90
0.29667544 1.2558036 0.067271881 86
0.29791528 1.253426 0.086351827 58
0.29855451 1.2522001 0.10570818 73
0.28828481 1.2718945 0.15166797 69
0.29652169 1.2602651 0.0096337283 90
0.28829733 1.2761723 0.049853086 85
0.29472598 1.2637383 0.068246834 68
0.2937665 1.2655941 -0.0097384425 99
0.29003835 1.2728049 0.15166797 69
0.29924029 1.2591851 0.10685304 66
0.29276142 1.2718241 -0.0098431576 100
0.29708254 1.2633944 0.14856213 71
0.29995054 1.2620227 0.0096337283 100
0.29817912 1.2655084 0.068246834 68
0.29089078 1.2798498 -0.0099827768 100
0.2935718 1.2789652 -0.0099478718 100
0.29806086 1.2744296 0.049330149 58
