# .PCD v0.7 - Point Cloud Data file format
VERSION 0.7
FIELDS x y z intensity
SIZE 4 4 4 4
TYPE F F F F
COUNT 1 1 1 1
WIDTH 722
HEIGHT 1
VIEWPOINT 0 0 0 1 0 0 0
POINTS 722
DATA ascii
-1.1719804 0.16700619 0.020663649 30
-1.0684979 0.15606745 0.0188486 6
-1.0284199 0.15369837 0.018150503 6
-1.0298537 0.15758976 0.018185407 2
0.078414232 0.0025481582 0.047207031 81
0.053631842 0.0050756335 0.015916595 100
0.054247916 0.011833906 0.015811881 37
0.046983957 0.0059760213 0.047939736 100
0.045424163 0.0094008446 0.047835063 100
0.042772293 0.011166751 0.047835063 75
0.037895143 0.0096287727 0.04804441 36
0.035111666 0.011510849 0.04804441 27
0.03584975 0.018258452 0.047730394 19
0.034492731 0.021612346 0.047625721 9
0.029606044 0.020134687 0.047835063 9
0.013258457 0.0023134947 0.049091127 7
-1.0274518 1.1289673 0.084784247 5
-1.0391474 1.1316288 0.1425868 6
-1.0203819 1.1328399 0.028133279 7
-0.99511689 1.1270024 0.083109498 9
-1.0243509 1.1337569 0.14136662 17
-1.0113828 1.136219 0.02799366 16
-0.99781352 1.1330364 0.083318844 75
-1.0270154 1.1398857 0.14171524 65
-0.99829441 1.1394269 0.02778423 38
-0.9983508 1.1394404 0.083423518 100
-1.0197694 1.1445509 0.1411923 100
-0.98727816 1.1424748 0.027609708 45
-0.98346418 1.1415507 0.082690813 100
-1.0010252 1.1458056 0.13962349 87
-0.97625965 1.1454502 0.027435184 31
-0.99185508 1.1492866 0.083214171 100
-0.99970406 1.1512175 0.13962349 87
-0.97493976 1.1507757 0.027435184 23
-0.97695738 1.1512794 0.082481466 66
-0.99449784 1.1556592 0.13927488 89
-0.97941655 1.15757 0.027539898 31
-0.97755319 1.1570978 0.082586139 42
-0.99700481 1.162027 0.13962349 69
-0.97224432 1.1614124 0.027435184 48
-0.97232395 1.1614329 0.082376793 36
-0.98018998 1.1634554 0.13822901 87
-0.96119398 1.1641998 0.027260659 63
-0.96901578 1.1662402 0.08227212 90
-0.97302371 1.1672857 0.13770607 92
-0.95207602 1.1674266 0.027121039 72
-0.96569258 1.1710293 0.082167454 98
-0.97355372 1.1731093 0.13788038 98
-0.9506796 1.1726674 0.027121039 83
-0.95270938 1.1732121 0.081539422 96
-0.970213 1.1779087 0.13770607 99
-0.95891267 1.1805282 0.027295563 89
-0.93972951 1.1753089 0.08091139 100
-0.97646993 1.1853049 0.13840333 100
-0.95361513 1.1847293 0.027225753 93
-0.94408172 1.1820998 0.081225403 100
-0.96540755 1.187982 0.13753176 94
-0.94445485 1.1878216 0.027086135 92
-0.94648105 1.1883881 0.081434749 92
-0.95242649 1.1900504 0.13648589 98
-0.92766875 1.1884167 0.026806897 85
-0.94124204 1.19226 0.081225403 80
-0.94910818 1.1944875 0.13631158 100
-0.95695335 1.2023965 0.027365373 56
-0.92440063 1.1930561 0.080388032 54
-0.95144755 1.2008168 0.1366602 100
-0.95935172 1.2085072 0.027435184 40
-0.91339988 1.1951569 0.079864666 25
-0.95383722 1.2069051 0.13700883 91
-0.94246525 1.2092564 0.027155945 61
-0.92340285 1.2036461 0.080492698 24
-0.94083506 1.2087766 0.13596296 84
-0.9198429 1.2081792 0.026771991 75
-0.92379421 1.2093571 0.080597371 28
-0.93547565 1.2128395 0.13561434 91
-0.91064709 1.2109953 0.026632372 75
-0.93563563 1.2185398 0.081330076 58
-0.9301061 1.2168703 0.13526571 99
-0.91483575 1.2178452 0.026737086 78
-0.90541106 1.2149638 0.07976 100
-0.93615848 1.2243643 0.13596296 99
-0.9132635 1.2229557 0.026737086 88
-0.90384907 1.2200414 0.07976 97
-0.92885357 1.2277817 0.13544002 85
-0.91548985 1.2292566 0.026806897 83
-0.90608102 1.2263081 0.079969339 78
-0.92154294 1.2311536 0.1349171 59
-0.89481694 1.228323 0.026457848 81
-0.90828687 1.2325958 0.080178685 66
-0.90093297 1.230263 0.13317397 45
-0.89320832 1.2333635 0.026457848 85
-0.90476149 1.2370728 0.080074012 78
-0.90690559 1.2377613 0.13387123 43
-0.89158207 1.2383984 0.026457848 92
-0.8955242 1.2396793 0.079655327 100
-0.91284341 1.2453066 0.13456847 52
-0.88993829 1.2434276 0.026457848 100
-0.89008123 1.2434746 0.07944598 100
-0.91685349 1.2522769 0.13509139 71
-0.89215559 1.2494618 0.026527658 99
-0.88660794 1.2476174 0.079341307 100
-0.90579301 1.2539957 0.13421984 85
-0.87910098 1.2506679 0.02631823 96
-0.89061123 1.2545393 0.079655327 100
-0.88709873 1.2533579 0.13265105 84
-0.86992627 1.2528293 0.02617861 96
-0.88710552 1.2586709 0.079550654 100
-0.89869219 1.2626108 0.13387123 85
-0.87571055 1.2606332 0.02631823 96
-0.87586206 1.2606853 0.079027295 100
-0.89687699 1.2679172 0.13387123 100
-0.87029821 1.2640443 0.02624842 81
-0.86290866 1.2614739 0.078399263 100
-0.90839034 1.2772945 0.13509139 78
-0.87027699 1.2701585 0.026283324 71
-0.86101109 1.2668954 0.078399263 72
-0.90455252 1.2822287 0.1349171 42
-0.85919088 1.2715132 0.0261088 81
-0.85559231 1.2702324 0.078189917 31
-0.8915835 1.2830412 0.13387123 35
-0.84999317 1.2734766 0.025969181 96
-0.86520225 1.2789462 0.078817949 21
-0.87862533 1.2837734 0.13282534 30
-0.8520748 1.2794822 0.026038991 93
-0.85412091 1.2802258 0.07829459 63
-0.88065892 1.2898691 0.13317397 16
-0.85019809 1.2846177 0.026038991 100
-0.84286815 1.2819238 0.077771232 100
-0.86939341 1.2916727 0.13230242 13
-0.85223311 1.2906501 0.0261088 100
-0.84303528 1.287235 0.077875905 100
-0.86578792 1.2956831 0.1321281 1
-0.83542949 1.289921 0.025829561 100
-0.83748144 1.290691 0.077666558 51
-0.87140578 1.303422 0.13282534 1
-0.83369774 1.2945124 0.025829561 92
-0.83574718 1.2952893 0.077666558 51
-0.83236843 1.2940085 0.12933913 5
-0.83736783 1.3017273 0.025934275 72
-0.83754247 1.3017943 0.077875905 55
-0.86392623 1.3119061 0.13247673 31
-0.83932668 1.3077687 0.026004085 74
-0.83018357 1.3042297 0.077561885 68
-0.85283118 1.3129959 0.13160518 86
-0.83734626 1.3128573 0.026004085 88
-0.82449633 1.3078291 0.077352546 63
-0.84897619 1.317408 0.13143086 100
-0.81880039 1.3108413 0.025689943 99
-0.82270533 1.3123842 0.077352546 74
-0.82677037 1.3139904 0.12951343 100
-0.81309479 1.3143713 0.025620133 100
-0.8336919 1.322597 0.078085244 95
-0.83216852 1.3219886 0.13021068 100
-0.8149913 1.320384 0.025689943 100
-0.81703299 1.3212073 0.077247873 91
-0.83956963 1.3302944 0.13108224 100
-0.81666857 1.3268926 0.025759751 100
-0.80575556 1.3224456 0.076724514 100
-0.83750671 1.3353837 0.13108224 100
-0.77176005 1.308593 0.17524812 15
-0.8185131 1.332943 0.025829561 100
-0.80206901 1.3261787 0.076619841 100
-0.81167048 1.3301282 0.12881619 100
-0.78832501 1.3205251 0.1776855 15
-0.80157012 1.3320509 0.025550323 100
-0.79623514 1.3298323 0.076410495 100
-0.81134945 1.3361176 0.1289905 100
-0.81369525 1.3370931 0.18134159 22
-0.79601115 1.3349819 0.025480513 100
-0.80910414 1.3404776 0.077247873 99
-0.8076275 1.3398578 0.12881619 100
-0.78618175 1.3308561 0.17792924 22
-0.79413027 1.3394423 0.025480513 100
-0.78513652 1.3356321 0.075991809 94
-0.81306857 1.3474655 0.12951343 100
-0.76603621 1.3275402 0.17549185 18
-0.81051975 1.3519955 0.025829561 67
-0.79417175 1.3450023 0.076619841 42
-0.81287628 1.3530036 0.12968774 58
-0.77868301 1.3383765 0.17744176 11
-0.81582302 1.3599126 0.025969181 71
-0.80682486 1.3560262 0.077457212 63
-0.8254655 1.3640773 0.13108224 28
-0.79309231 1.350095 0.17963541 5
-0.80092448 1.3590816 0.025724847 100
-0.80477089 1.3607588 0.077457212 100
-0.81242555 1.3640968 0.13003637 93
-0.78923959 1.3539863 0.17939167 22
-0.78787881 1.3589594 0.025515418 100
-0.80818444 1.3678985 0.077771232 100
-0.81946117 1.3728626 0.13090792 100
-0.78537601 1.3578577 0.17914793 33
-0.79312426 1.3668742 0.025655037 100
-0.80426401 1.3718246 0.077666558 100
-0.81006557 1.3744028 0.13021068 100
-0.76154751 1.3528417 0.17622307 30
-0.80015534 1.3756512 0.025829561 100
-0.79668802 1.3740959 0.077352546 100
-0.81521899 1.3824085 0.13090792 100
-0.75407141 1.354979 0.17549185 22
-0.80349797 1.3828349 0.025934275 100
-0.80548781 1.3837359 0.077980578 100
-0.79855293 1.3805959 0.12951343 100
-0.77372187 1.3693528 0.17841671 15
-0.79043788 1.3825688 0.025724847 100
-0.81060344 1.3917842 0.078399263 100
-0.79278904 1.3836432 0.12916481 100
-0.79689854 1.3855212 0.18182907 19
-0.79010731 1.3880816 0.025759751 100
-0.81205207 1.3982029 0.07860861 100
-0.80873114 1.3966712 0.13090792 100
-0.77491313 1.3810737 0.17914793 14
-0.79519337 1.396131 0.025899371 100
-0.80441874 1.400425 0.07829459 100
-0.80292279 1.3997288 0.1305593 100
-0.7529754 1.3764803 0.17646681 9
-0.79661947 1.402523 0.025969181 100
-0.80582541 1.4068472 0.078503937 100
-0.81153649 1.4095298 0.13160518 100
-0.77780181 1.3936841 0.18012288 5
-0.799936 1.4095536 0.026073895 100
-0.80731601 1.4130501 0.078713275 100
-0.80580717 1.4123352 0.13125655 100
-0.77931422 1.3997838 0.18061037 3
-0.79047877 1.4108121 0.025934275 100
-0.81046897 1.4203683 0.079027295 100
-0.79636651 1.4136267 0.1305593 100
-0.79003483 1.4163561 0.025969181 100
-0.81178826 1.4268486 0.079236634 100
-0.80487889 1.423516 0.13160518 100
-0.79136664 1.4227798 0.026038991 100
-0.79871184 1.4263544 0.07860861 100
-0.8097555 1.4317288 0.13230242 100
-0.79625994 1.4309833 0.02617861 100
-0.79282683 1.4292977 0.078399263 100
-0.81101424 1.4382274 0.13265105 100
-0.79752833 1.4374537 0.02624842 100
-0.80125576 1.4393001 0.079027295 100
-0.80510265 1.4412055 0.13230242 100
-0.78803498 1.4385781 0.0261088 100
-0.80427116 1.4466909 0.079341307 100
-0.80275148 1.4459316 0.13230242 100
-0.78569299 1.4432447 0.0261088 100
-0.80903488 1.4550099 0.07976 100
-0.79504627 1.4479592 0.13177948 100
-0.78689986 1.4497156 0.02617861 100
-0.79417294 1.4534134 0.079027295 100
-0.8086558 1.4607768 0.13334829 100
-0.79875392 1.4616781 0.026457848 100
-0.79711074 1.4608355 0.079341307 100
-0.81687337 1.4709703 0.13439415 100
-0.79633135 1.466382 0.026457848 100
-0.79823905 1.4673687 0.079550654 100
-0.80910915 1.4729912 0.13387123 100
-0.79389232 1.4710773 0.026457848 100
-0.80465049 1.4766896 0.080074012 100
-0.80488056 1.4768096 0.13369691 100
-0.78460306 1.4715738 0.02631823 100
-0.79888791 1.4790832 0.079864666 100
-0.80441695 1.4819896 0.13387123 100
-0.78214604 1.4762282 0.02631823 50
-0.78934604 1.4800453 0.07944598 53
-0.80720431 1.4895128 0.13439415 89
0.15028766 1.2671418 0.011134636 12
0.098065168 1.3320935 0.063100755 19
0.14034918 1.2795029 0.12707879 17
0.1861158 1.2225807 0.13407083 7
0.15327302 1.2669713 0.011099731 25
0.16123268 1.2570004 0.032657638 29
0.16466656 1.2526989 0.054036561 51
0.15369326 1.2664449 0.077996381 14
0.14823851 1.2732779 0.10199527 11
0.14825433 1.2732581 0.12517071 54
0.19134516 1.2192792 0.13272113 15
0.15709084 1.2621888 0.16875002 14
0.16006452 1.2621526 0.010960111 100
0.16177991 1.2599875 0.032762308 88
0.15530267 1.2681627 0.055605363 98
0.16414484 1.2570026 0.076290213 29
0.1770739 1.2406844 0.095112152 25
0.16473201 1.2562616 0.12059128 100
0.1772618 1.2404473 0.13856985 36
0.14810014 1.2772533 0.17340876 42
0.16540858 1.2587285 0.010855397 100
0.17328787 1.2487158 0.031924933 100
0.1532605 1.274166 0.056128297 100
0.15839633 1.2676395 0.077752642 28
0.16642091 1.2574421 0.098240845 36
0.17120299 1.2513652 0.11906482 100
0.18846482 1.2294292 0.13497064 38
0.14978448 1.2785833 0.17340876 42
0.16711691 1.2600681 0.010855397 100
0.17742047 1.2468801 0.031715591 92
0.1525695 1.2786878 0.056476921 100
0.1625801 1.2658749 0.077265166 29
0.18271869 1.2400986 0.094486415 26
0.17409429 1.2511374 0.1186832 100
0.19247028 1.2276171 0.13407083 31
0.15156218 1.2799771 0.17340876 42
0.16751823 1.2629149 0.010890301 91
0.1765551 1.2512689 0.031924933 61
0.15670139 1.2768548 0.056128297 72
0.16909441 1.2608836 0.076290213 29
0.17459166 1.2537992 0.096989371 37
0.18050611 1.246177 0.11715672 66
0.18801641 1.2364982 0.13632034 30
0.14496535 1.2919793 0.17703223 34
0.16932741 1.2643135 0.010890301 78
0.18197739 1.2478871 0.031610917 30
0.17071822 1.2625074 0.054385185 51
0.17574093 1.2559853 0.075315252 45
0.18480426 1.2442163 0.094799288 51
0.17027518 1.2630827 0.1209729 12
0.18735063 1.2409098 0.13722014 22
0.1445238 1.2965217 0.17806751 60
0.17704293 1.2576312 0.010715778 66
0.17385724 1.2617964 0.032448292 29
0.17235354 1.2637625 0.054385185 51
0.18700233 1.2446096 0.073365346 46
0.19237918 1.2375795 0.093234941 53
0.19457379 1.2347101 0.11372216 13
0.191282 1.239014 0.13632034 30
0.16387644 1.2748461 0.17030293 58
0.17641467 1.2621806 0.010785587 39
0.18049246 1.2568083 0.032029606 30
0.16452903 1.2778392 0.055779677 49
0.18394357 1.2522615 0.074340299 46
0.19051239 1.2436074 0.094173551 52
0.19271848 1.240701 0.11486702 13
0.20714191 1.2216989 0.13092151 40
0.17156938 1.268564 0.16771474 67
0.17804885 1.2634166 0.010785587 39
0.15325457 1.2963078 0.03454173 27
0.1758098 1.2663869 0.054385185 51
0.19629923 1.2392063 0.072146654 79
0.20278668 1.2306004 0.09135773 54
0.18955418 1.2481542 0.11639348 13
0.20864168 1.2228334 0.13092151 40
0.17322475 1.2698162 0.16771474 67
0.17746407 1.267979 0.010855397 39
0.16475749 1.2849643 0.033704355 28
0.1859861 1.2565875 0.053165004 52
0.18850839 1.2532158 0.07409656 76
0.19856071 1.2397785 0.092922069 53
0.19836533 1.2400397 0.11410378 13
0.21263838 1.2209606 0.13002171 32
0.18084532 1.2634592 0.16512655 68
0.18508023 1.2611858 0.010680873 80
0.1938625 1.2493647 0.031296901 31
0.1828489 1.2641891 0.053862248 51
0.19721583 1.2448511 0.072634131 78
0.20012051 1.2409414 0.092922069 66
0.19992599 1.2412032 0.11410378 13
0.21645999 1.2189482 0.1291219 32
0.18824416 1.256927 0.16253836 70
0.19383436 1.2527385 0.010471444 82
0.19663987 1.2489359 0.03119223 63
0.18448973 1.265404 0.053862248 77
0.19643533 1.2492131 0.073121607 62
0.19933856 1.2452781 0.093547814 78
0.20498723 1.2376221 0.11295892 13
0.20985183 1.2310288 0.13227122 31
0.187567 1.2612331 0.16357364 69
0.18834591 1.2635952 0.010680873 93
0.20767349 1.2372164 0.030354854 65
0.18260187 1.2714348 0.054385185 76
0.20506588 1.2407753 0.071659178 96
0.19974908 1.2480319 0.093860678 91
0.20770016 1.23718 0.1125773 13
0.22750714 1.2101469 0.12597258 16
0.18691441 1.2655489 0.16460891 69
0.19259518 1.261745 0.010611063 81
0.20712152 1.2417586 0.030564198 64
0.18101582 1.2776768 0.054908119 100
0.19987354 1.2517309 0.073121607 78
0.21087816 1.2365899 0.09135773 94
0.20487952 1.2448432 0.11410378 13
0.23263672 1.2066528 0.12462288 8
0.18881986 1.2669394 0.16460891 69
0.19422781 1.2629275 0.010611063 94
0.20751894 1.2445126 0.03066887 64
0.18503341 1.2756665 0.054559495 100
0.20844349 1.2432315 0.071659178 80
0.21820766 1.2297032 0.089793384 100
0.20530707 1.2475771 0.1144854 13
0.23408645 1.2077029 0.12462288 8
0.19386154 1.263435 0.163056 70
0.20060918 1.2576642 0.010471444 82
0.2115038 1.242458 0.030459527 97
0.19840455 1.2607414 0.05281638 100
0.2008484 1.2573303 0.073609084 77
0.21061057 1.2437048 0.092296332 100
0.2126933 1.2407978 0.1125773 13
0.22994146 1.2167234 0.12687239 16
0.19783637 1.2615343 0.16202073 70
0.20454672 1.2555614 0.010401634 97
0.20496762 1.2549698 0.03119223 94
0.19310382 1.2716453 0.053862248 100
0.20476791 1.2552505 0.073121607 62
0.21103814 1.2464372 0.092609204 100
0.20742768 1.2515119 0.11486702 20
0.233684 1.2146066 0.12597258 16
0.19610855 1.2674218 0.16357364 69
0.20410773 1.2601519 0.010471444 96
0.22180271 1.2350769 0.029831495 99
0.19503263 1.2730119 0.053862248 100
0.21807921 1.2403533 0.070684217 81
0.21514794 1.2445072 0.091983467 100
0.20814711 1.2544279 0.11524864 54
0.23426992 1.2174101 0.12642249 33
0.19913498 1.2671986 0.163056 86
0.20573506 1.2612963 0.010471444 96
0.21532369 1.2476124 0.030564198 97
0.19212919 1.280713 0.054559495 100
0.21052745 1.254457 0.072634131 78
0.22352487 1.2359086 0.090106249 96
0.20412222 1.2635978 0.11715672 99
0.23799193 1.2152629 0.12552269 57
0.19745985 1.2731056 0.16460891 85
0.20965037 1.2591522 0.010401634 97
0.22831658 1.2323251 0.029517479 100
0.20292827 1.2688133 0.053165004 100
0.21440336 1.2523212 0.072146654 79
0.22845632 1.2321242 0.089167647 84
0.21585265 1.2502383 0.11372216 82
0.22834009 1.2322912 0.13002171 80
0.20244023 1.2695147 0.163056 78
0.21582097 1.2536973 0.010262015 84
0.21509284 1.2547512 0.030878214 63
0.20684934 1.266683 0.05281638 100
0.22051811 1.2468985 0.071171694 65
0.22886771 1.2348132 0.089480512 100
0.21856296 1.2497284 0.11334054 96
0.22876716 1.2349586 0.13047162 96
0.20739287 1.2658963 0.16150309 70
0.21768069 1.2549769 0.010262015 100
0.22373039 1.2461481 0.030250182 65
0.21213761 1.2630663 0.052293446 80
0.22459584 1.2448851 0.070684217 81
0.22953823 1.2376723 0.089793384 100
0.22484639 1.2445195 0.11181407 98
0.23055485 1.2361887 0.13047162 96
0.21257547 1.2624273 0.15995017 72
0.21704105 1.2593828 0.010331824 84
0.22643462 1.2455761 0.030145511 65
0.20929152 1.2707732 0.05299069 79
0.22617242 1.2459615 0.070684217 65
0.2277573 1.2436321 0.090731993 100
0.224213 1.2488415 0.1125773 96
0.23539114 1.2324119 0.1291219 96
0.2109502 1.2683352 0.16150309 70
0.21548057 1.2655722 0.010436539 41
0.23153219 1.2417927 0.029831495 33
0.21558806 1.265413 0.052293446 53
0.23236156 1.2405639 0.069709264 99
0.23612657 1.2349863 0.088854775 100
0.23475748 1.2370145 0.10952436 92
0.2425395 1.2254859 0.12687239 99
0.21277896 1.2695745 0.16150309 70
0.21489921 1.2700011 0.010506349 40
0.2130836 1.2727101 0.031715591 30
0.2205604 1.261554 0.051770512 54
0.22618762 1.2531577 0.071415432 96
0.23876998 1.2343837 0.08854191 100
0.22974989 1.2478426 0.11181407 98
0.23754209 1.2362158 0.12957181 100
0.21981508 1.2626662 0.15891489 73
0.21664658 1.2711678 0.010506349 40
0.23253864 1.2472754 0.03004084 33
0.22117484 1.26436 0.051944822 54
0.22567734 1.2575908 0.071902916 96
0.23929888 1.237112 0.088854775 98
0.23576903 1.2424188 0.1102876 85
0.2424092 1.2324359 0.12822211 97
0.22260672 1.2622072 0.15839726 73
0.22060135 1.2689905 0.010436539 27
0.20339745 1.2950519 0.032971654 29
0.22290248 1.2655047 0.051944822 54
0.23284945 1.2504365 0.070684217 81
0.2409313 1.2381938 0.088854775 100
0.24282795 1.2353206 0.10837951 87
0.24080446 1.2383858 0.12957181 96
0.22539112 1.2617347 0.15787962 73
0.22015348 1.2734828 0.010506349 40
0.18990934 1.3196478 0.03443706 27
0.23118508 1.256644 0.050898954 55
0.23235273 1.2548616 0.071171694 81
0.2339074 1.2524886 0.09135773 100
0.23692304 1.2478855 0.11105084 84
0.24457717 1.2362021 0.128672 89
0.22287494 1.2693286 0.15995017 72
0.22409296 1.271278 0.010436539 27
0.22449002 1.2706673 0.031296901 31
0.22528368 1.2694466 0.052119136 54
0.22647294 1.2676173 0.072877869 100
0.24959108 1.2320594 0.087290429 85
0.24180347 1.2440375 0.10990598 85
0.25257966 1.2274625 0.12597258 90
0.22356692 1.2720871 0.1604678 72
0.23443246 1.2589151 0.0101573 42
0.256479 1.2247579 0.028366089 35
0.23450494 1.2588028 0.050898954 55
0.24319595 1.2453376 0.069465525 66
0.25326744 1.2297336 0.086664692 86
0.23166582 1.2632015 0.11410378 100
0.25515509 1.226809 0.12552269 99
0.22942421 1.2666744 0.15839726 73
0.236141 1.2600136 0.0101573 57
0.24837303 1.2409163 0.029308135 68
0.24266076 1.2498345 0.049853086 57
0.238433 1.2564352 0.070927955 48
0.25061229 1.2374203 0.087916173 56
0.24503723 1.2461243 0.10990598 85
0.24939394 1.2393224 0.128672 97
0.23324382 1.2645369 0.15736198 74
0.24866283 1.2442822 0.0098082526 74
0.24688783 1.247076 0.029622151 100
0.24014768 1.2576845 0.05055033 84
0.24447614 1.2508719 0.069953002 49
0.25232747 1.2385144 0.087916173 70
0.25204852 1.2389535 0.10799789 79
0.25738642 1.230552 0.12597258 82
0.23195052 1.2705863 0.15891489 65
0.24285489 1.2571722 0.010052586 86
0.24962017 1.2464416 0.029517479 100
0.2269758 1.2823586 0.05299069 79
0.25462607 1.2385017 0.068003096 51
0.2518577 1.2428926 0.08854191 70
0.24531096 1.2532766 0.11105084 84
0.25691724 1.2348676 0.12687239 99
0.23369983 1.2716933 0.15891489 65
0.2423504 1.2615783 0.010122396 85
0.2533209 1.2440491 0.029308135 100
0.23501852 1.2732935 0.051944822 81
0.25407508 1.242844 0.068490572 50
0.25971526 1.2338319 0.086664692 57
0.25316441 1.2442991 0.10876112 79
0.2584604 1.235837 0.12687239 90
0.23126578 1.2792898 0.16098544 64
0.24301326 1.264348 0.0101573 85
0.25708476 1.2416884 0.029098792 100
0.23993051 1.2693121 0.051421888 82
0.24525508 1.2607379 0.070927955 48
0.25716767 1.2415549 0.087916173 84
0.24757186 1.2570071 0.11143246 91
0.26625657 1.2269187 0.12417299 100
0.24527523 1.2607055 0.15477379 67
0.24998572 1.2569042 0.0099827768 87
0.25035125 1.2563111 0.029936166 99
0.24272048 1.2686952 0.051247578 82
0.24905261 1.2584187 0.070440479 49
0.26296046 1.2358471 0.086664692 57
0.26060238 1.2396741 0.10723466 73
0.2658087 1.2312245 0.12507279 92
0.24698997 1.2617662 0.15477379 67
0.25585938 1.2511241 0.0098431576 88
0.25413418 1.2539459 0.029726824 100
0.24758086 1.2646651 0.05072464 84
0.25904283 1.245917 0.068490572 50
0.26252759 1.240217 0.087290429 85
0.25814745 1.2473814 0.10876112 100
0.26538748 1.235539 0.12597258 90
0.24467775 1.2694138 0.15684435 66
0.2533069 1.2589351 0.0099827768 87
0.25988513 1.2480946 0.029308135 100
0.24198771 1.2775886 0.051944822 81
0.26268223 1.243485 0.068003096 51
0.26613802 1.2377901 0.086664692 71
0.26380605 1.2416331 0.10723466 73
0.27097663 1.2298163 0.12417299 92
0.24433115 1.2737267 0.15787962 65
0.25707823 1.2565415 0.0099129668 100
0.26876685 1.2371267 0.028575432 100
0.24787199 1.2718329 0.051247578 82
0.25614572 1.2580904 0.069953002 49
0.26777261 1.2387781 0.086664692 71
0.25836575 1.2544029 0.10990598 85
0.27760905 1.2224399 0.12192347 85
0.24609134 1.2747905 0.15787962 65
0.25783834 1.2593287 0.0099478718 73
0.26331371 1.2501583 0.029308135 100
0.25379884 1.2660942 0.05055033 84
0.25793663 1.2591641 0.069953002 49
0.27253067 1.2347212 0.08572609 58
0.26114959 1.2537829 0.10952436 85
0.28026816 1.2217619 0.12147357 77
0.24794355 1.2759011 0.15787962 65
0.26464385 1.2517431 0.0097733475 89
0.26499152 1.2511561 0.029308135 100
0.25756317 1.2636967 0.050201707 85
0.25964591 1.2601806 0.069953002 49
0.27415454 1.2356869 0.08572609 58
0.26684231 1.2480315 0.10799789 79
0.27787411 1.2294074 0.12327318 76
0.25955683 1.2603309 0.15270324 68
0.27240589 1.2423918 0.0095639192 91
0.26667279 1.252148 0.029308135 100
0.25726944 1.2681501 0.05055033 100
0.26940447 1.2474995 0.068003096 51
0.27478096 1.23835 0.086038955 58
0.26950732 1.2473243 0.10761628 79
0.28244132 1.2253141 0.12192347 85
0.2612702 1.2613418 0.15270324 68
0.26599979 1.2571785 0.0098431576 88
0.27137512 1.2479576 0.028994121 100
0.26402715 1.2605624 0.049678773 86
0.27307242 1.245046 0.067515619 51
0.27741233 1.2376013 0.08572609 58
0.27414143 1.2432122 0.10647142 81
0.28599516 1.2228782 0.12102367 86
0.25520363 1.2756984 0.15684435 66
0.26661554 1.2598486 0.0098780617 73
0.27096134 1.2523365 0.029203463 100
0.25468078 1.2804786 0.051596198 82
0.26769096 1.2579896 0.069221787 83
0.27599692 1.2436323 0.086664692 57
0.26883039 1.2560201 0.10914274 92
0.28945008 1.2203776 0.12012386 86
0.25301269 1.283362 0.15891489 65
0.26733184 1.2625692 0.0099129668 87
0.2746349 1.2498431 0.028994121 100
0.26241454 1.271138 0.05055033 84
0.2703841 1.2572504 0.068978049 50
0.28748393 1.2274528 0.083536007 60
0.27932319 1.2416735 0.10570818 73
0.28811392 1.226355 0.12147357 77
0.26057571 1.2743423 0.15580906 67
0.27408382 1.2549118 0.0097384425 75
0.27441999 1.254321 0.029203463 100
0.27410656 1.2548718 0.048807215 88
0.27217185 1.2582719 0.068978049 50
0.28623158 1.2335626 0.084474608 59
0.27814099 1.2477814 0.10685304 81
0.28400582 1.2374742 0.12417299 75
0.27198011 1.2586089 0.15063268 70
0.27676105 1.2541305 0.0097035384 90
0.27611226 1.25528 0.029203463 100
0.26992506 1.2662425 0.049853086 85
0.27778071 1.2523237 0.068003096 51
0.28396764 1.2413616 0.08572609 58
0.27884546 1.2504373 0.10723466 81
0.28755489 1.2350056 0.12327318 76
0.2717883 1.2629412 0.15166797 77
0.27836797 1.2550339 0.0097035384 90
0.27772301 1.2561855 0.029203463 100
0.2715722 1.2671685 0.049853086 85
0.28326148 1.2462959 0.067028143 51
0.28553221 1.2422413 0.08572609 58
0.28331801 1.246195 0.1060898 81
0.29385933 1.2273721 0.12102367 86
0.26681688 1.2756598 0.15529142 67
0.27520773 1.2647197 0.0098780617 88
0.2871803 1.243165 0.028366089 100
0.26847211 1.2768462 0.05072464 84
0.28010616 1.2559009 0.068246834 34
0.29293737 1.2328004 0.083848871 59
0.27735543 1.2608531 0.10914274 85
0.29356492 1.2316705 0.12192347 85
0.27520773 1.2647197 -0.0098780617 97
0.26764563 1.2783341 0.15580906 75
0.27307674 1.272682 0.010017681 72
0.28690612 1.2475783 0.028575432 100
0.27985668 1.2603748 0.048981529 87
0.28084609 1.2585788 0.068490572 50
0.29932019 1.2250438 0.082284525 61
0.28096512 1.2583627 0.10837951 87
0.29893923 1.2257354 0.12012386 86
0.28079584 1.2586699 -0.0097384425 88
0.27408254 1.2708561 0.15322088 76
0.28442082 1.2560968 0.0096686333 75
0.28665957 1.2519991 0.028784776 100
0.28539112 1.2543209 0.048284281 88
0.2844567 1.2560312 0.068003096 51
0.29806879 1.2311167 0.083223134 60
0.28643665 1.2524073 0.10685304 81
0.29679421 1.2334495 0.12192347 76
0.2860212 1.2531676 0.14752686 71
0.28897715 1.2517464 0.0095639192 91
0.29024664 1.2494034 0.028575432 100
0.28138837 1.2657523 0.049330149 87
0.28993762 1.2499738 0.067028143 51
0.29403359 1.2424141 0.085100345 58
0.29279855 1.2446935 0.10494494 75
0.27942652 1.2693732 0.1521856 77
0.29444632 1.2456086 0.0094242999 93
0.29003096 1.2538259 0.028784776 100
0.28877875 1.2561564 0.048284281 88
0.29161462 1.2508786 0.067028143 51
0.29942414 1.2363443 0.083848871 59
0.29259861 1.2490473 0.10570818 81
0.27842814 1.2754197 0.15373851 68
0.29046601 1.2570865 0.0096337283 90
0.28204519 1.2728906 0.049853086 85
0.29329479 1.2517776 0.067028143 51
0.2961188 1.2464776 0.10494494 82
0.28382781 1.269545 0.15166797 77
0.29403621 1.2544533 0.0095639192 91
0.2875253 1.2667763 0.049155839 58
0.29497805 1.2526708 0.067028143 51
0.29411495 1.2543043 0.10647142 73
0.28936532 1.2632937 -0.0097384425 88
0.28918308 1.2636386 0.14959741 78
0.2957288 1.2553439 0.0095639192 91
0.29881921 1.2494451 0.028366089 100
0.29850689 1.2500412 0.066540658 69
0.29671812 1.2534555 0.1060898 73
0.29001129 1.2662573 0.15011504 78
0.28824449 1.2739007 0.049678773 86
0.29835391 1.2544394 0.067028143 51
0.29931226 1.2525945 0.10570818 73
0.28912824 1.2721995 -0.0098780617 87
0.29441673 1.2620188 0.14856213 79
0.29639086 1.2624125 0.048458595 59
0.29082847 1.2732127 0.15166797 69
0.29539302 1.2686181 0.048981529 58
0.29434368 1.2706732 0.15063268 78
0.297111 1.2695514 0.0097733475 100
0.2944015 1.2749038 -0.0098780617 100
0.29871053 1.2663918 0.14907977 78
0.29526854 1.2775801 -0.0099129668 100
0.29861799 1.279304 0.1521856 77
0.29884142 1.2838129 -0.0099827768 100
