# .PCD v0.7 - Point Cloud Data file format
VERSION 0.7
FIELDS x y z intensity
SIZE 4 4 4 4
TYPE F F F F
COUNT 1 1 1 1
WIDTH 748
HEIGHT 1
VIEWPOINT 0 0 0 1 0 0 0
POINTS 748
DATA ascii
-1.10408 0.15182912 0.058406927 26
-1.1821128 0.16676635 0.020838173 25
-1.184628 0.16712117 0.062698476 31
-1.0984013 0.15886915 0.019372171 4
-1.0365192 0.15361443 0.018290121 6
-1.0221373 0.15513121 0.018045789 3
-1.084792 0.16871023 0.019162742 1
0.054149985 0.0023579597 0.015951499 129
0.058005154 0.008326292 0.047521047 60
0.055216789 0.010134637 0.047521047 43
0.046127439 0.0017590523 0.048149079 27
0.041112125 0.00027889013 0.048358422 100
0.040070713 0.010572612 0.047939736 63
0.048614562 0.02889967 0.046893016 31
0.038287222 0.019012749 0.047625721 19
0.033408105 0.017510355 0.047835063 9
0.037430763 0.034154892 0.046997689 10
0.016375899 0.0098839998 0.048672438 8
0.013725877 0.011751294 0.048672438 8
0.16155726 0.39788699 0.0093893949 15
0.099848926 0.53044879 0.0089007271 16
0.067291826 0.54654843 -0.0092846798 11
0.077382624 0.55331945 -0.0090752514 11
0.076629162 0.5549705 -0.0090752514 11
0.090639949 0.57273829 0.0087262029 16
0.052546471 0.57062984 0.0093544899 15
0.080339581 0.58735901 0.008796013 16
0.034914911 0.57176143 0.0096337283 15
0.079107285 0.59056008 0.008796013 16
0.048513234 0.5810039 0.0093544899 15
0.055383474 0.58546388 0.0092148706 15
0.042268634 0.58057094 -0.009459204 11
0.073471397 0.5941993 0.0088658221 16
0.03156662 0.58069062 0.0096337283 15
0.018417954 0.57588929 -0.0098780617 10
0.026491404 0.58296901 0.0097035384 15
-0.99647623 1.1210669 0.083109498 3
-1.0548801 1.1343253 0.14398129 4
-1.0399938 1.1367867 0.028482327 8
-0.99913365 1.1273609 0.083318844 9
-1.0205948 1.1323116 0.14101799 11
-1.0096271 1.1349458 0.027958754 11
-1.0174506 1.1367764 0.084365562 60
-1.0097489 1.1349742 0.14014643 52
-0.98499781 1.1348388 0.027539898 36
-1.0083883 1.1403983 0.083946876 100
-1.0181575 1.1427202 0.14101799 95
-0.98371488 1.1401947 0.027539898 38
-0.98767084 1.1411495 0.082900152 100
-1.0110364 1.1467893 0.14049506 86
-0.99018222 1.14745 0.027679516 33
-0.9805463 1.1450886 0.082586139 100
-1.0058415 1.1512876 0.14014643 86
-0.9888553 1.1528239 0.027679516 23
-0.96953672 1.1480181 0.082062781 72
-0.99290031 1.1538303 0.13910057 91
-0.96424335 1.152319 0.027260659 27
-0.98176342 1.1567425 0.082795486 37
-0.98961931 1.158726 0.13892625 78
-0.96289963 1.1576023 0.027260659 50
-0.98233885 1.1625826 0.082900152 37
-0.97667271 1.1611309 0.13788038 87
-0.96347278 1.163384 0.027295563 61
-0.96549493 1.1639097 0.082062781 88
-0.9810831 1.1679614 0.13840333 91
-0.96402401 1.1691744 0.027330469 71
-0.96217948 1.1686881 0.081958108 96
-0.98546427 1.1748271 0.13892625 94
-0.9606896 1.1739404 0.027295563 81
-0.95691961 1.1729324 0.081748761 92
-0.96671885 1.1755525 0.13735744 100
-0.9554103 1.1781646 0.027225753 89
-0.95357627 1.1776674 0.081644088 100
-0.96144801 1.1798017 0.13700883 100
-0.94240743 1.1802368 0.027016325 96
-0.95792156 1.1845014 0.081958108 100
-0.9619295 1.1856031 0.13718314 98
-0.94096631 1.1854439 0.027016325 92
-0.94492167 1.186546 0.081330076 94
-0.96430808 1.1919478 0.13753176 94
-0.95105356 1.1939065 0.027225753 88
-0.93577021 1.1895905 0.08091139 86
-0.94940418 1.1934408 0.13631158 100
-0.95340973 1.2002439 0.027295563 63
-0.93045622 1.1936752 0.080702044 68
-0.95174795 1.1997684 0.1366602 100
-0.95189875 1.2054893 0.027295563 41
-0.94047767 1.2021776 0.081330076 26
-0.94641155 1.2038982 0.13631158 92
-0.93310183 1.2056569 0.026981421 56
-0.93321115 1.205689 0.081016064 24
-0.94106454 1.2079959 0.13596296 84
-0.92007214 1.2074095 0.026771991 75
-0.92210978 1.2080158 0.080492698 28
-0.937617 1.2126298 0.13578865 89
-0.92244309 1.2134353 0.026841801 75
-0.91491181 1.2111673 0.080178685 42
-0.93804866 1.2181351 0.13596296 99
-0.92662436 1.2203224 0.026946515 78
-0.91336292 1.2162781 0.080178685 98
-0.9250409 1.2198395 0.1349171 100
-0.9135794 1.2219341 0.026737086 88
-0.91370457 1.2219727 0.080283359 90
-0.91775066 1.223222 0.13439415 89
-0.90435857 1.2246535 0.026597468 85
-0.91974312 1.229463 0.080702044 72
-0.91806132 1.2289371 0.13456847 63
-0.89886957 1.2287736 0.026527658 85
-0.9047206 1.2306263 0.079969339 62
-0.91257042 1.233112 0.13421984 45
-0.89725929 1.2338283 0.026527658 79
-0.89929992 1.2344824 0.07976 89
-0.916637 1.2400386 0.13474278 45
-0.89571327 1.238625 0.026527658 92
-0.89585179 1.23867 0.079655327 100
-0.91317493 1.2442852 0.13456847 52
-0.88646823 1.2411757 0.026388038 100
-0.89800256 1.2449591 0.079864666 100
-0.90204471 1.246285 0.13369691 71
-0.87342733 1.2424078 0.02617861 100
-0.89823145 1.2506398 0.079969339 100
-0.90415519 1.2526058 0.13404553 82
-0.87935251 1.2499197 0.02631823 96
-0.88897127 1.2531493 0.079550654 100
-0.90057296 1.2570446 0.13387123 78
-0.87758392 1.2551552 0.02631823 99
-0.88719088 1.2584201 0.079550654 100
-0.902551 1.2636402 0.13421984 80
-0.87966388 1.2614355 0.026388038 99
-0.87981075 1.2614861 0.079236634 100
-0.88197726 1.2622308 0.13247673 100
-0.87424845 1.2648611 0.02631823 83
-0.88005978 1.2668803 0.079341307 100
-0.8897472 1.2702463 0.13334829 93
-0.85741943 1.2645265 0.026038991 77
-0.88208526 1.2731934 0.079550654 74
-0.90302998 1.2805526 0.13474278 43
-0.85945326 1.2707753 0.0261088 81
-0.85209006 1.2681592 0.077980578 38
-0.88997453 1.2816193 0.13369691 35
-0.86522442 1.2783964 0.02624842 96
-0.85222226 1.2737255 0.078085244 17
-0.89380509 1.2886635 0.13421984 29
-0.8635307 1.2830865 0.02624842 99
-0.85805374 1.2810986 0.078503937 59
-0.86585766 1.2839313 0.13177948 18
-0.84671265 1.2825067 0.025969181 100
-0.85626107 1.2860105 0.078503937 100
-0.85096198 1.284066 0.1305593 13
-0.83741564 1.2845975 0.025829561 100
-0.85819656 1.2923052 0.078713275 100
-0.87531143 1.2986531 0.13299966 3
-0.83935577 1.2908412 0.025899371 100
-0.8339228 1.2888045 0.077457212 55
-0.87159187 1.3029258 0.13282534 1
-0.8412692 1.2971048 0.025969181 93
-0.83397108 1.2943397 0.077561885 51
-0.85295457 1.3015319 0.13125655 5
-0.84502333 1.3041029 0.026073895 75
-0.83772808 1.3013098 0.077875905 55
-0.84922999 1.3057135 0.13108224 22
-0.83186716 1.3048813 0.025864467 72
-0.83949655 1.3078345 0.078085244 68
-0.82867652 1.3036463 0.12933913 60
-0.81881768 1.3053317 0.025655037 83
-0.83203048 1.3104991 0.077771232 59
-0.85278279 1.3186152 0.13177948 100
-0.8188948 1.3106024 0.025689943 96
-0.8190847 1.3106774 0.0771432 70
-0.83613092 1.3174093 0.130385 97
-0.81699938 1.3153775 0.025689943 100
-0.82089919 1.3169333 0.077352546 95
-0.84161383 1.3251976 0.13108224 99
-0.82250637 1.3231359 0.025829561 100
-0.8208341 1.3224618 0.077457212 97
-0.8285796 1.3255833 0.13003637 100
-0.8094545 1.3233997 0.025620133 100
-0.81149787 1.3242314 0.077038527 96
-0.82109576 1.3281386 0.12951343 100
-0.80031019 1.3246287 0.025480513 100
-0.82637733 1.3353355 0.077980578 100
-0.81749254 1.3316863 0.12933913 100
-0.80575424 1.3324037 0.025620133 100
-0.80410248 1.3317184 0.07682918 100
-0.81552356 1.3364563 0.12933913 100
-0.77935141 1.3214509 0.17671055 26
-0.80009407 1.3355874 0.025550323 100
-0.78923851 1.3310397 0.076096483 100
-0.81905097 1.3435289 0.12986206 100
-0.7920658 1.3322241 0.17866045 29
-0.80547827 1.343413 0.025689943 100
-0.78727192 1.335711 0.076096483 96
-0.81704062 1.3483043 0.12986206 100
-0.75901502 1.3237574 0.1745169 18
-0.80162948 1.3473555 0.025655037 70
-0.8073296 1.3497903 0.077352546 42
-0.79669124 1.3452461 0.12811895 76
-0.76985282 1.333782 0.17622307 15
-0.80695075 1.3552377 0.025794657 67
-0.8181352 1.3600615 0.078085244 59
-0.83309442 1.3665133 0.13177948 18
-0.78792745 1.3470333 0.17890419 5
-0.79573256 1.3559792 0.025620133 100
-0.80508012 1.3600495 0.077457212 100
-0.80725628 1.360997 0.12951343 75
-0.79136521 1.3540775 0.17963541 26
-0.79917067 1.3630873 0.025724847 100
-0.80118376 1.3639722 0.077352546 100
-0.81977659 1.3721454 0.13090792 100
-0.78568369 1.3571584 0.17914793 38
-0.80440348 1.3710376 0.025864467 100
-0.80457896 1.3711154 0.077666558 100
-0.81038183 1.3736906 0.13021068 100
-0.77455372 1.3577913 0.17792924 22
-0.79134744 1.3708568 0.025655037 100
-0.80976337 1.3791062 0.078085244 100
-0.79735655 1.3735485 0.12916481 100
-0.78517526 1.3680919 0.17963541 22
-0.79288608 1.377183 0.025724847 100
-0.81308848 1.3863175 0.078399263 100
-0.80976504 1.3848147 0.1305593 100
-0.77765304 1.3702954 0.17890419 19
-0.79439682 1.3835273 0.025794657 100
-0.80729491 1.3894134 0.078189917 100
-0.80398554 1.3879032 0.13021068 100
-0.76290804 1.3691571 0.17719802 15
-0.79951221 1.3915626 0.025934275 100
-0.80149621 1.3924763 0.077980578 100
-0.80905908 1.3959596 0.13090792 100
-0.75720257 1.3720754 0.17671055 13
-0.79925722 1.3968768 0.025969181 100
-0.80485851 1.3994794 0.07829459 100
-0.80336207 1.398784 0.1305593 100
-0.7840032 1.3897898 0.18061037 12
-0.78981847 1.3981872 0.025829561 100
-0.8098864 1.4075963 0.078713275 100
-0.80115896 1.4035044 0.1305593 100
-0.78183156 1.3944426 0.18061037 5
-0.78772801 1.4026268 0.025829561 100
-0.80776459 1.4121023 0.078713275 100
-0.79905075 1.4079814 0.1305593 100
-0.78693169 1.4022503 0.18158533 3
-0.7908141 1.4101101 0.025934275 100
-0.80720443 1.4179349 0.078817949 100
-0.8092894 1.4189303 0.13177948 100
-0.79589099 1.4180229 0.026073895 100
-0.80144936 1.4206991 0.07860861 100
-0.81251544 1.4260273 0.13230242 100
-0.80609649 1.4290702 0.02631823 100
-0.80085164 1.4265211 0.078713275 100
-0.8065179 1.4292749 0.13195379 100
-0.79312974 1.4282832 0.0261088 100
-0.80046052 1.4318761 0.078817949 100
-0.80074602 1.432016 0.13160518 100
-0.78712326 1.4314283 0.026038991 100
-0.81234723 1.4439058 0.079655327 100
-0.80902559 1.4422626 0.13265105 100
-0.78850132 1.4376439 0.0261088 100
-0.79759413 1.4421794 0.078922622 100
-0.81392044 1.4503229 0.13334829 100
-0.79318994 1.4461417 0.02624842 100
-0.79512149 1.447114 0.078922622 100
-0.81497699 1.457109 0.13369691 100
-0.80163938 1.4560225 0.026457848 100
-0.79108769 1.4506669 0.078817949 100
-0.79847783 1.4544177 0.13230242 100
-0.79555625 1.4591486 0.026388038 100
-0.80280524 1.4628614 0.079655327 100
-0.80660015 1.4648051 0.13334829 100
-0.78615636 1.4599371 0.02624842 100
-0.80227488 1.46826 0.07976 100
-0.80959958 1.4720422 0.13387123 100
-0.79083425 1.4682915 0.026388038 100
-0.79805785 1.4720535 0.079655327 100
-0.81774348 1.4823055 0.1349171 100
-0.79205233 1.4745932 0.026457848 96
-0.7886489 1.4728063 0.079236634 100
-0.81184572 1.484985 0.13456847 100
-0.79299504 1.4813794 0.026527658 63
-0.78606397 1.4777081 0.079236634 63
-0.80217344 1.4862411 0.13387123 92
0.16031179 1.2546744 0.010855397 13
0.098065168 1.3320935 0.063100755 19
0.13173792 1.2902131 0.12975012 11
0.21542192 1.1861312 0.12327318 8
0.091218382 1.3406093 0.19618483 5
0.15576816 1.2638457 0.011029921 25
0.15874058 1.2601222 0.032866981 29
0.16093755 1.2573701 0.054559495 50
0.14997789 1.2710991 0.078727596 14
0.14330894 1.279453 0.10324675 11
0.14702952 1.2747924 0.12555231 54
0.14142269 1.281816 0.17547931 7
0.15376809 1.2699202 0.011134636 100
0.17161915 1.2473979 0.031924933 91
0.1527406 1.2712166 0.055953987 97
0.15666163 1.2662694 0.077752642 14
0.17453775 1.2437155 0.095737889 25
0.16098875 1.2608101 0.12173614 100
0.19170517 1.2220556 0.13317102 31
0.15041155 1.2741551 0.17237349 42
0.15922543 1.2665858 0.011029921 100
0.17081761 1.2518549 0.032134276 8
0.1557247 1.2710345 0.055779677 98
0.15962392 1.2660794 0.077508904 29
0.17863679 1.2419184 0.095112152 38
0.15420571 1.2729648 0.12440746 100
0.19087508 1.2263664 0.13407083 31
0.15217382 1.2755469 0.17237349 42
0.16957918 1.2569165 0.010785587 100
0.17127228 1.2547493 0.032238949 100
0.1623826 1.2661276 0.055082429 100
0.15402508 1.2768247 0.078971334 28
0.18271869 1.2400986 0.094486415 26
0.1728856 1.2526845 0.11906482 100
0.18047264 1.2429734 0.13856985 36
0.1551303 1.2754102 0.17185585 36
0.17732546 1.2502761 0.010611063 100
0.17533067 1.2528467 0.032029606 60
0.15914425 1.2737067 0.055779677 98
0.17396221 1.2546103 0.075315252 30
0.17459166 1.2537992 0.096989371 25
0.19013461 1.2337685 0.11410378 68
0.18443242 1.241117 0.13767004 30
0.14851826 1.2874006 0.17547931 42
0.17534307 1.2563263 0.010715778 66
0.16970503 1.2636448 0.032657638 59
0.15360937 1.2845379 0.056825545 47
0.17686757 1.2543474 0.075071514 45
0.17387164 1.2582363 0.097615108 37
0.17138726 1.2614613 0.12059128 12
0.19559345 1.2300402 0.13407083 23
0.14678985 1.29339 0.17703223 48
0.16966709 1.2670951 0.010925206 65
0.18590781 1.2458684 0.031401575 31
0.16379258 1.2747731 0.055605363 49
0.18691951 1.2445462 0.073365346 62
0.19469824 1.2343793 0.092609204 53
0.18614185 1.2455626 0.11639348 13
0.19948924 1.2281175 0.13317102 31
0.15909275 1.2809157 0.17237349 57
0.1714046 1.2684196 0.010925206 52
0.18273872 1.2534983 0.03182026 30
0.17278782 1.2665987 0.054559495 50
0.18137378 1.2552953 0.074827775 45
0.19034711 1.2434819 0.094173551 52
0.19017914 1.243703 0.11563025 13
0.20226926 1.2277864 0.13272113 47
0.17373243 1.2653551 0.16667947 67
0.17796275 1.2633517 0.010785587 52
0.16759318 1.2771026 0.03328567 28
0.17212436 1.2710938 0.054908119 50
0.18665567 1.2518241 0.07409656 76
0.19557014 1.2400029 0.093234941 53
0.19892725 1.2355511 0.11334054 13
0.20034939 1.2336652 0.13407083 38
0.18011644 1.2604957 0.16460891 69
0.18927452 1.2518409 0.010506349 54
0.17894134 1.2656436 0.032448292 29
0.18820435 1.2532704 0.05281638 53
0.19309843 1.2467332 0.073121607 78
0.19010982 1.2507252 0.095112152 51
0.2111437 1.2226291 0.10990598 14
0.20897731 1.2255229 0.13137141 39
0.18067309 1.2633303 0.16512655 68
0.18499452 1.2611221 0.010680873 80
0.19497022 1.2476995 0.03119223 31
0.17325491 1.2769179 0.055256739 49
0.20423767 1.23523 0.071171694 81
0.19768167 1.2440512 0.093547814 78
0.19633046 1.2458693 0.11524864 13
0.21056947 1.2267104 0.13137141 31
0.17663559 1.2723691 0.16771474 67
0.18908551 1.2591749 0.010611063 81
0.20019716 1.2441144 0.030878214 63
0.17266092 1.2814364 0.055605363 73
0.19172114 1.2556026 0.07409656 76
0.21106637 1.2293825 0.090419121 82
0.19100022 1.2565798 0.11753834 13
0.21910754 1.2184837 0.128672 24
0.18297923 1.2674513 0.16564418 68
0.19088084 1.2604945 0.010611063 81
0.20665672 1.2389474 0.030459527 65
0.18513092 1.2683479 0.054036561 77
0.18998531 1.2617176 0.074827775 61
0.20458373 1.2417786 0.092609204 100
0.19858497 1.249972 0.11563025 13
0.21960235 1.2212659 0.1291219 16
0.18822864 1.2641169 0.16409127 69
0.19729787 1.2552747 0.010471444 96
0.21181849 1.2352961 0.030145511 98
0.19038683 1.2647834 0.053513627 100
0.19870645 1.2533367 0.073365346 62
0.21552366 1.2301983 0.090106249 96
0.20834225 1.2400789 0.11295892 13
0.22576243 1.2161109 0.1273223 8
0.19449878 1.2591259 0.16202073 70
0.19890904 1.2564416 0.010471444 82
0.20635006 1.246132 0.030773543 64
0.19319561 1.2643577 0.053339314 78
0.20147294 1.2528893 0.073121607 62
0.20549089 1.2473224 0.093234941 92
0.21679685 1.2316579 0.11066922 14
0.22952452 1.2140234 0.12642249 16
0.19386154 1.263435 0.163056 70
0.20060918 1.2576642 0.010471444 96
0.21034059 1.2440815 0.030564198 64
0.18680075 1.2769375 0.054559495 100
0.19853613 1.2605577 0.07409656 92
0.20830962 1.2469163 0.092922069 100
0.20811963 1.2471814 0.11410378 13
0.24469593 1.1961299 0.12102367 17
0.19446099 1.2662456 0.16357364 69
0.20454672 1.2555614 0.010401634 97
0.2177037 1.2370682 0.03004084 99
0.19541383 1.2683983 0.053513627 100
0.209371 1.2487805 0.072146654 63
0.22019929 1.2335604 0.090106249 96
0.20515147 1.2547114 0.11563025 20
0.2314246 1.2177824 0.12687239 16
0.19610855 1.2674218 0.16357364 69
0.19932249 1.2665648 0.010611063 94
0.22164038 1.2349623 0.029831495 99
0.1891104 1.2810254 0.054733805 100
0.21676993 1.241859 0.070927955 65
0.2218194 1.2347089 0.090106249 100
0.20231542 1.2623268 0.11715672 46
0.23411375 1.2172999 0.12642249 24
0.20230469 1.262342 0.16150309 70
0.20794499 1.2579613 0.010401634 97
0.22441185 1.2344702 0.029726824 100
0.20576376 1.2610729 0.052467756 100
0.20930344 1.2560233 0.072877869 47
0.22457743 1.2342341 0.089793384 100
0.20741683 1.2587147 0.11601187 99
0.23343986 1.2215912 0.1273223 48
0.20956984 1.2556432 0.15891489 81
0.21421883 1.2525864 0.010262015 98
0.21462792 1.2519984 0.030773543 96
0.20292827 1.2688133 0.053165004 100
0.21893847 1.2458034 0.071171694 65
0.22507167 1.2369887 0.090106249 100
0.22370175 1.2389575 0.11105084 91
0.22500104 1.2370901 0.13137141 94
0.20685369 1.2631717 0.16098544 72
0.2159054 1.2537556 0.010262015 98
0.22312239 1.2433057 0.030145511 65
0.20240712 1.2733006 0.053513627 100
0.22849789 1.2355222 0.069465525 49
0.21884584 1.2494979 0.092296332 100
0.22310936 1.2433245 0.11181407 84
0.22884831 1.2350148 0.13047162 88
0.20418596 1.2707248 0.163056 70
0.21307355 1.2615163 0.010401634 83
0.22138879 1.249386 0.030459527 97
0.19966009 1.2810843 0.054210871 100
0.22002348 1.2513776 0.071659178 80
0.22498912 1.2441337 0.091044858 100
0.22143352 1.2493207 0.11295892 100
0.2326771 1.2329183 0.12957181 96
0.20702821 1.2703354 0.16253836 70
0.209167 1.270956 0.010576159 67
0.22755814 1.2439249 0.03004084 66
0.21265379 1.2658312 0.052467756 100
0.22617242 1.2459615 0.070684217 65
0.23553559 1.2321995 0.08854191 98
0.224213 1.2488415 0.1125773 96
0.23539114 1.2324119 0.1291219 96
0.21312359 1.2651408 0.1604678 72
0.21763226 1.2621994 0.010366729 41
0.2124486 1.2698758 0.031610917 30
0.20881164 1.2752616 0.053339314 52
0.21894851 1.2602501 0.072634131 63
0.23715088 1.2332945 0.08854191 100
0.23028123 1.2434676 0.11105084 91
0.23264489 1.2399673 0.13092151 96
0.21809736 1.2615106 0.15891489 73
0.22603214 1.2533897 0.0101573 42
0.21197167 1.2743692 0.03182026 30
0.21612352 1.2681743 0.052467756 53
0.22729281 1.2515087 0.071171694 81
0.23107171 1.2458701 0.090731993 100
0.23630789 1.2380574 0.10952436 85
0.23211747 1.2443099 0.13182132 100
0.21766403 1.2658757 0.15995017 72
0.22107652 1.2645077 0.010366729 41
0.22700796 1.2555903 0.030564198 32
0.21014044 1.2809491 0.053687938 52
0.22787613 1.2542851 0.071415432 96
0.23382878 1.2453358 0.090419121 96
0.23250711 1.2473228 0.11143246 91
0.24025065 1.2356811 0.1291219 96
0.21725714 1.2702498 0.16098544 72
0.22729671 1.2590337 0.01022711 42
0.22438976 1.2634389 0.030982886 31
0.20652866 1.2905061 0.054559495 50
0.23511997 1.2471781 0.07019674 82
0.23883703 1.2415452 0.089480512 97
0.23101482 1.2533991 0.1125773 89
0.24732611 1.2286806 0.12687239 99
0.21696487 1.2746909 0.16202073 70
0.22900572 1.2601571 0.01022711 28
0.2173605 1.2779393 0.03182026 30
0.22690386 1.2633667 0.051596198 54
0.23787507 1.2466137 0.069953002 99
0.24697825 1.2327132 0.087603301 100
0.24023318 1.2430129 0.10990598 85
0.24252328 1.2395159 0.12957181 88
0.2314291 1.2564566 0.15580906 75
0.23054716 1.2611632 0.01022711 28
0.22766951 1.2655876 0.030982886 31
0.22954172 1.2627091 0.051421888 55
0.23396236 1.2559123 0.071171694 81
0.24412531 1.2402866 0.088854775 98
0.24172074 1.2439837 0.10990598 85
0.2461248 1.2372123 0.128672 97
0.22979903 1.2623135 0.15736198 74
0.24093899 1.2488344 0.0099478718 43
0.24673104 1.2398605 0.029308135 34
0.22370031 1.2755425 0.05264207 53
0.24211946 1.2470055 0.069709264 83
0.24576879 1.2413514 0.088854775 98
0.24018312 1.2500054 0.11105084 84
0.24775755 1.2382703 0.128672 81
0.22942421 1.2666744 0.15839726 73
0.236141 1.2600136 0.0101573 57
0.24837303 1.2409163 0.029308135 68
0.23298925 1.2649343 0.051421888 55
0.24271572 1.2497488 0.069953002 49
0.24421966 1.2474008 0.089793384 69
0.24503723 1.2461243 0.10990598 85
0.25464931 1.2311175 0.12642249 99
0.22907597 1.2710439 0.15943253 73
0.23785338 1.2611063 0.0101573 71
0.24037641 1.2571367 0.030250182 98
0.23151258 1.2710823 0.051944822 54
0.24439222 1.2508185 0.069953002 49
0.25648418 1.231794 0.086664692 71
0.23932922 1.2587842 0.1125773 96
0.25730604 1.2305009 0.12597258 82
0.22979063 1.2737916 0.15995017 72
0.23538956 1.2690133 0.010296919 70
0.248555 1.2481312 0.029622151 100
0.24716482 1.2503362 0.049678773 86
0.24827394 1.2485769 0.069465525 49
0.25607172 1.2362087 0.087290429 57
0.24531096 1.2532766 0.11105084 77
0.26107442 1.2282736 0.12507279 92
0.2409119 1.2602541 0.15529142 75
0.25198129 1.2463745 0.0098082526 74
0.24598873 1.2559533 0.03004084 99
0.23933312 1.2665921 0.051247578 82
0.24047095 1.2647734 0.071659178 80
0.25560555 1.2405812 0.087916173 70
0.25116473 1.2476797 0.10952436 99
0.25957525 1.2342358 0.12642249 99
0.24057591 1.2646055 0.1563267 66
0.25461757 1.2456613 0.0097733475 89
0.25181648 1.2501719 0.029622151 100
0.24413484 1.2625419 0.05072464 84
0.24944401 1.2539924 0.069953002 49
0.26029399 1.2365204 0.086977564 57
0.25896469 1.2386611 0.10723466 81
0.25597602 1.2434738 0.128672 89
0.23406461 1.2787582 0.1604678 64
0.24788773 1.2603092 0.010052586 86
0.25558987 1.2478091 0.029412808 100
0.24376565 1.266999 0.051073264 83
0.25321797 1.2516586 0.069465525 49
0.25259802 1.2526647 0.089793384 83
0.25442308 1.2497027 0.10952436 85
0.26785326 1.2279063 0.12417299 83
0.23381561 1.2831473 0.16150309 63
0.24960107 1.2613608 0.010052586 86
0.25621775 1.2505379 0.029517479 100
0.24134541 1.2748644 0.051770512 81
0.25697196 1.2493043 0.068978049 50
0.26974016 1.2284193 0.085100345 58
0.26019555 1.2440314 0.10799789 79
0.27351925 1.2222379 0.12237337 85
0.23963943 1.2776549 0.15943253 65
0.25131807 1.2624063 0.010052586 86
0.25996858 1.2481451 0.029308135 100
0.24827611 1.2674212 0.050898954 83
0.25452876 1.2571132 0.069953002 49
0.26621965 1.2378397 0.086664692 57
0.25574285 1.2551117 0.1102876 78
0.27206755 1.2281988 0.12372308 92
0.24542099 1.2721283 0.15736198 66
0.25716317 1.2565925 0.0099129668 87
0.25854981 1.2542884 0.029622151 100
0.255151 1.2599361 0.050027397 85
0.2552073 1.2598425 0.07019674 33
0.26989159 1.2354423 0.086038955 58
0.2624996 1.2477252 0.10837951 79
0.2696493 1.235845 0.12552269 90
0.24916786 1.2698779 0.1563267 66
0.2701399 1.2387254 0.0095290141 92
0.27252862 1.2347246 0.028366089 100
0.25788438 1.2592516 0.049853086 85
0.25386605 1.2659817 0.070927955 48
0.26746735 1.2432015 0.087290429 57
0.26618183 1.2453545 0.10761628 79
0.26528308 1.2468599 0.12822211 89
0.24695319 1.2775598 0.15839726 65
0.26464385 1.2517431 0.0097733475 89
0.26295573 1.2545929 0.029517479 100
0.25350153 1.2705536 0.050898954 83
0.26976275 1.2431011 0.067515619 51
0.27516127 1.2339873 0.085413218 73
0.26284006 1.2547882 0.10952436 85
0.27588779 1.2327608 0.12417299 92
0.24872676 1.2786145 0.15839726 65
0.26227471 1.2596323 0.0099129668 87
0.26768467 1.2504261 0.029203463 100
0.25726944 1.2681501 0.05055033 84
0.26739302 1.2509223 0.068490572 50
0.27778336 1.2332407 0.085100345 58
0.26552871 1.254095 0.10914274 85
0.2844159 1.2219539 0.12102367 77
0.26024848 1.2630805 -0.0099827768 86
0.25050399 1.2796631 0.15839726 65
0.26692215 1.2554016 0.0098082526 74
0.26927939 1.2513596 0.029203463 100
0.26093039 1.2656758 0.050201707 100
0.26598927 1.2570013 0.069221787 33
0.28230643 1.2290218 0.084161744 59
0.26713559 1.2550356 0.10914274 78
0.28297094 1.2278823 0.12237337 76
0.26591477 1.257129 -0.0098431576 87
0.2619279 1.2639654 0.15322088 68
0.26961961 1.2546558 0.0097733475 89
0.26896107 1.2557942 0.029412808 100
0.26864859 1.2563343 0.049155839 87
0.26172668 1.2682993 0.070684217 81
0.27995363 1.2367928 0.085413218 58
0.27276284 1.2492225 0.10761628 87
0.28066748 1.2355589 0.12417299 75
0.2655887 1.2616236 0.1521856 69
0.26940784 1.2591493 0.0098431576 88
0.27173728 1.2550886 0.029308135 100
0.26448476 1.2677317 0.050201707 85
0.27442011 1.2504115 0.068003096 51
0.27871761 1.2429199 0.086351827 58
0.27842864 1.2434236 0.1060898 81
0.28722394 1.228091 0.12192347 85
0.26162499 1.272717 0.15529142 67
0.27012804 1.2618639 0.0098780617 88
0.27441999 1.254321 0.029203463 100
0.26720923 1.2669935 0.050027397 85
0.2819891 1.2410185 0.066540658 52
0.28134698 1.242147 0.086038955 58
0.27619916 1.2511941 0.10761628 79
0.28978831 1.2273117 0.12147357 86
0.25764918 1.283795 0.15839726 65
0.27372703 1.2593067 0.0098082526 89
0.28191945 1.244797 0.028575432 100
0.26200178 1.2800732 0.051247578 82
0.27379254 1.2591906 0.068978049 50
0.28582782 1.237875 0.085100345 58
0.27586582 1.2555187 0.10837951 87
0.29226437 1.2264752 0.12102367 77
0.26881114 1.2680132 -0.0099827768 86
0.26315388 1.2780328 0.1563267 66
0.2734825 1.2637575 0.0098780617 88
0.27772301 1.2561855 0.029203463 100
0.27254573 1.2654302 0.049678773 86
0.27550182 1.2601517 0.068978049 50
0.29132345 1.2319002 0.083848871 59
0.27372512 1.2633243 0.10990598 92
0.29481152 1.2256718 0.12057377 86
0.2744596 1.2620127 -0.0098431576 87
0.27153662 1.2672322 0.15270324 68
0.2829757 1.2507347 0.0095988233 76
0.2813614 1.253641 0.028994121 100
0.27234191 1.2698792 0.050027397 85
0.27528664 1.2645776 0.069465525 49
0.29197818 1.2345272 0.084161744 59
0.28593516 1.2454066 0.10570818 73
0.2897799 1.2384849 0.12372308 83
0.27423674 1.2664678 -0.0099129668 87
0.28265452 1.251313 0.14752686 79
0.2856203 1.2499124 0.0095639192 91
0.28112385 1.2580745 0.029203463 100
0.27985668 1.2603748 0.048981529 87
0.28467745 1.2516239 0.067515619 51
0.29360124 1.235425 0.084161744 59
0.28664896 1.2480452 0.1060898 88
0.295178 1.2325629 0.12192347 76
0.28060761 1.2590116 0.14959741 70
0.28163028 1.2614083 0.0097733475 89
0.28865829 1.2485394 0.028575432 100
0.27783597 1.2683561 0.049678773 86
0.28834739 1.2491087 0.067028143 51
0.29530886 1.2363616 0.084161744 59
0.28557986 1.2541763 0.10723466 81
0.29780912 1.2317834 0.12147357 86
0.27314228 1.2769506 0.15477379 67
0.28239492 1.2641006 0.0098082526 74
0.28842798 1.2529612 0.028784776 100
0.27862835 1.271055 0.049853086 57
0.28434914 1.2604922 0.068490572 100
0.29505679 1.2407218 0.084787481 59
0.29007649 1.2499174 0.1060898 73
0.27763325 1.2728922 -0.0099827768 86
0.27951369 1.2694204 0.1521856 77
0.28782085 1.2579391 0.0096686333 75
0.28814027 1.2573446 0.028994121 100
0.28783569 1.2579114 0.048458595 88
0.28597713 1.2613704 0.068490572 67
0.29942414 1.2363443 0.083848871 59
0.28702313 1.2594237 0.10799789 72
0.28592786 1.2614622 -0.0097384425 99
0.28757197 1.2584023 0.14856213 71
0.29234669 1.253557 0.0095639192 91
0.29547819 1.2476798 0.028366089 100
0.29141423 1.255307 0.048109971 59
0.28956088 1.2587852 0.068003096 51
0.29242596 1.2534082 0.10647142 73
0.28576431 1.2659106 -0.0098082526 99
0.29018685 1.2576104 0.1480445 79
0.28976887 1.2627381 0.029203463 100
0.28109881 1.2791545 0.05037602 84
0.29784346 1.2474492 0.06629692 35
0.29723257 1.248606 0.08572609 58
0.29970056 1.2439328 0.10418171 75
0.28478208 1.2721804 -0.0099129668 87
0.29107359 1.2602677 0.14856213 71
0.29581353 1.2553883 0.0095639192 91
0.29704976 1.2530276 0.028575432 100
0.28749922 1.271265 0.049504463 57
0.28740925 1.2714368 0.15166797 77
0.29558092 1.2597775 0.0096337283 90
0.2909998 1.2685966 0.049155839 87
0.29926899 1.2526777 0.066784397 52
0.29388219 1.2630477 0.10799789 72
0.28820646 1.2739741 -0.0099129668 100
0.2961978 1.25859 0.14752686 71
0.29546088 1.2642182 0.0097035384 90
0.29639086 1.2624125 0.048458595 59
0.29088286 1.2731071 -0.0098780617 100
0.29525119 1.2646253 0.14907977 78
0.29903379 1.2614882 0.067759357 85
0.2926406 1.2740085 -0.0098780617 100
0.29783797 1.2681154 0.14959741 78
0.29347464 1.2811546 -0.0099827768 100
0.29871175 1.2707192 0.15011504 78
0.29970273 1.2775526 -0.0098780617 100
