# .PCD v0.7 - Point Cloud Data file format
VERSION 0.7
FIELDS x y z intensity
SIZE 4 4 4 4
TYPE F F F F
COUNT 1 1 1 1
WIDTH 732
HEIGHT 1
VIEWPOINT 0 0 0 1 0 0 0
POINTS 732
DATA ascii
-1.1061909 0.15113595 0.0585116 26
-1.1862186 0.16628993 0.020907983 24
-1.1056566 0.15499635 0.0585116 29
-1.1302091 0.16246292 0.019930648 4
-1.060393 0.15620703 0.01870898 6
-1.0163404 0.15334415 0.017941074 5
-1.0454428 0.16146944 0.018464645 1
0.12107 0.028267801 0.044904251 13
0.053570062 0.0064404607 0.047730394 45
0.052267641 0.0096748471 0.047625721 31
0.045084119 0.0048361421 0.04804441 100
0.041577518 0.0047625899 0.048149079 97
0.042817533 0.018353999 0.047521047 29
0.039073944 0.018477321 0.047625721 19
0.036453784 0.020265341 0.047625721 19
0.027033329 0.012199581 0.048253752 8
0.024523258 0.01393801 0.048253752 8
0.017304957 0.0092326403 0.048672438 8
0.019257784 0.017624915 0.048253752 8
-1.0505695 1.1354035 0.028656852 3
-1.0155177 1.1274014 0.084156215 5
-1.040837 1.1331816 0.14276111 6
-1.0356486 1.1378253 0.028412517 8
-1.0045328 1.1306072 0.083632857 15
-1.0143285 1.1328795 0.14049506 24
-0.99542731 1.1341845 0.027714422 23
-1.0013204 1.1355733 0.083528183 84
-1.0130522 1.1383379 0.14049506 78
-0.98442274 1.1372495 0.027539898 37
-1.009747 1.1433105 0.084051549 100
-1.0156324 1.1447192 0.14084367 87
-0.98118836 1.1421312 0.027504992 43
-0.97544128 1.1407344 0.08227212 100
-1.0026987 1.1473589 0.13979781 84
-0.98958737 1.1498688 0.027679516 26
-0.97607702 1.1465354 0.082376793 100
-1.0052407 1.1537311 0.14014643 84
-0.98243266 1.1537833 0.027574802 23
-0.9883154 1.1552566 0.083109498 60
-0.99036282 1.1557693 0.13892625 89
-0.97139329 1.1566674 0.027400278 38
-0.99083263 1.1616079 0.083318844 37
-0.98707575 1.1606531 0.13875194 80
-0.9603526 1.1594789 0.027225753 61
-0.99525827 1.1684802 0.083632857 50
-0.98184425 1.1650211 0.13840333 89
-0.96285301 1.1657609 0.027295563 67
-0.96873873 1.1673006 0.08227212 100
-0.98623866 1.1718786 0.13892625 89
-0.95952946 1.1705265 0.027260659 74
-0.95575994 1.1695263 0.081644088 90
-0.98097497 1.1762166 0.13857763 98
-0.96005327 1.1763129 0.027295563 81
-0.95242745 1.174261 0.081539422 96
-0.96607989 1.1779344 0.13735744 100
-0.94705063 1.1784235 0.027086135 96
-0.94329983 1.1774002 0.081120729 100
-0.95695812 1.1811265 0.1366602 100
-0.93790644 1.1815145 0.026946515 96
-0.94764358 1.1842076 0.081434749 100
-0.9612748 1.1879776 0.13718314 94
-0.93653363 1.1864463 0.026946515 92
-0.94433862 1.1886328 0.081330076 88
-0.95988041 1.1929868 0.13718314 98
-0.94661289 1.1949097 0.027155945 79
-0.93326157 1.1911191 0.080806717 82
-0.95647806 1.1977105 0.13700883 99
-0.97971207 1.2100829 0.02778423 50
-0.92218548 1.1935331 0.080283359 46
-0.94540232 1.2002124 0.13613728 100
-0.94552988 1.2059072 0.027190849 39
-0.92836803 1.200905 0.080702044 22
-0.94771701 1.2065446 0.13648589 85
-0.92290288 1.204896 0.026806897 68
-0.92685491 1.2060628 0.080702044 26
-0.94045156 1.2100774 0.13596296 84
-0.91562825 1.2083158 0.026702182 74
-0.91192907 1.2072095 0.079969339 30
-0.93699747 1.2147065 0.13578865 94
-0.92182249 1.2154908 0.026841801 75
-0.91429442 1.2132123 0.080178685 70
-0.94123548 1.2213668 0.13631158 99
-0.91834658 1.2200397 0.026806897 81
-0.91273838 1.2183208 0.080178685 100
-0.92441136 1.2218986 0.1349171 100
-0.9091273 1.2227919 0.026667276 83
-0.91688722 1.2251999 0.080492698 86
-0.91331059 1.22409 0.13404553 84
-0.89990669 1.2254851 0.026527658 85
-0.91910022 1.2315147 0.080702044 70
-0.91741902 1.2309866 0.13456847 54
-0.90211934 1.2317554 0.026597468 79
-0.90796345 1.2336137 0.080178685 72
-0.91200358 1.2348984 0.13421984 43
-0.90049869 1.2368214 0.026597468 77
-0.89302772 1.234417 0.07944598 89
-0.91606158 1.2418301 0.13474278 45
-0.90076166 1.242501 0.026632372 90
-0.88949877 1.2388328 0.079341307 100
-0.91251129 1.2463278 0.13456847 57
-0.88960737 1.2444327 0.026457848 99
-0.89733797 1.2469804 0.079864666 100
-0.90137821 1.2483119 0.13369691 77
-0.87672633 1.2451619 0.02624842 100
-0.89962226 1.2527872 0.080074012 100
-0.90742964 1.2553874 0.13439415 82
-0.87884909 1.2514162 0.02631823 96
-0.88278645 1.2527428 0.079236634 100
-0.9019503 1.2591995 0.13404553 77
-0.88077515 1.2581905 0.026388038 92
-0.87903208 1.2575957 0.079131968 100
-0.90006119 1.264771 0.13404553 87
-0.87906235 1.2631819 0.026388038 93
-0.87543327 1.2619294 0.079027295 100
-0.88890833 1.2665797 0.13317397 100
-0.86995298 1.2650357 0.02624842 81
-0.8738808 1.2664051 0.079027295 100
-0.88357848 1.269786 0.13282534 65
-0.85124308 1.2640054 0.025934275 71
-0.86460489 1.2687161 0.07860861 61
-0.89873654 1.2807491 0.13439415 36
-0.86440271 1.2747591 0.026213514 88
-0.85327417 1.2707876 0.078085244 25
-0.90239412 1.2883171 0.1349171 36
-0.86075121 1.2790145 0.02617861 99
-0.85339624 1.2763608 0.078189917 34
-0.88183469 1.2866217 0.13317397 30
-0.8591451 1.2834439 0.02617861 93
-0.849922 1.2800834 0.078085244 74
-0.86897272 1.2870247 0.1321281 16
-0.84983844 1.2855952 0.026038991 100
-0.85562962 1.2877281 0.078503937 100
-0.8503328 1.2857772 0.1305593 13
-0.83303779 1.2848969 0.025759751 100
-0.84445506 1.2891474 0.077980578 100
-0.91014117 1.3136019 0.13631158 1
-0.84246165 1.2939467 0.025969181 100
-0.83141857 1.2897916 0.077352546 46
-0.87093967 1.3046622 0.13282534 1
-0.84426993 1.3004689 0.026038991 88
-0.82950419 1.2948512 0.077352546 51
-0.84662455 1.3013649 0.13073361 7
-0.84054321 1.304615 0.026004085 74
-0.83698481 1.303247 0.077875905 57
-0.8614983 1.3126715 0.13230242 46
-0.83139986 1.306087 0.025864467 74
-0.84275061 1.310492 0.07829459 68
-0.85421425 1.3149407 0.13177948 100
-0.8220734 1.3079859 0.025724847 88
-0.82969886 1.3109758 0.077666558 61
-0.83931917 1.314748 0.1305593 100
-0.81832796 1.3120356 0.025689943 100
-0.81851774 1.3121108 0.0771432 76
-0.83926159 1.320328 0.13073361 99
-0.82014066 1.3182945 0.025759751 100
-0.82032567 1.3183687 0.077352546 95
-0.83733207 1.3251741 0.13073361 99
-0.81812185 1.3233128 0.025759751 100
-0.82015818 1.3241363 0.077457212 97
-0.82974678 1.3280141 0.13021068 100
-0.81247967 1.3265725 0.025689943 100
-0.82191342 1.3304262 0.077666558 97
-0.82410175 1.33132 0.12986206 100
-0.80804306 1.3247602 0.18012288 22
-0.7995345 1.3265135 0.025480513 100
-0.81450814 1.3326883 0.077352546 99
-0.81302315 1.3320758 0.1289905 100
-0.77866822 1.3179088 0.17646681 18
-0.79758364 1.3312209 0.025480513 100
-0.79409808 1.3297694 0.076305822 100
-0.80921358 1.3360643 0.12881619 100
-0.78041261 1.3240697 0.17695428 20
-0.80298966 1.3390224 0.025620133 100
-0.78661281 1.3321347 0.075991809 99
-0.81641227 1.3446674 0.12968774 100
-0.79310924 1.334867 0.17890419 28
-0.80099517 1.3437417 0.025620133 99
-0.7901575 1.3391392 0.076305822 81
-0.80156082 1.343982 0.12846756 100
-0.77651209 1.3333442 0.17695428 18
-0.80633563 1.3516064 0.025759751 56
-0.81019002 1.3532592 0.077561885 38
-0.79771787 1.3479111 0.12829325 41
-0.78913301 1.3442298 0.17890419 7
-0.80980247 1.3587208 0.025864467 83
-0.81914288 1.3627648 0.078189917 82
-0.82128984 1.3636942 0.13073361 41
-0.79440719 1.3520555 0.17987914 10
-0.79674536 1.3586586 0.025655037 100
-0.80791503 1.3635406 0.077666558 100
-0.8228603 1.3700733 0.13108224 100
-0.77417797 1.3487945 0.17744176 28
-0.79651183 1.3641632 0.025689943 100
-0.80400759 1.3674707 0.077561885 100
-0.82258016 1.3756661 0.13125655 100
-0.78304642 1.3582215 0.17890419 31
-0.8017363 1.3721144 0.025829561 100
-0.8037383 1.3730062 0.077666558 100
-0.80589765 1.3739681 0.12986206 100
-0.77554506 1.3604479 0.17817298 22
-0.79415482 1.3743691 0.025724847 100
-0.81073314 1.3818232 0.078189917 100
-0.80014676 1.3770633 0.12951343 100
-0.78433889 1.3699555 0.17963541 19
-0.79214329 1.3788232 0.025724847 100
-0.81779116 1.3904576 0.078713275 100
-0.80538398 1.3848295 0.13021068 100
-0.77149528 1.3694568 0.17817298 19
-0.7918281 1.3843368 0.025759751 100
-0.80835313 1.3919026 0.07829459 100
-0.80685276 1.3912157 0.1305593 100
-0.77300459 1.3757188 0.17866045 14
-0.80238241 1.3948884 0.026004085 100
-0.8007347 1.3941271 0.077980578 100
-0.81552786 1.4009625 0.13160518 100
-0.76547617 1.3778353 0.17792924 11
-0.80381757 1.4012954 0.026073895 100
-0.80759853 1.4030585 0.078503937 100
-0.80248278 1.4006732 0.1305593 100
-0.76874369 1.3849403 0.17866045 10
-0.79436821 1.4026117 0.025934275 100
-0.80899483 1.4094944 0.078713275 100
-0.80027312 1.4053903 0.1305593 100
-0.78455073 1.3979919 0.18109785 5
-0.79395813 1.4081583 0.025969181 100
-0.81577533 1.4185178 0.079236634 100
-0.80164653 1.411809 0.13090792 100
-0.78055733 1.401795 0.18085411 3
-0.78631228 1.4102535 0.025864467 100
-0.80629843 1.4198294 0.078817949 100
-0.81017882 1.4216884 0.13195379 100
-0.79307097 1.4192659 0.026038991 100
-0.80042559 1.4228213 0.07860861 100
-0.8114832 1.4281666 0.13230242 100
-0.80540556 1.4304899 0.02631823 100
-0.80016345 1.4279354 0.078713275 100
-0.80582672 1.4306951 0.13195379 100
-0.78873545 1.4281591 0.026038991 100
-0.80682033 1.4370501 0.079236634 100
-0.79636019 1.4319077 0.13125655 100
-0.78284687 1.4310511 0.025969181 100
-0.80806226 1.4435571 0.07944598 100
-0.80118126 1.4401443 0.13195379 100
-0.79126137 1.4410682 0.02617861 100
-0.79855818 1.4447188 0.079027295 100
-0.81665188 1.4537717 0.13369691 100
-0.79605156 1.4493499 0.02631823 100
-0.79619473 1.4494221 0.079027295 100
-0.81425673 1.4585381 0.13369691 100
-0.80436438 1.4594877 0.026527658 100
-0.80271429 1.4586477 0.079550654 100
-0.80651838 1.4605843 0.13317397 100
-0.79127604 1.4587305 0.02631823 100
-0.80030221 1.4633653 0.079550654 100
-0.80055469 1.463495 0.13282534 100
-0.78886384 1.4634082 0.02631823 100
-0.80851477 1.4735856 0.080178685 100
-0.80874091 1.4737028 0.13387123 100
-0.78655702 1.4678442 0.02631823 100
-0.79555136 1.4725404 0.079550654 100
-0.81346446 1.4818932 0.13456847 100
-0.78765172 1.4743688 0.026388038 99
-0.7913236 1.4763024 0.07944598 100
-0.8109712 1.4866483 0.13456847 100
-0.79224926 1.4827853 0.026527658 38
-0.79414195 1.4837904 0.07976 34
-0.79614371 1.4848534 0.13334829 73
0.12790906 1.29217 0.13051336 5
0.14070842 1.2799668 0.011413874 12
0.1387068 1.2824607 0.03443706 27
0.13098001 1.292088 0.05856866 22
0.14079395 1.2798601 0.12707879 17
0.19017017 1.2183387 0.13272113 7
0.13766578 1.2837578 0.1765146 6
0.16243029 1.2563701 0.010855397 39
0.16912591 1.2479676 0.032029606 60
0.16260466 1.2561513 0.054385185 51
0.14917824 1.2730005 0.078971334 14
0.15852627 1.2612693 0.099492319 12
0.15114066 1.2705376 0.12440746 66
0.19052291 1.2211161 0.13317102 15
0.15511265 1.2655531 0.16978529 14
0.15792671 1.2655611 0.011029921 100
0.17575356 1.2430289 0.031610917 92
0.14452472 1.2825006 0.057174169 94
0.16941163 1.2510448 0.075315252 30
0.18475649 1.2316496 0.093234941 26
0.1577628 1.2657683 0.122881 100
0.19209978 1.2223681 0.13317102 46
0.14725572 1.2790487 0.1739264 42
0.16089419 1.2653542 0.010995016 100
0.1811083 1.2396204 0.031296901 100
0.15616208 1.2713784 0.055779677 100
0.16618818 1.2586147 0.076290213 29
0.18392971 1.2360287 0.093860678 26
0.16919774 1.2547833 0.11982805 100
0.18284699 1.237407 0.13722014 37
0.15142179 1.2774131 0.17289113 35
0.16754472 1.260402 0.010855397 100
0.18397808 1.2393303 0.03119223 94
0.16526622 1.2633235 0.054733805 100
0.15812984 1.2724741 0.078240119 28
0.17826986 1.2466497 0.095737889 25
0.17330694 1.2530134 0.11906482 100
0.18927449 1.2325391 0.13542053 38
0.15794757 1.2727079 0.17082056 36
0.17529565 1.253763 0.010680873 80
0.17819825 1.2500155 0.03182026 61
0.16568422 1.2661718 0.054908119 75
0.18289432 1.2439526 0.073609084 31
0.17501399 1.2541265 0.096989371 25
0.18573064 1.2402909 0.11563025 40
0.18365037 1.2429765 0.13811995 30
0.1525189 1.2831689 0.1739264 28
0.17089161 1.2629938 0.010855397 65
0.17744106 1.2544769 0.032029606 30
0.16013125 1.2769866 0.055953987 73
0.18576106 1.2436576 0.073365346 93
0.17791036 1.2538667 0.096676499 50
0.18737447 1.2415595 0.11563025 13
0.19480708 1.231894 0.13452072 23
0.15077966 1.2891475 0.17547931 56
0.17252851 1.2642484 0.010855397 52
0.16450262 1.2747571 0.03328567 28
0.16181463 1.2782767 0.055953987 48
0.18974352 1.2417076 0.072877869 47
0.19630262 1.2331194 0.092296332 53
0.18655699 1.2458799 0.11639348 13
0.2081688 1.2175821 0.13002171 32
0.16891921 1.2689742 0.16823238 67
0.17183971 1.2687498 0.010925206 39
0.15178639 1.2951978 0.03454173 27
0.16840628 1.2732781 0.055256739 49
0.18419614 1.2524531 0.074340299 46
0.19195393 1.2422215 0.093860678 52
0.19652346 1.2361948 0.11372216 13
0.20737845 1.2218783 0.13092151 40
0.17766643 1.261065 0.16512655 68
0.17607492 1.2669368 0.010855397 39
0.17773136 1.2647355 0.032448292 29
0.18103489 1.2603451 0.053687938 52
0.17164424 1.272825 0.077265166 100
0.20081335 1.23406 0.091983467 53
0.19941497 1.2359185 0.11334054 13
0.21138036 1.2200167 0.13002171 32
0.18411493 1.2562518 0.163056 70
0.1921728 1.2490144 0.010436539 68
0.17467943 1.2724323 0.032866981 29
0.1767869 1.2696111 0.054559495 50
0.19359785 1.2471066 0.073121607 62
0.19888878 1.2400239 0.092922069 53
0.20221838 1.2355666 0.11295892 13
0.20595577 1.2305634 0.13272113 31
0.18465835 1.2590737 0.16357364 69
0.18533745 1.2613767 0.010680873 80
0.1953038 1.2479473 0.03119223 31
0.17004684 1.2819806 0.055779677 49
0.19983053 1.2418476 0.072146654 79
0.19801271 1.244297 0.093547814 65
0.20602271 1.2335038 0.11219569 14
0.21437243 1.2222526 0.13002171 32
0.18504533 1.2617704 0.16409127 69
0.19417149 1.2529869 0.010471444 82
0.21237475 1.2282786 0.029831495 66
0.18365389 1.2672631 0.054036561 77
0.19676998 1.2494599 0.073121607 78
0.20904383 1.2327998 0.091044858 81
0.20065585 1.2441853 0.1144854 13
0.21826485 1.2202836 0.1291219 24
0.18561831 1.2645967 0.16460891 69
0.19130901 1.2608076 0.010611063 81
0.20824456 1.2376342 0.030354854 65
0.18439037 1.2702746 0.054210871 100
0.21032646 1.2347856 0.070684217 81
0.21315446 1.2309159 0.090419121 100
0.20132077 1.2471083 0.11486702 13
0.23379433 1.2026737 0.12372308 16
0.19093972 1.261313 0.163056 70
0.19772148 1.2555823 0.010471444 82
0.20518768 1.2452909 0.030773543 64
0.18613887 1.2715478 0.054210871 100
0.19563133 1.2584634 0.07409656 61
0.20780551 1.2416824 0.092296332 100
0.20529401 1.2451442 0.11410378 13
0.19379133 1.2609997 0.16253836 78
0.20409304 1.2503183 0.010331824 98
0.20918322 1.2432501 0.030564198 64
0.19254917 1.2663479 0.053513627 100
0.19617847 1.2613082 0.074340299 100
0.2071453 1.2460799 0.092922069 100
0.21154392 1.2399721 0.1125773 13
0.24593326 1.19222 0.12012386 8
0.19663638 1.2606723 0.16202073 70
0.20112005 1.2580298 0.010471444 82
0.21199876 1.2428122 0.030459527 97
0.18964916 1.2740757 0.054210871 100
0.20482224 1.252851 0.072877869 100
0.20421407 1.2537018 0.094173551 100
0.20861953 1.2475392 0.11410378 13
0.24400905 1.1980346 0.12147357 17
0.19610435 1.265046 0.163056 70
0.20737046 1.2526616 0.010331824 84
0.21588075 1.2406732 0.030250182 98
0.19593593 1.2687694 0.053513627 100
0.21676704 1.2394247 0.070684217 81
0.21839797 1.2371272 0.090731993 95
0.20452279 1.2566731 0.11601187 26
0.23076567 1.2197049 0.1273223 16
0.2011027 1.2614911 0.16150309 70
0.20214635 1.2636626 0.010541254 81
0.21637532 1.2434692 0.030354854 65
0.19997439 1.2667449 0.053165004 100
0.21269056 1.2486985 0.071902916 48
0.22230622 1.2350523 0.090106249 96
0.19830781 1.2691101 0.1186832 52
0.23458233 1.2176304 0.12642249 33
0.20393321 1.2611268 0.16098544 72
0.20845616 1.2583191 0.010401634 83
0.21230644 1.2528143 0.030878214 95
0.20856208 1.2581677 0.052119136 100
0.20298609 1.26614 0.074340299 100
0.21827066 1.244287 0.091670595 100
0.20792881 1.2590731 0.11601187 99
0.22944528 1.2283101 0.1291219 56
0.2100786 1.2559994 0.15891489 73
0.20788202 1.2627937 0.010471444 96
0.22652289 1.235943 0.029726824 100
0.20572326 1.2659031 0.05281638 100
0.22396517 1.2396271 0.07019674 82
0.21880171 1.2470647 0.091983467 100
0.21971458 1.2457498 0.1125773 96
0.22437903 1.2390311 0.13182132 86
0.20516691 1.2667046 0.16202073 70
0.21178794 1.2606326 0.010401634 97
0.2303369 1.2337242 0.029517479 100
0.20850044 1.2654017 0.05264207 100
0.22439763 1.2423401 0.070440479 65
0.21814328 1.2514131 0.092609204 100
0.22129405 1.2468424 0.1125773 82
0.22372416 1.2433171 0.13272113 94
0.20900881 1.2646642 0.16098544 72
0.21124426 1.265111 0.010471444 82
0.22293508 1.2480241 0.030354854 65
0.20573154 1.2731681 0.053339314 78
0.2204437 1.2516654 0.071659178 64
0.23098028 1.2362657 0.089480512 97
0.22406915 1.2463666 0.11219569 91
0.23308119 1.2331949 0.12957181 96
0.20637408 1.272229 0.163056 70
0.20848089 1.2729076 0.010611063 81
0.22123954 1.2541198 0.03066887 64
0.20972866 1.2710702 0.05299069 79
0.21878138 1.2577395 0.072390392 47
0.23482931 1.234108 0.088854775 98
0.22352806 1.2507498 0.11295892 89
0.2314156 1.2391348 0.13092151 96
0.2124705 1.2670326 0.16098544 72
0.22253245 1.2558563 0.01022711 42
0.237443 1.2337339 0.029308135 34
0.21816111 1.262342 0.051944822 81
0.22048593 1.2588928 0.072390392 95
0.23424318 1.2384814 0.089480512 97
0.22740272 1.2486304 0.11219569 100
0.23196599 1.24186 0.13137141 100
0.21636695 1.2650039 0.15995017 72
0.21755937 1.2669691 0.010436539 41
0.20796999 1.2813044 0.032238949 30
0.21545061 1.2701215 0.05264207 53
0.22881684 1.2501402 0.070927955 97
0.23148713 1.2461483 0.090731993 100
0.24217439 1.2301718 0.10761628 87
0.23253152 1.2445871 0.13182132 94
0.21809688 1.2661655 0.15995017 72
0.22814438 1.2547987 0.0101573 28
0.21196625 1.2791672 0.032029606 30
0.22050437 1.2663065 0.052119136 54
0.23378867 1.2462969 0.07019674 82
0.2353363 1.2439659 0.090106249 96
0.22532263 1.2590489 0.11410378 100
0.23957932 1.2375747 0.12957181 96
0.21876234 1.2689306 0.1604678 72
0.22543776 1.2625985 0.010296919 42
0.22033885 1.2703373 0.031401575 31
0.22223881 1.2674537 0.052119136 54
0.23326883 1.2507131 0.070684217 81
0.24351364 1.2351642 0.088229038 98
0.22919205 1.2569005 0.11334054 89
0.24764639 1.2288918 0.12687239 90
0.21731728 1.2749233 0.16202073 70
0.21730986 1.2787914 0.010611063 27
0.23083168 1.2581121 0.030564198 32
0.22288686 1.2702622 0.052293446 53
0.23494875 1.2518158 0.070684217 81
0.24297711 1.2395378 0.088854775 98
0.23626575 1.2498016 0.11143246 84
0.2460506 1.2348374 0.12822211 97
0.23176879 1.2566789 0.15580906 75
0.23097593 1.2614417 0.01022711 42
0.23027709 1.2625183 0.030773543 32
0.22888696 1.2646596 0.051596198 54
0.2343865 1.2561879 0.071171694 81
0.24776256 1.2355827 0.087916173 84
0.24213448 1.2442526 0.10990598 92
0.24653265 1.2374773 0.128672 97
0.23022878 1.2625927 0.15736198 74
0.23702514 1.2558281 0.010087491 57
0.24605957 1.2418041 0.029412808 67
0.2284576 1.2691274 0.051944822 54
0.23608553 1.2572867 0.071171694 65
0.24725002 1.2399561 0.08854191 84
0.25229758 1.2321209 0.10685304 88
0.24605557 1.2418103 0.12957181 88
0.23195019 1.2637058 0.15736198 74
0.24733958 1.243439 0.0098082526 44
0.24340522 1.2495933 0.029831495 66
0.22590923 1.2769616 0.05264207 53
0.24848059 1.2416542 0.068734311 67
0.24889231 1.2410101 0.08854191 70
0.23910812 1.256315 0.11219569 91
0.25190291 1.2363007 0.1277722 89
0.22535115 1.2778344 0.16150309 70
0.24042445 1.2580012 0.010087491 57
0.25257042 1.2388549 0.029098792 68
0.2308827 1.2730424 0.052119136 81
0.24906543 1.24438 0.068978049 50
0.25688729 1.2320499 0.086664692 86
0.2481693 1.2457926 0.10952436 78
0.25979581 1.2274652 0.12507279 83
0.22816068 1.2773333 0.16098544 72
0.23680332 1.2675405 0.010262015 98
0.24888885 1.2483416 0.029622151 100
0.23900899 1.2640365 0.051073264 83
0.23697546 1.267267 0.072146654 79
0.26060662 1.2297268 0.086038955 58
0.23937315 1.263458 0.11334054 100
0.25827998 1.2334229 0.12642249 99
0.24745625 1.2506173 -0.0099129668 76
0.23405015 1.271914 0.15891489 65
0.24913576 1.2516705 0.0099129668 87
0.25267661 1.2460017 0.029412808 100
0.24179092 1.2634293 0.050898954 83
0.25133288 1.248153 0.069221787 33
0.25802714 1.2374358 0.087290429 57
0.2556586 1.2412277 0.10799789 79
0.25783464 1.237744 0.1273223 97
0.23785096 1.2697369 0.15787962 65
0.25073472 1.2526655 0.0099129668 87
0.24794191 1.2571698 0.03004084 99
0.24237898 1.2661419 0.051073264 83
0.25396618 1.2474537 0.068978049 50
0.25541508 1.2451168 0.08854191 70
0.24998102 1.2538811 0.11066922 92
0.26246804 1.2337415 0.12597258 90
0.24256387 1.2658436 0.1563267 74
0.2482301 1.26052 0.010052586 86
0.26429579 1.2344055 0.028575432 100
0.23889279 1.2756975 0.051944822 81
0.25563464 1.2484841 0.068978049 50
0.26225069 1.2377298 0.086977564 57
0.25887293 1.2432203 0.10799789 72
0.26510966 1.2330827 0.12552269 99
0.24530885 1.2652684 0.15580906 67
0.24994418 1.2615703 0.010052586 86
0.26279685 1.2405143 0.028889447 100
0.24377406 1.2716787 0.051421888 100
0.25420389 1.2545918 0.069709264 33
0.2649143 1.2370453 0.086664692 57
0.25541216 1.2526124 0.10990598 85
0.27078912 1.2274208 0.12372308 83
0.23496133 1.2861161 0.16202073 63
0.2516619 1.2626147 0.010052586 86
0.25926781 1.2500559 0.029412808 100
0.24862346 1.2676318 0.050898954 83
0.25486889 1.2573195 0.069953002 49
0.26859292 1.2346582 0.086038955 87
0.24794543 1.2687514 0.11334054 96
0.2683495 1.2350602 0.12552269 99
0.24877387 1.2673835 0.15580906 67
0.25750294 1.2567968 0.0099129668 87
0.25991663 1.2527798 0.029517479 100
0.25651929 1.2584339 0.049853086 85
0.25554934 1.2600482 0.07019674 82
0.27021661 1.2356378 0.086038955 72
0.26586664 1.2428772 0.10723466 73
0.27097827 1.2343701 0.12507279 83
0.2584717 1.2551845 0.15166797 69
0.26739541 1.2440736 0.0096337283 90
0.2575129 1.2606517 0.029936166 99
0.25006452 1.2731464 0.051247578 82
0.26437691 1.2491372 0.068490572 50
0.26982072 1.2400051 0.086664692 57
0.27053484 1.2388072 0.1060898 81
0.27260092 1.2353413 0.12507279 92
0.25423196 1.2661555 0.15477379 67
0.26701608 1.2484996 0.0097035384 90
0.26126075 1.2582314 0.029726824 100
0.25689369 1.2656157 0.05037602 84
0.27009311 1.2432966 0.067515619 51
0.27146307 1.2409803 0.086664692 57
0.26317859 1.2549886 0.10952436 85
0.2791869 1.2279199 0.12282328 85
0.25203207 1.2738363 0.15684435 66
0.26969999 1.2477598 0.0096686333 90
0.27711627 1.2351191 0.028261416 100
0.2525762 1.2769465 0.051421888 100
0.26672432 1.2528317 0.068734311 84
0.27510801 1.2385421 0.086038955 58
0.26884717 1.2492135 0.10799789 72
0.28571764 1.2204584 0.12057377 86
0.2557478 1.2715408 0.15580906 67
0.26231644 1.2642899 0.0099827768 87
0.27271354 1.2464259 0.028889447 100
0.25434759 1.2779818 0.051421888 82
0.26541582 1.2589645 0.069465525 49
0.27873251 1.2360842 0.085413218 73
0.26755896 1.2552823 0.10914274 92
0.27944958 1.2348521 0.12417299 83
0.2653341 1.259105 -0.0098780617 87
0.26235908 1.2642167 0.15322088 68
0.27504191 1.2462415 0.0095988233 76
0.27038375 1.2543095 0.029308135 100
0.25811496 1.2755597 0.051073264 100
0.27109453 1.2530785 0.068490572 50
0.28727493 1.2250532 0.083223134 60
0.28005254 1.2375627 0.10494494 82
0.28204826 1.2341061 0.12372308 75
0.27084744 1.2535064 0.14959741 70
0.27670595 1.2471983 0.0095988233 76
0.27406117 1.2518164 0.029098792 100
0.26483232 1.2679309 0.050201707 100
0.2727825 1.2540491 0.068490572 50
0.28101125 1.2396808 0.08572609 58
0.27875921 1.2436131 0.1060898 81
0.28366992 1.2350385 0.12372308 83
0.26485625 1.267889 0.15373851 68
0.27639788 1.2516268 0.0096686333 75
0.27574471 1.2527766 0.029098792 100
0.26460388 1.272388 0.05055033 84
0.27643487 1.2515616 0.068003096 51
0.28460383 1.2371818 0.085100345 58
0.27459568 1.2547992 0.10837951 79
0.29010764 1.2274933 0.12147357 86
0.26277906 1.2756002 0.15580906 67
0.27398324 1.2594513 0.0098082526 74
0.28118703 1.246677 0.028680105 100
0.26520494 1.2750175 0.05072464 84
0.27794909 1.2524188 0.068003096 51
0.28510252 1.2397338 0.085413218 58
0.27419135 1.2590822 0.10914274 92
0.28771722 1.2350973 0.12327318 85
0.27201873 1.2629349 -0.0098780617 87
0.26816463 1.2697692 0.15373851 68
0.27471727 1.262157 0.0098431576 88
0.2789526 1.2545849 0.029098792 100
0.28155869 1.2499257 0.048109971 89
0.27963471 1.2533655 0.068003096 51
0.28963673 1.2354836 0.084474608 59
0.27781704 1.2566152 0.10837951 65
0.29124492 1.2326084 0.12237337 85
0.271797 1.2673779 0.15270324 68
0.2833114 1.250921 0.0095988233 76
0.28073052 1.2555752 0.029098792 100
0.28138706 1.2543912 0.048458595 88
0.27948275 1.2578253 0.068490572 50
0.29517651 1.2295246 0.083223134 60
0.28531504 1.2473079 0.1060898 81
0.29105207 1.2369622 0.12327318 85
0.2745834 1.2666602 -0.0099129668 97
0.27549559 1.2650152 0.15166797 69
0.28402808 1.2536012 0.0096337283 90
0.28435212 1.2530119 0.028889447 100
0.2782788 1.2640548 0.049330149 87
0.28501374 1.251809 0.067515619 51
0.29011846 1.2425274 0.085413218 58
0.28698274 1.2482289 0.1060898 73
0.29456189 1.2344482 0.12237337 76
0.2772252 1.2659705 0.15166797 69
0.28867406 1.2493057 0.0095290141 92
0.29186067 1.243461 0.028261416 100
0.28009143 1.2650473 0.049330149 87
0.28868195 1.2492912 0.067028143 51
0.29090652 1.2452111 0.08572609 58
0.28685772 1.2526371 0.10685304 81
0.29906443 1.2302485 0.12102367 77
0.2753458 1.2737515 0.15373851 76
0.28559324 1.2590101 0.0097035384 90
0.28971514 1.2513868 0.028680105 100
0.2818211 1.2659864 0.049330149 87
0.28657994 1.2571852 0.068003096 51
0.29444596 1.2426373 0.085100345 58
0.28761026 1.2552797 0.10723466 81
0.2798866 1.2695643 -0.0099129668 97
0.27802473 1.2730078 0.15322088 76
0.2871308 1.2598383 0.0097035384 90
0.29500642 1.2451627 0.028261416 100
0.29845449 1.2387373 0.046541166 92
0.29092777 1.2527629 0.067271881 51
0.28635108 1.2612913 0.10837951 79
0.2871308 1.2598383 -0.0097035384 89
0.28417379 1.2653486 0.15063268 78
0.29541817 1.2483959 0.009459204 93
0.29479006 1.2495761 0.02847076 100
0.29168195 1.2554168 0.067515619 51
0.29544601 1.2483436 0.10532656 82
0.29134974 1.256041 0.14752686 79
0.29903919 1.2457883 0.0093893949 77
0.2928223 1.2575746 0.028889447 100
0.29623795 1.251099 0.047587037 90
0.29346284 1.2563603 0.067515619 68
0.29720092 1.2492733 0.10532656 75
0.28691095 1.2687818 -0.0098431576 87
0.28772518 1.267238 0.15063268 70
0.29699448 1.2537493 0.0095290141 76
0.28406823 1.2784644 0.050201707 56
0.29884207 1.2502166 0.066540658 52
0.28494659 1.2767849 -0.0099827768 86
0.28588119 1.2749979 0.15270324 68
0.29399565 1.2634609 0.0097035384 90
0.29401344 1.2634265 0.048632905 88
0.29860762 1.254571 0.067028143 51
0.2866286 1.2776611 -0.0099827768 96
0.29645365 1.2587229 0.14752686 79
0.29571968 1.2643514 0.0097035384 90
0.29968375 1.2566448 0.028680105 100
0.29482606 1.2660887 0.048807215 58
0.29666862 1.2625066 0.068003096 51
0.28840229 1.2785773 -0.0099827768 100
0.29816115 1.2596049 0.14752686 79
0.2974875 1.2651563 0.068246834 68
0.2910876 1.277706 -0.0099478718 100
0.29987174 1.260481 0.14752686 79
0.29920021 1.2839881 -0.0099827768 100
