# .PCD v0.7 - Point Cloud Data file format
VERSION 0.7
FIELDS x y z intensity
SIZE 4 4 4 4
TYPE F F F F
COUNT 1 1 1 1
WIDTH 729
HEIGHT 1
VIEWPOINT 0 0 0 1 0 0 0
POINTS 729
DATA ascii
-1.0902556 0.14973417 0.057674225 26
-1.1722124 0.16536964 0.020663649 25
-1.1023594 0.15944165 0.019441981 6
-1.0325631 0.15302813 0.018220313 6
-1.0162061 0.15423103 0.017941074 3
-1.0453298 0.16219926 0.018464645 1
0.054015994 0.0024445057 0.015951499 128
0.049546778 0.0066819787 0.047835063 28
0.047853649 0.010187626 0.047730394 100
0.041883469 0.006957829 0.04804441 90
0.042693436 0.013623178 0.047730394 66
0.029991627 0.00050514936 0.048672438 33
0.035177231 0.013881445 0.047939736 18
0.034800649 0.018977046 0.047730394 19
0.033448279 0.022332907 0.047625721 9
0.014867485 0.00119102 0.049091127 7
0.0093797445 0.0050399899 0.049091127 7
-1.0494936 1.1310482 0.14345835 4
-1.0444026 1.1354598 0.028552137 6
-0.99963111 1.1251975 0.083318844 5
-1.0230412 1.1305635 0.1411923 8
-1.0197463 1.1355802 0.028133279 10
-0.99838179 1.1306046 0.083318844 35
-1.0275943 1.137408 0.14171524 40
-1.0029569 1.1371034 0.02785404 32
-0.99134642 1.1343589 0.083004825 91
-1.0147336 1.1398873 0.14066938 86
-0.98410171 1.1385884 0.027539898 37
-1.0016525 1.1428052 0.083632857 100
-1.0036812 1.1432927 0.13979781 84
-0.97509974 1.1417792 0.027400278 42
-0.99846739 1.1474756 0.083528183 100
-0.99662763 1.1470271 0.13927488 89
-0.97760898 1.1483279 0.027470088 23
-0.97187048 1.1469067 0.082167454 100
-1.0029712 1.1546092 0.13997212 87
-0.9782185 1.1541455 0.027504992 23
-0.97441953 1.1531906 0.082376793 48
-1.0035515 1.1605134 0.14014643 76
-0.97493058 1.1589833 0.027470088 38
-0.97307271 1.1585095 0.082376793 34
-0.9905954 1.1629792 0.13910057 84
-0.96001214 1.1607969 0.027225753 61
-0.98910922 1.1683273 0.083318844 69
-0.9814989 1.1663578 0.13840333 91
-0.95090216 1.1640342 0.027086135 68
-0.9819141 1.1721759 0.083004825 95
-0.97432476 1.1701834 0.13788038 94
-0.95338231 1.1703 0.027155945 81
-0.95734066 1.1713541 0.081748761 90
-0.96714264 1.173964 0.13735744 100
-0.95583695 1.1765879 0.027225753 92
-0.94628948 1.17401 0.081225403 100
-0.96957034 1.1802961 0.13770607 100
-0.95440859 1.1818419 0.027225753 92
-0.94679648 1.179758 0.081330076 100
-0.96620721 1.1850718 0.13753176 98
-0.94140047 1.1838822 0.027016325 93
-0.95113069 1.1865826 0.081644088 98
-0.95514995 1.1876979 0.1366602 92
-0.93609673 1.1880028 0.026946515 92
-0.94774467 1.1912792 0.081539422 86
-0.95368272 1.1929493 0.1366602 99
-0.94424409 1.1959286 0.027121039 70
-0.92897826 1.1915771 0.080597371 70
-0.95219725 1.1981956 0.1366602 100
-0.96388108 1.2072456 0.027504992 50
-0.92557889 1.196183 0.080492698 36
-0.96026415 1.2062008 0.13753176 98
-0.94514889 1.2072121 0.027190849 49
-0.92032355 1.1999526 0.080283359 22
-0.94351083 1.2067331 0.13613728 84
-0.92444009 1.2067491 0.026841801 71
-0.92838877 1.2079186 0.080806717 26
-0.93815666 1.2108121 0.13578865 87
-0.91141444 1.2084453 0.026632372 74
-0.92685121 1.2130766 0.080806717 30
-0.93279213 1.214859 0.13544002 98
-0.91561514 1.2152879 0.026737086 78
-0.91382951 1.2147454 0.080178685 88
-0.93123025 1.2200321 0.13544002 100
-0.91405183 1.2204012 0.026737086 81
-0.90845019 1.2186779 0.079969339 98
-0.93155462 1.2257857 0.13561434 99
-0.92392617 1.2290769 0.026946515 85
-0.90687519 1.2237661 0.079969339 82
-0.92044336 1.2279921 0.13474278 71
-0.90324324 1.2282058 0.026597468 83
-0.90909201 1.2300498 0.080178685 66
-0.90743464 1.2295274 0.13369691 47
-0.89020473 1.229628 0.026388038 83
-0.9074772 1.2351403 0.080178685 72
-0.90012747 1.2327948 0.13317397 46
-0.89620322 1.2371109 0.026527658 83
-0.89444119 1.2365417 0.079550654 95
-0.91177481 1.2421404 0.13439415 45
-0.89076239 1.2409137 0.026457848 99
-0.88900703 1.24034 0.079341307 100
-0.91769308 1.249716 0.13509139 63
-0.88910979 1.2459401 0.026457848 100
-0.88925272 1.2459873 0.07944598 100
-0.91033465 1.2529595 0.13456847 80
-0.87985426 1.2484225 0.02631823 99
-0.89137048 1.2522758 0.079655327 100
-0.88596684 1.2504678 0.13247673 90
-0.87834424 1.2529122 0.02631823 93
-0.89363235 1.258081 0.079864666 100
-0.8863377 1.2556148 0.13265105 84
-0.87286562 1.256601 0.02624842 89
-0.8730219 1.2566544 0.078817949 100
-0.89971536 1.2657832 0.13404553 91
-0.874852 1.2631208 0.02631823 89
-0.86745375 1.2605603 0.07860861 100
-0.8941229 1.2697902 0.13369691 87
-0.88067168 1.2707338 0.026457848 79
-0.86384767 1.2648454 0.078503937 89
-0.89801115 1.2768025 0.13421984 56
-0.85997683 1.269299 0.0261088 78
-0.86202449 1.2700241 0.078503937 53
-0.89614385 1.2821064 0.13421984 38
-0.85634273 1.2735436 0.026073895 90
-0.86967224 1.2783163 0.079027295 19
-0.88309282 1.2831215 0.13317397 43
-0.85278481 1.2775241 0.026038991 99
-0.8604663 1.2803032 0.07860861 48
-0.87950987 1.2871931 0.13299966 24
-0.85476071 1.2837914 0.0261088 100
-0.85117346 1.2824794 0.078189917 89
-0.88330919 1.2942331 0.1335226 15
-0.84545618 1.285918 0.025969181 100
-0.85312277 1.2887524 0.078399263 100
-0.86278301 1.2923241 0.13177948 5
-0.84364682 1.290786 0.025969181 100
-0.84756154 1.2922488 0.078189917 72
-0.87214917 1.3014369 0.13282534 1
-0.82685465 1.2899954 0.025689943 100
-0.84199315 1.2957127 0.077980578 48
-0.84232706 1.2958388 0.13021068 3
-0.82689935 1.2955115 0.025724847 72
-0.83828372 1.2998564 0.077875905 53
-0.83676022 1.2992749 0.12986206 15
-0.83634442 1.30439 0.025934275 72
-0.83092815 1.3023021 0.077561885 68
-0.85916513 1.3131865 0.1321281 52
-0.83819729 1.3106773 0.026004085 75
-0.8234784 1.3049446 0.077247873 68
-0.85354739 1.3166559 0.13177948 100
-0.82337016 1.3101544 0.025759751 96
-0.82169694 1.3094963 0.077247873 59
-0.82947725 1.3125563 0.12968774 97
-0.81404287 1.3119915 0.025620133 100
-0.82908589 1.3179686 0.077771232 82
-0.83127815 1.3188398 0.13003637 97
-0.81956571 1.3197291 0.025759751 100
-0.81789714 1.3190594 0.077247873 91
-0.83859891 1.3273687 0.13090792 100
-0.81763846 1.3245064 0.025759751 100
-0.81412131 1.3230803 0.0771432 97
-0.83664495 1.3322124 0.13090792 100
-0.77637726 1.3077772 0.17573559 15
-0.8193956 1.3307927 0.025829561 100
-0.81403071 1.3285956 0.077247873 100
-0.81808001 1.3302538 0.12933913 100
-0.78735119 1.3176699 0.17744176 18
-0.81003827 1.3325121 0.025689943 100
-0.80653566 1.3310635 0.076933853 100
-0.81243378 1.333503 0.1289905 100
-0.80010635 1.3284043 0.17939167 17
-0.79320687 1.3313248 0.025410704 100
-0.80631298 1.3368018 0.077038527 100
-0.81403595 1.3400292 0.12933913 100
-0.77607161 1.3241639 0.17646681 18
-0.79492408 1.3375649 0.025480513 100
-0.78776509 1.3345439 0.076096483 99
-0.81387347 1.3455617 0.12951343 100
-0.77230018 1.3280176 0.17622307 20
-0.79661399 1.343824 0.025550323 85
-0.77843672 1.3360783 0.07567779 65
-0.80819029 1.348757 0.12916481 95
-0.77034432 1.3326299 0.17622307 20
-0.83134049 1.3643277 0.02624842 59
-0.82048434 1.3596568 0.078189917 53
-0.81348246 1.3566442 0.12986206 26
-0.80666524 1.353711 0.18134159 8
-0.80745381 1.3591112 0.025829561 94
-0.80763215 1.3591886 0.077561885 97
-0.82077116 1.3648907 0.13073361 67
-0.78297275 1.3484869 0.17841671 10
-0.79623109 1.3598335 0.025655037 100
-0.81288463 1.36713 0.077980578 100
-0.82051116 1.3704715 0.13090792 100
-0.7900365 1.3571194 0.17963541 38
-0.79223162 1.3639545 0.025620133 100
-0.80703408 1.3705049 0.077771232 100
-0.81465727 1.3738782 0.1305593 100
-0.76790732 1.3531907 0.17695428 39
-0.79927915 1.372714 0.025794657 100
-0.79763526 1.3719797 0.077352546 100
-0.81254095 1.378638 0.1305593 100
-0.7604261 1.3553586 0.17622307 22
-0.80445892 1.3807081 0.025934275 100
-0.80827099 1.3824269 0.078085244 100
-0.80677551 1.3817526 0.13021068 100
-0.78370994 1.3713527 0.17963541 19
-0.78957838 1.3796341 0.025689943 100
-0.80976063 1.388819 0.07829459 100
-0.7937513 1.3815331 0.12916481 100
-0.77618235 1.3735377 0.17890419 15
-0.79107648 1.3859757 0.025759751 100
-0.81485206 1.3968961 0.078713275 100
-0.8060928 1.3928729 0.1305593 100
-0.75061673 1.3673919 0.17573559 13
-0.79436094 1.3931762 0.025864467 100
-0.80540735 1.3982967 0.07829459 100
-0.80752546 1.3992786 0.13090792 100
-0.76293153 1.3786072 0.1776855 13
-0.79953283 1.4010189 0.026004085 100
-0.80331641 1.4027879 0.07829459 100
-0.81265062 1.4071524 0.13160518 100
-0.76630074 1.3854802 0.17841671 7
-0.8009389 1.4074324 0.026073895 100
-0.80109936 1.4075081 0.07829459 100
-0.80681449 1.4102048 0.13125655 100
-0.77491599 1.3951536 0.17987914 3
-0.78787273 1.4069865 0.025864467 100
-0.80788225 1.4165133 0.078817949 100
-0.79377812 1.4097981 0.13021068 100
-0.78564101 1.4116526 0.025864467 100
-0.80921775 1.4229791 0.079027295 100
-0.80590373 1.421387 0.13160518 100
-0.78879148 1.4189276 0.025969181 100
-0.79794389 1.4233639 0.078503937 100
-0.80720752 1.4278541 0.13195379 100
-0.79729646 1.4288678 0.02617861 100
-0.79744917 1.4289424 0.07860861 100
-0.8120622 1.4360887 0.13265105 100
-0.79510421 1.433332 0.02617861 100
-0.79346544 1.4325237 0.078503937 100
-0.80269819 1.4370769 0.13195379 100
-0.79278058 1.4380232 0.02617861 100
-0.80187374 1.4425471 0.079131968 100
-0.80036145 1.4417946 0.13195379 100
-0.79032308 1.4429402 0.02617861 100
-0.8101092 1.4528743 0.07976 100
-0.81391519 1.4547852 0.1335226 100
-0.7951017 1.4512287 0.02631823 100
-0.80237192 1.4549108 0.07944598 100
-0.80440682 1.4559413 0.13282534 100
-0.79627723 1.4577394 0.026388038 100
-0.79641563 1.4578099 0.079236634 100
-0.81442422 1.4670095 0.13404553 100
-0.79386836 1.4624345 0.026388038 100
-0.79578191 1.4634204 0.079341307 100
-0.80312735 1.4672052 0.13317397 100
-0.79156476 1.466887 0.026388038 100
-0.80233699 1.4724828 0.079864666 100
-0.804344 1.4735253 0.1335226 100
-0.78912395 1.4715657 0.026388038 99
-0.803415 1.4790528 0.080074012 100
-0.80540973 1.4800978 0.13387123 100
-0.79020303 1.4781042 0.026457848 85
-0.78503841 1.4753754 0.079131968 100
-0.80820757 1.487617 0.13439415 98
-0.80745274 1.4932907 0.13456847 38
0.12106061 1.3017803 0.13280307 5
0.16374308 1.2522999 0.010785587 13
0.14923167 1.2704196 0.033599682 28
0.15145427 1.2676444 0.055779677 24
0.16226631 1.254144 0.098240845 12
0.15237331 1.2664968 0.12364423 24
0.20038521 1.2065467 0.1291219 8
0.15269536 1.2660947 0.17030293 7
0.16169527 1.2583408 0.010890301 91
0.17335582 1.2436763 0.031715591 61
0.15195379 1.270592 0.055953987 48
0.16205996 1.2578822 0.076533951 14
0.1651881 1.2539482 0.097927973 24
0.15899637 1.2617351 0.12211776 93
0.18250555 1.2321694 0.13632034 22
0.14721543 1.276551 0.17340876 21
0.16216317 1.2612629 0.010925206 100
0.16511086 1.2575291 0.032552965 100
0.15246904 1.2735422 0.056128297 100
0.17360574 1.2467688 0.074584037 30
0.17789596 1.2413346 0.095112152 38
0.15949872 1.2646378 0.12249938 100
0.19015867 1.2258017 0.13407083 46
0.14898607 1.2779539 0.17340876 42
0.16141313 1.2657614 0.010995016 100
0.17667183 1.2462943 0.031715591 100
0.14931273 1.2811991 0.056825545 100
0.15812784 1.2699528 0.077996381 28
0.1819807 1.2395211 0.094486415 39
0.16607222 1.2598174 0.1209729 100
0.19295406 1.2255213 0.13362093 31
0.1507616 1.2793506 0.17340876 42
0.16437414 1.2655367 0.010960111 100
0.18569636 1.2381371 0.031087559 94
0.15354684 1.2794499 0.056476921 96
0.17694336 1.2493849 0.074584037 15
0.17391652 1.2532744 0.096989371 25
0.17622441 1.2503088 0.11830158 100
0.18975905 1.2329166 0.13542053 30
0.14898267 1.2853149 0.17496167 28
0.17213386 1.2589016 0.010785587 78
0.17381561 1.2567258 0.032238949 60
0.16011202 1.274456 0.055779677 49
0.18096298 1.2474781 0.07409656 30
0.17310518 1.2576449 0.097615108 24
0.18652928 1.2402761 0.13722014 22
0.14478683 1.2942846 0.17754987 47
0.18114677 1.2506989 0.010576159 67
0.17430103 1.2596204 0.032343622 30
0.17521706 1.2584267 0.053862248 51
0.18625727 1.2440387 0.073365346 62
0.19164515 1.2370172 0.093234941 39
0.1902588 1.2388239 0.11486702 13
0.19647729 1.2307198 0.13407083 31
0.1560277 1.2834346 0.17340876 57
0.18031871 1.2551004 0.010645968 53
0.1638208 1.2767491 0.033390339 28
0.16476238 1.2755136 0.055605363 49
0.18662801 1.2468212 0.073609084 62
0.18481448 1.2492009 0.095425025 51
0.1953854 1.2353296 0.11372216 13
0.20863771 1.2179399 0.13002171 48
0.16827101 1.2709095 0.16875002 66
0.18209919 1.2564521 0.010645968 40
0.18254742 1.2558594 0.031924933 30
0.17262691 1.2689767 0.054733805 50
0.19077295 1.2449833 0.073121607 78
0.19610581 1.237932 0.092922069 53
0.19709331 1.2366263 0.11372216 13
0.20675528 1.2238508 0.13137141 47
0.17477071 1.266142 0.16667947 67
0.17410684 1.2704607 0.010925206 39
0.16257009 1.2858207 0.033809029 28
0.17787328 1.2654462 0.054210871 51
0.19235003 1.246172 0.073121607 78
0.19528681 1.2422619 0.093547814 52
0.19156832 1.2472126 0.11601187 13
0.21411389 1.2171957 0.1291219 40
0.17989862 1.2627497 0.16512655 68
0.19028446 1.2525954 0.010506349 54
0.18117383 1.2648183 0.032343622 30
0.18564519 1.2588195 0.053339314 52
0.19291136 1.2490711 0.073365346 93
0.20174226 1.2372236 0.092296332 53
0.20153284 1.2375046 0.11334054 13
0.2087675 1.2277985 0.13182132 31
0.18978879 1.2532604 0.16150309 70
0.18831757 1.2586074 0.010611063 81
0.20064116 1.2419591 0.030773543 64
0.18252659 1.2664306 0.054036561 77
0.19568303 1.2486572 0.073121607 78
0.20329353 1.2383759 0.092296332 66
0.19841278 1.2449695 0.11486702 13
0.21144691 1.2273612 0.13137141 31
0.1867958 1.2606632 0.16357364 69
0.19011083 1.2599298 0.010611063 94
0.20828533 1.2351881 0.030250182 65
0.18198952 1.2709856 0.054385185 76
0.20449099 1.2403536 0.071659178 80
0.19916531 1.2476035 0.093860678 91
0.21177873 1.2304325 0.11105084 14
0.22350863 1.2144642 0.1273223 24
0.17944717 1.2744465 0.16771474 67
0.19173747 1.2611206 0.010611063 94
0.20865279 1.2379323 0.030354854 65
0.17660776 1.2818608 0.055431053 99
0.20371285 1.2447041 0.072146654 79
0.20540768 1.2423809 0.092609204 100
0.21330744 1.2315515 0.11105084 14
0.24221128 1.191929 0.12057377 17
0.1902301 1.2631868 0.16357364 69
0.18650451 1.2721493 0.010820492 78
0.21388355 1.2343266 0.03004084 99
0.19133741 1.2654729 0.053513627 100
0.20079905 1.2524022 0.073121607 78
0.21872443 1.2276392 0.089480512 100
0.21039659 1.2391437 0.1125773 13
0.24718785 1.1883185 0.11922406 17
0.19317293 1.2629373 0.163056 70
0.19984359 1.2571148 0.010471444 96
0.21076208 1.2419257 0.030459527 65
0.1953083 1.263424 0.053165004 100
0.20240065 1.2535576 0.073121607 78
0.22024381 1.2287353 0.089480512 97
0.21653786 1.2338908 0.11105084 14
0.22810268 1.2178025 0.1273223 8
0.20157507 1.2547061 0.15995017 72
0.20395377 1.2551389 0.010401634 97
0.20553517 1.2529218 0.031087559 94
0.19480518 1.2679647 0.053513627 100
0.20878631 1.248364 0.072146654 95
0.21619186 1.2379818 0.091044858 100
0.21254 1.2431015 0.11295892 20
0.22748286 1.2221524 0.12822211 16
0.19886661 1.2622709 0.16202073 70
0.20787609 1.2530202 0.010331824 98
0.22099149 1.2345035 0.029831495 66
0.19415525 1.2723916 0.053862248 100
0.20807973 1.2527326 0.072634131 63
0.20404437 1.2584299 0.094799288 100
0.20957166 1.2506263 0.1144854 27
0.23011038 1.2216291 0.1277722 24
0.19603452 1.2697384 0.16409127 69
0.20717892 1.2574233 0.010401634 83
0.22023565 1.2388592 0.03004084 66
0.19582319 1.2735689 0.053862248 100
0.21653444 1.2441216 0.071171694 81
0.21589369 1.2450327 0.091983467 100
0.19874349 1.2694168 0.1186832 78
0.2327309 1.2210934 0.1273223 40
0.20213917 1.2645888 0.16202073 70
0.20421726 1.2651153 0.010541254 95
0.2240794 1.2366753 0.029831495 66
0.2020582 1.2682067 0.053165004 100
0.2158353 1.2484797 0.071659178 64
0.22312605 1.2380403 0.090419121 100
0.20152566 1.2689693 0.11830158 100
0.22307053 1.2381198 0.13182132 86
0.20820573 1.2594043 0.15995017 72
0.21523029 1.2532886 0.010262015 98
0.21904999 1.2477744 0.030459527 65
0.20624277 1.2662634 0.05281638 100
0.20976248 1.2611822 0.073365346 46
0.22267595 1.2425396 0.091044858 100
0.2224488 1.2428677 0.11181407 98
0.2270897 1.2361679 0.13092151 96
0.21448758 1.2543608 0.15787962 73
0.21683475 1.2543961 0.010262015 98
0.22063619 1.2488692 0.030459527 97
0.20111588 1.2772501 0.053862248 100
0.21701789 1.2541299 0.072146654 63
0.22648361 1.2403674 0.090419121 100
0.22624382 1.2407161 0.11105084 98
0.22311565 1.2452642 0.13317102 93
0.20843223 1.2666128 0.16150309 70
0.2186124 1.2556139 0.010262015 84
0.2291483 1.2401748 0.029831495 66
0.20185435 1.2801712 0.054036561 100
0.22886497 1.2405899 0.069953002 49
0.22598284 1.2448133 0.091044858 100
0.22575799 1.2451428 0.11181407 98
0.23035198 1.2384108 0.13092151 96
0.21352148 1.2630742 0.15995017 72
0.21461615 1.2649876 0.010436539 55
0.22398731 1.2511568 0.030459527 32
0.20801839 1.2747252 0.053339314 78
0.23154077 1.2400088 0.069709264 83
0.22866723 1.2442498 0.090731993 100
0.22403169 1.2510914 0.11295892 100
0.23627949 1.2330151 0.1291219 96
0.20974028 1.2721839 0.16253836 70
0.21411422 1.269474 0.010506349 40
0.22343978 1.2556067 0.03066887 32
0.2197887 1.2610359 0.051770512 54
0.21989033 1.2608848 0.072634131 94
0.23804092 1.2338942 0.08854191 100
0.22461742 1.2538555 0.11334054 96
0.23681015 1.2357244 0.12957181 88
0.21472943 1.2685592 0.16098544 72
0.22021395 1.2639328 0.010366729 41
0.21839768 1.2666532 0.031296901 31
0.22141883 1.2621282 0.051770512 54
0.22262228 1.2603258 0.072390392 95
0.23629031 1.2398547 0.089480512 97
0.23385483 1.2435024 0.11066922 85
0.23510998 1.2416226 0.13092151 100
0.22496632 1.2568151 0.15684435 74
0.2219401 1.265081 0.010366729 41
0.20910099 1.2844567 0.032343622 30
0.22093761 1.2665939 0.052119136 54
0.22652885 1.2581561 0.071902916 96
0.23793232 1.2409469 0.089480512 97
0.23984739 1.2380569 0.10914274 92
0.23460531 1.2459677 0.13182132 100
0.22239918 1.2643882 0.15891489 73
0.23017794 1.2561426 0.0101573 28
0.21080887 1.2855844 0.032343622 30
0.23025137 1.2560309 0.050898954 55
0.23142245 1.2542509 0.071171694 81
0.23841006 1.2436295 0.089793384 97
0.2403222 1.2407229 0.10952436 85
0.24154061 1.2388709 0.12957181 96
0.21979338 1.2719276 0.16098544 72
0.22339335 1.2708225 0.010436539 27
0.21942729 1.2769041 0.031715591 30
0.21914494 1.2773371 0.05299069 52
0.23770633 1.2488748 0.07019674 82
0.24247193 1.2415671 0.089167647 100
0.24006945 1.2452512 0.1102876 85
0.24661875 1.2352084 0.12822211 97
0.22075564 1.2748672 0.16150309 70
0.23157656 1.2618312 0.01022711 42
0.24064806 1.2478194 0.029831495 33
0.23165715 1.2617067 0.051247578 55
0.23929608 1.2499077 0.07019674 82
0.25262582 1.2293189 0.086664692 86
0.24058017 1.2479243 0.11066922 85
0.24922216 1.2345761 0.1277722 97
0.22768116 1.267848 0.15891489 73
0.24185887 1.2494268 0.0099478718 58
0.2411544 1.2505229 0.029936166 66
0.23436669 1.2610836 0.051073264 55
0.23230278 1.2642947 0.072146654 79
0.24774233 1.2402729 0.08854191 84
0.24853569 1.2390385 0.10837951 87
0.2507644 1.2355709 0.1277722 97
0.23246738 1.2640387 0.15736198 74
0.24560162 1.2470745 0.0098780617 73
0.23952666 1.2565955 0.030250182 98
0.23814029 1.2587683 0.05072464 56
0.245689 1.2469375 0.069465525 66
0.24717841 1.2446032 0.089167647 84
0.25114876 1.2383806 0.10799789 72
0.25545457 1.2316322 0.12642249 82
0.23514655 1.2634604 0.15684435 74
0.23772737 1.2633942 0.010192205 85
0.24985722 1.2442291 0.029412808 67
0.22608206 1.2817941 0.05299069 79
0.24425426 1.2530817 0.07019674 82
0.24891993 1.2457099 0.089167647 70
0.24236807 1.2560619 0.11181407 98
0.25402197 1.2376486 0.1277722 89
0.22869211 1.2776701 0.16098544 72
0.24362051 1.2576542 0.010052586 86
0.25674406 1.2367659 0.028889447 100
0.23202074 1.2761171 0.052293446 80
0.24902606 1.2490504 0.069465525 49
0.25260088 1.2433604 0.08854191 70
0.25442591 1.2404555 0.10799789 79
0.26386806 1.2254268 0.12417299 100
0.23037738 1.2787328 0.16098544 64
0.24655256 1.2571297 0.010017681 72
0.25431439 1.2446694 0.029308135 100
0.23501986 1.2756432 0.052119136 81
0.24666935 1.2569422 0.070440479 65
0.26486513 1.2277321 0.085413218 58
0.24585411 1.2582508 0.11181407 84
0.26046705 1.2347925 0.12642249 99
0.23846176 1.2701179 0.15787962 65
0.24501458 1.2632357 0.010122396 85
0.24748695 1.2592373 0.030145511 98
0.25555933 1.2461822 0.048981529 87
0.24828577 1.2579453 0.070440479 49
0.2601513 1.2387559 0.087290429 71
0.25883248 1.2408887 0.10761628 79
0.26303482 1.2340925 0.12597258 82
0.24418589 1.2645758 0.15580906 67
0.25309703 1.2541223 0.0099129668 87
0.25450292 1.2518299 0.029622151 100
0.24480724 1.2676393 0.051073264 100
0.25215182 1.2556634 0.069953002 49
0.26187131 1.2398151 0.087290429 57
0.25542843 1.2503207 0.10952436 85
0.25964376 1.2434473 0.12822211 97
0.24802059 1.2623997 0.15477379 67
0.24846542 1.2653528 0.010122396 85
0.26129487 1.2442769 0.029098792 100
0.24231526 1.2754562 0.051770512 81
0.2578927 1.249866 0.068978049 50
0.26137659 1.2441427 0.087916173 56
0.2590645 1.2479409 0.10876112 72
0.27134815 1.2277616 0.12372308 92
0.24161911 1.2765996 0.15891489 65
0.25941667 1.250946 0.0098082526 74
0.27113199 1.2315559 0.028261416 100
0.24296278 1.2781789 0.051944822 81
0.25948557 1.250832 0.068978049 50
0.26499355 1.2417157 0.087290429 57
0.25658998 1.2556245 0.1102876 85
0.27387545 1.2270153 0.12327318 85
0.24130273 1.2809265 0.15995017 64
0.25587103 1.2604818 0.0099827768 100
0.2623924 1.249607 0.029308135 100
0.25079763 1.2689421 0.050898954 83
0.26312351 1.2483878 0.068490572 50
0.27265489 1.2324935 0.085413218 58
0.25214389 1.2666972 0.1125773 96
0.27238584 1.2329422 0.12462288 92
0.2599847 1.2536219 -0.0098431576 87
0.25094697 1.2686931 0.15580906 67
0.2577565 1.2616076 0.0099827768 87
0.2621949 1.2541414 0.029517479 100
0.25984231 1.2580988 0.049678773 86
0.25887629 1.2597239 0.069953002 49
0.27746099 1.228461 0.084474608 59
0.26809818 1.244211 0.10723466 73
0.27914441 1.2256292 0.12237337 93
0.26273564 1.2532318 0.15063268 70
0.26548508 1.2522403 0.0097733475 89
0.25771263 1.2654142 0.030145511 98
0.25842527 1.2642064 0.050201707 85
0.26251927 1.2572672 0.069465525 49
0.27095267 1.242973 0.086977564 57
0.26468423 1.2535977 0.10914274 78
0.27669588 1.2332385 0.12417299 75
0.25648648 1.2674925 0.15477379 67
0.26733884 1.2533293 0.0097733475 89
0.27373287 1.2423959 0.028680105 100
0.25831339 1.268762 0.05055033 84
0.27441368 1.2412318 0.067028143 51
0.27077633 1.2474513 0.087603301 57
0.26852542 1.2513002 0.10837951 79
0.2784766 1.2342845 0.12417299 92
0.25254732 1.2786216 0.15787962 65
0.26492807 1.261182 0.0099129668 87
0.27730602 1.2398546 0.02847076 100
0.25196812 1.2835121 0.051944822 81
0.26700985 1.2575951 0.069221787 83
0.27335274 1.2466662 0.087290429 57
0.26815206 1.2556269 0.10914274 78
0.28784329 1.2216988 0.12057377 86
0.25617504 1.2762635 0.15684435 66
0.26764208 1.2604411 0.0098780617 73
0.27695474 1.2442654 0.028680105 100
0.26966777 1.2569225 0.049155839 87
0.27366585 1.2499781 0.068003096 51
0.28783107 1.2253739 0.083223134 60
0.26593074 1.2634135 0.11066922 92
0.28456008 1.2310554 0.12282328 93
0.26565507 1.2638924 0.15270324 68
0.26827803 1.263111 0.0099129668 87
0.27456588 1.252105 0.029098792 100
0.27326074 1.2543895 0.048807215 88
0.27328956 1.2543391 0.068490572 50
0.28248316 1.238247 0.085413218 58
0.27633363 1.2490109 0.10723466 81
0.29092395 1.2234728 0.12057377 77
0.27112776 1.2581229 0.15063268 70
0.2740297 1.2571805 0.0097733475 89
0.2723971 1.2600626 0.029517479 100
0.27405596 1.2571342 0.048981529 87
0.27506658 1.25535 0.068490572 50
0.28225392 1.242662 0.086038955 58
0.27712348 1.2517189 0.10761628 79
0.28970626 1.229506 0.12192347 76
0.26530132 1.272589 0.15477379 67
0.27564675 1.258093 0.0097733475 89
0.27793831 1.2540162 0.029098792 100
0.27274412 1.263257 0.049504463 100
0.27278689 1.263181 0.069465525 49
0.28188697 1.2469912 0.086664692 71
0.27968439 1.2509098 0.10723466 81
0.29123148 1.2303667 0.12192347 76
0.26507637 1.2768984 0.15580906 67
0.27549067 1.2625887 0.0098431576 88
0.28554764 1.2445422 0.02847076 100
0.26485503 1.2816737 0.051247578 82
0.28136063 1.2520555 0.067759357 68
0.29132983 1.2341665 0.084161744 59
0.27858174 1.2570421 0.10837951 79
0.29956096 1.2193962 0.11877415 87
0.27159694 1.2695758 -0.0099827768 86
0.26693615 1.2779393 0.15580906 67
0.28002858 1.2582464 0.0097384425 75
0.28518981 1.2489123 0.028680105 100
0.28294316 1.2529755 0.048284281 88
0.27527609 1.2668414 0.069709264 66
0.29191461 1.2367504 0.084474608 59
0.2763983 1.2648119 0.10990598 78
0.29445174 1.232162 0.12192347 85
0.27906096 1.2599964 -0.0097733475 88
0.27423096 1.2687315 0.15270324 68
0.2856648 1.2522185 0.0095988233 76
0.28118661 1.260388 0.029308135 100
0.28184202 1.2591923 0.048807215 88
0.28759515 1.248697 0.067028143 51
0.29647565 1.2324966 0.083536007 60
0.28481963 1.2537603 0.10723466 81
0.29614735 1.2330955 0.12192347 85
0.27893627 1.2644932 -0.0098431576 87
0.28163239 1.2595748 0.14959741 70
0.29490852 1.2390389 0.0093195848 78
0.2866312 1.2542584 0.028889447 100
0.2825138 1.2618291 0.048981529 87
0.28349346 1.2600279 0.068490572 50
0.29423562 1.2402761 0.084787481 59
0.29205322 1.2442889 0.10494494 82
0.28057754 1.2653894 -0.0098431576 87
0.28141138 1.2638562 0.15063268 70
0.29093564 1.2505318 0.0095290141 92
0.28840786 1.2552205 0.028889447 100
0.28053629 1.2698213 0.049678773 86
0.28340724 1.2644961 0.068978049 50
0.29689839 1.2394717 0.084474608 59
0.29192999 1.2486874 0.10570818 81
0.27859923 1.2734144 -0.0099827768 86
0.27955624 1.2716391 0.15270324 68
0.28978616 1.2567236 0.0096337283 90
0.29669479 1.2438012 0.028156744 100
0.27758583 1.2795441 0.05055033 84
0.29168642 1.2531693 0.067271881 69
0.29853871 1.2403523 0.084474608 59
0.29175127 1.2530481 0.10647142 81
0.28224373 1.2708316 -0.0099129668 87
0.2803981 1.2742839 0.15322088 76
0.29055008 1.2593958 0.0096686333 75
0.29460821 1.2517411 0.028575432 100
0.29056478 1.2593681 0.048458595 88
0.29058516 1.2593297 0.068003096 51
0.29435855 1.2522119 0.1060898 81
0.2839936 1.2717632 -0.0099129668 87
0.28849408 1.263274 0.14959741 70
0.29970375 1.2461382 0.0093893949 93
0.29629135 1.2526296 0.028575432 100
0.29042044 1.2637978 0.048807215 58
0.29783687 1.2496896 0.066540658 52
0.29878387 1.2478881 0.10494494 75
0.28388575 1.2762287 -0.0099827768 86
0.29381314 1.2573439 0.14752686 71
0.29942897 1.2505231 0.066540658 52
0.28556594 1.2771084 -0.0099827768 86
0.29364419 1.2616167 0.14856213 71
0.29652169 1.2602651 0.0096337283 90
0.2956177 1.2620137 0.048458595 59
0.29536179 1.2625085 0.14856213 71
0.29649654 1.2647502 0.0097035384 90
0.28924575 1.2789012 0.050027397 57
0.29011336 1.277208 -0.0099478718 100
0.29012108 1.2771928 0.15270324 68
0.29641375 1.2691978 0.0097733475 100
0.2927911 1.2763293 -0.0099129668 100
0.29976755 1.2625957 0.1480445 79
0.29987004 1.2664644 0.0097035384 100
0.2954444 1.2752484 0.069465525 66
0.2935718 1.2789652 -0.0099478718 100
