# .PCD v0.7 - Point Cloud Data file format
VERSION 0.7
FIELDS x y z intensity
SIZE 4 4 4 4
TYPE F F F F
COUNT 1 1 1 1
WIDTH 726
HEIGHT 1
VIEWPOINT 0 0 0 1 0 0 0
POINTS 726
DATA ascii
-1.1644064 0.16343941 0.020524031 4
-1.1412312 0.16018647 0.060395695 31
-1.1282014 0.16237532 0.019895744 5
-1.0326697 0.15230723 0.018220313 6
-1.012359 0.15292418 0.017871264 5
-1.0177476 0.15737379 0.017975979 1
0.059734851 0.013034821 0.015742071 80
0.055989236 0.0072515607 0.047625721 51
0.053329736 0.0089806318 0.047625721 36
0.04422611 0.00061821938 0.048253752 23
0.033967972 0.0026420355 0.048463095 42
0.045856655 0.025942981 0.047102362 30
0.036637306 0.017720461 0.047730394 19
0.025960624 0.0080878735 0.048463095 8
0.025711477 0.013113499 0.048253752 8
0.029800653 0.024866164 0.047625721 9
0.02044028 0.016792119 0.048253752 8
-1.0040205 1.1239206 0.083528183 5
-1.0429695 1.132791 0.14293543 4
-1.0398016 1.1376191 0.028482327 8
-0.99505454 1.127272 0.083109498 11
-1.0165226 1.1322362 0.14066938 19
-0.99172455 1.13246 0.027644612 15
-1.0092888 1.1365893 0.083946876 78
-1.0113053 1.1370635 0.14032075 65
-0.99622053 1.1395025 0.027749326 42
-1.0079346 1.1423019 0.083946876 100
-1.0215764 1.1455619 0.14136662 100
-0.9793101 1.141392 0.027470088 37
-0.98132855 1.1418822 0.082586139 100
-1.0085728 1.1484984 0.14032075 87
-0.99179405 1.1492716 0.027714422 30
-0.98021835 1.1464241 0.082586139 100
-1.0016387 1.1516933 0.13979781 86
-0.99039358 1.1549201 0.027714422 23
-0.97689074 1.1515459 0.082481466 62
-0.99056453 1.1549628 0.13892625 87
-0.97353393 1.1563623 0.027435184 32
-0.98329359 1.1588373 0.082900152 41
-0.99307388 1.1613175 0.13927488 77
-0.95274228 1.1569571 0.027086135 53
-0.97605556 1.1629603 0.082586139 38
-0.97812313 1.1634927 0.1380547 89
-0.9611252 1.1644636 0.027260659 67
-0.96121663 1.1644875 0.081853434 94
-0.98644882 1.1710742 0.13892625 89
-0.95966917 1.1699996 0.027260659 74
-0.9558993 1.1690006 0.081644088 96
-0.98111659 1.1756822 0.13857763 94
-0.96026582 1.1755221 0.027295563 81
-0.95263892 1.1734743 0.081539422 96
-0.97014183 1.178174 0.13770607 100
-0.94719309 1.1779009 0.027086135 92
-0.95307702 1.179504 0.081644088 100
-0.95710164 1.1806004 0.1366602 100
-0.94583219 1.1828636 0.027086135 93
-0.95748669 1.1860803 0.081958108 100
-0.95957285 1.1866561 0.13700883 92
-0.9406032 1.1867448 0.027016325 96
-0.94263405 1.1873126 0.081225403 92
-0.95818287 1.1916597 0.13700883 91
-0.94683522 1.194126 0.027155945 89
-0.92963868 1.1892534 0.080597371 84
-0.95670182 1.1969217 0.13700883 100
-0.96464187 1.2046027 0.027504992 53
-0.93015999 1.1947086 0.080702044 52
-0.94570225 1.1991682 0.13613728 100
-0.94583386 1.2048631 0.027190849 41
-0.92483276 1.1987576 0.080492698 22
-0.94993466 1.2060552 0.1366602 92
-0.92136353 1.2030458 0.026771991 64
-0.92915088 1.2053378 0.080806717 26
-0.94656903 1.2104642 0.13648589 84
-0.91976637 1.2084358 0.026771991 75
-0.91223401 1.2061888 0.079969339 28
-0.93921679 1.2142378 0.13596296 92
-0.92404753 1.2150412 0.026876707 78
-0.91077954 1.2110353 0.079969339 56
-0.9339208 1.2180221 0.13561434 99
-0.92623085 1.2216108 0.026946515 88
-0.90915316 1.2163863 0.079969339 100
-0.92464787 1.2211266 0.1349171 100
-0.9132635 1.2229557 0.026737086 88
-0.9191125 1.2247663 0.080597371 90
-0.91362733 1.2230684 0.13404553 84
-0.89632887 1.2235292 0.026457848 85
-0.91743582 1.2301478 0.080597371 74
-0.91766018 1.2302182 0.13456847 56
-0.90244132 1.2307415 0.026597468 79
-0.90067178 1.2301801 0.07976 70
-0.91992432 1.2362874 0.1349171 43
-0.90835828 1.2385085 0.026737086 81
-0.89707381 1.2348832 0.079655327 89
-0.91061777 1.2392342 0.13421984 43
-0.89918941 1.2408701 0.026597468 93
-0.8974238 1.2402965 0.07976 100
-0.90715879 1.2434596 0.13404553 54
-0.88993829 1.2434276 0.026457848 99
-0.89956802 1.2465937 0.079969339 100
-0.90171176 1.2472985 0.13369691 73
-0.88077015 1.2456765 0.02631823 100
-0.89039856 1.2488775 0.079550654 100
-0.90579301 1.2539957 0.13421984 85
-0.87135261 1.2486142 0.02617861 93
-0.879085 1.2512178 0.079027295 100
-0.90203565 1.2589462 0.13404553 75
-0.88111562 1.2571915 0.026388038 92
-0.87559062 1.2553107 0.078922622 100
-0.90606457 1.2656848 0.13456847 85
-0.88688296 1.265039 0.026527658 96
-0.87380236 1.2605324 0.078922622 100
-0.88540071 1.2645283 0.13282534 100
-0.8663488 1.2632248 0.02617861 83
-0.87028164 1.2645944 0.078817949 100
-0.88939756 1.2712512 0.13334829 84
-0.85895997 1.2661731 0.026073895 74
-0.87419814 1.2715393 0.079131968 70
-0.89139766 1.2775962 0.13369691 42
-0.86484271 1.2735245 0.026213514 83
-0.84618407 1.2668842 0.077666558 29
-0.88970643 1.2823732 0.13369691 35
-0.86486918 1.2793841 0.02624842 96
-0.85374945 1.2753808 0.078189917 21
-0.88594431 1.2869718 0.1335226 30
-0.86317223 1.2840734 0.02624842 96
-0.85394269 1.2807159 0.07829459 65
-0.87486023 1.2883251 0.13265105 18
-0.84251148 1.2823445 0.025899371 99
-0.85581023 1.2872374 0.078503937 100
-0.86547154 1.2907921 0.13195379 13
-0.8369661 1.2858081 0.025829561 100
-0.85399622 1.2921414 0.078503937 100
-0.8729822 1.2992023 0.13282534 1
-0.83141345 1.2892392 0.025759751 100
-0.82599133 1.2872012 0.077038527 49
-0.90842611 1.3181863 0.13631158 1
-0.84080869 1.2983186 0.025969181 89
-0.83164591 1.294838 0.077457212 53
-0.85249013 1.3027561 0.13125655 7
-0.84455675 1.3053201 0.026073895 75
-0.83726388 1.3025208 0.077875905 57
-0.86922246 1.3147885 0.13299966 37
-0.83522218 1.3072922 0.025934275 74
-0.83539659 1.3073599 0.077875905 72
-0.84316403 1.3103727 0.13073361 90
-0.82216722 1.3077464 0.025724847 88
-0.83165282 1.3114638 0.077771232 61
-0.85239941 1.3195944 0.13177948 100
-0.82214111 1.3132691 0.025759751 96
-0.82046932 1.3126072 0.077247873 76
-0.83750516 1.3193521 0.1305593 95
-0.82414144 1.319061 0.025829561 100
-0.81875795 1.31691 0.077247873 91
-0.83392233 1.3229692 0.130385 99
-0.82221645 1.3238543 0.025829561 100
-0.81498843 1.3209369 0.0771432 97
-0.83383113 1.3285422 0.1305593 100
-0.80546111 1.3226016 0.025550323 100
-0.81860536 1.3279603 0.077457212 100
-0.82264835 1.3296084 0.12968774 100
-0.80107719 1.3208144 0.17914793 22
-0.80352384 1.3273296 0.025550323 100
-0.8129558 1.3312132 0.077247873 99
-0.82989818 1.3381896 0.1305593 100
-0.76243478 1.3104107 0.17427316 15
-0.7977795 1.3307505 0.025480513 100
-0.79982549 1.3316017 0.076619841 100
-0.8186087 1.3394165 0.12968774 100
-0.78060597 1.3236053 0.17695428 16
-0.80318826 1.3385501 0.025620133 100
-0.78680891 1.3316681 0.075991809 100
-0.82028645 1.3457339 0.13003637 100
-0.77866536 1.3282466 0.17695428 22
-0.80507773 1.3443592 0.025689943 100
-0.78871554 1.337424 0.076201156 92
-0.81113333 1.3469259 0.12933913 100
-0.76959437 1.3293192 0.17597933 16
-0.80306453 1.3490858 0.025689943 63
-0.80508834 1.349952 0.077247873 40
-0.79445761 1.3454022 0.12794463 50
-0.78223366 1.3401706 0.17792924 11
-0.80654186 1.356185 0.025794657 72
-0.82138973 1.362601 0.07829459 74
-0.82536191 1.3643174 0.13108224 28
-0.79845768 1.3526917 0.18036664 8
-0.80448741 1.3609166 0.025794657 100
-0.8010065 1.359398 0.077247873 100
-0.81232184 1.3643346 0.13003637 93
-0.77822071 1.3494573 0.17792924 28
-0.7987563 1.364029 0.025724847 100
-0.80076879 1.3649154 0.077352546 100
-0.82664937 1.3763139 0.13160518 100
-0.78709012 1.3588909 0.17939167 35
-0.80398351 1.3719831 0.025864467 100
-0.80780894 1.3736838 0.077875905 100
-0.80631894 1.3730214 0.12986206 100
-0.77595693 1.3595223 0.17817298 29
-0.79092759 1.371793 0.025655037 100
-0.80751556 1.3792375 0.077980578 100
-0.79693478 1.3744891 0.12916481 100
-0.76845783 1.3617089 0.17744176 20
-0.78335422 1.3739947 0.025550323 100
-0.81083864 1.3864448 0.07829459 100
-0.80570573 1.3841197 0.13021068 100
-0.77000076 1.3679457 0.17792924 20
-0.79942411 1.38696 0.025899371 100
-0.80322927 1.3886998 0.077980578 100
-0.8108018 1.3921621 0.13090792 100
-0.7624895 1.3700736 0.17719802 15
-0.79544657 1.3908288 0.025864467 100
-0.80287486 1.3942566 0.078085244 100
-0.81947619 1.401917 0.13195379 100
-0.76759666 1.3779781 0.17817298 12
-0.80222529 1.3999784 0.026038991 100
-0.80419856 1.4008977 0.07829459 100
-0.80270284 1.4002008 0.1305593 100
-0.76895827 1.3844799 0.17866045 10
-0.79469925 1.4019077 0.025934275 100
-0.81113714 1.4096322 0.078817949 100
-0.79699916 1.4029884 0.13021068 100
-0.77769297 1.3939159 0.18012288 5
-0.78536838 1.4029374 0.025794657 100
-0.8126182 1.4158533 0.079027295 100
-0.80209428 1.4108652 0.13090792 100
-0.7720291 1.3966148 0.17963541 3
-0.79769534 1.4142619 0.026073895 100
-0.8032611 1.4169226 0.07860861 100
-0.80715185 1.4187826 0.13160518 100
-0.79712588 1.4200662 0.0261088 100
-0.7954846 1.4192742 0.07829459 100
-0.8083536 1.4254842 0.13195379 100
-0.80215508 1.42803 0.02624842 100
-0.79691595 1.4254804 0.078503937 100
-0.80617243 1.429985 0.13195379 100
-0.7925548 1.429455 0.0261088 100
-0.80526048 1.435696 0.079131968 100
-0.79837948 1.4323161 0.13143086 100
-0.78677672 1.4321283 0.026038991 100
-0.81199425 1.4446189 0.079655327 100
-0.79796118 1.4376681 0.13160518 100
-0.7914955 1.4405999 0.02617861 100
-0.79343408 1.4415691 0.078713275 100
-0.80263346 1.4461677 0.13230242 100
-0.79283577 1.4468449 0.02624842 100
-0.79119974 1.4460204 0.078713275 100
-0.80927962 1.4551333 0.13317397 100
-0.80104023 1.4572017 0.026457848 100
-0.80295461 1.4581754 0.079550654 100
-0.80853516 1.461014 0.13334829 100
-0.79163653 1.4580281 0.02631823 100
-0.80421942 1.464481 0.07976 100
-0.80446333 1.464606 0.13317397 100
-0.78898484 1.4631746 0.02631823 100
-0.80154294 1.4696758 0.07976 100
-0.80178624 1.4698017 0.13317397 100
-0.79022437 1.4694614 0.026388038 100
-0.79567403 1.4723055 0.079550654 100
-0.81358868 1.4816552 0.13456847 100
-0.78777462 1.4741354 0.026388038 99
-0.79144686 1.4760683 0.07944598 100
-0.81462234 1.4882667 0.1349171 100
-0.78896517 1.4804423 0.026457848 45
-0.78733379 1.4795767 0.079341307 40
-0.7911132 1.4815819 0.13282534 84
0.16307002 1.2517601 0.010785587 13
0.13852796 1.2823172 0.03443706 27
0.1307978 1.2919418 0.05856866 22
0.099742085 1.3306087 0.11388429 9
0.14553353 1.2735946 0.12555231 18
0.19611517 1.2106162 0.13047162 8
0.12296987 1.3016882 0.18272625 6
0.15718758 1.2624201 0.010995016 38
0.17759424 1.2368388 0.031296901 31
0.14744055 1.2746387 0.056476921 48
0.15386659 1.2665832 0.077996381 14
0.14102307 1.2826835 0.10387249 11
0.14720574 1.2749331 0.12555231 60
0.18664101 1.225498 0.13452072 15
0.14882967 1.2728972 0.17237349 14
0.16280428 1.2592206 0.010890301 100
0.17319202 1.2460958 0.03182026 91
0.14690822 1.2793052 0.056825545 95
0.16439989 1.2572045 0.076290213 29
0.17977223 1.2377816 0.094486415 39
0.15889469 1.2641604 0.12249938 100
0.19202083 1.2223057 0.13317102 38
0.14237127 1.2850378 0.17599694 27
0.15824971 1.2683625 0.011064826 100
0.16366419 1.2614746 0.032762308 100
0.15844968 1.2681081 0.055431053 100
0.16111052 1.2647232 0.077265166 29
0.18376705 1.2359009 0.093860678 26
0.15932223 1.2669981 0.122881 100
0.19111407 1.2265544 0.13407083 38
0.16079572 1.2651236 0.16875002 44
0.16728798 1.2602017 0.010855397 100
0.17881605 1.2454357 0.031610917 92
0.16010362 1.2694038 0.055431053 100
0.1749692 1.2503631 0.074827775 30
0.16829535 1.2589114 0.098240845 36
0.17788672 1.2466261 0.11753834 100
0.19023159 1.230814 0.13497064 30
0.15768442 1.2725025 0.17082056 43
0.17259172 1.2567272 0.010750682 79
0.16815609 1.2624476 0.032657638 59
0.16298273 1.2691195 0.055256739 74
0.17048219 1.2594478 0.076046467 29
0.17718145 1.250808 0.096363634 37
0.18548444 1.2401 0.11563025 40
0.17862627 1.2489448 0.13991955 29
0.15225023 1.2829607 0.1739264 35
0.17820558 1.2534827 0.010645968 66
0.16891846 1.2655598 0.032762308 29
0.16498944 1.2706691 0.055256739 49
0.18576106 1.2436576 0.073365346 46
0.17188948 1.2616962 0.098240845 36
0.18378413 1.2462285 0.1167751 19
0.18649155 1.2427077 0.13767004 22
0.14371383 1.298336 0.17858514 54
0.17010105 1.2674267 0.010925206 52
0.17541292 1.2604716 0.032343622 30
0.15697742 1.2846104 0.056651235 47
0.18974352 1.2417076 0.072877869 47
0.19030774 1.2409688 0.093860678 52
0.19132346 1.2396388 0.11486702 13
0.20225477 1.2253258 0.13227122 39
0.16540155 1.2735801 0.16978529 66
0.17175266 1.2686838 0.010925206 52
0.15290174 1.293537 0.03443706 27
0.17554268 1.263687 0.054210871 51
0.17211559 1.2682053 0.076777689 100
0.20261535 1.2279942 0.091044858 54
0.18576419 1.250211 0.11715672 13
0.20847726 1.2202659 0.13047162 40
0.17641327 1.2625393 0.16564418 68
0.17581478 1.2667409 0.010855397 39
0.16906044 1.2757075 0.033180997 28
0.18557328 1.2537862 0.05299069 52
0.18451923 1.2551855 0.074584037 61
0.20175895 1.2322993 0.091670595 54
0.19444609 1.2420074 0.11486702 13
0.20528224 1.227622 0.13227122 39
0.18269804 1.2576032 0.16357364 69
0.1873858 1.2554226 0.010576159 40
0.17587471 1.2708322 0.032762308 29
0.18751827 1.2552452 0.05299069 52
0.18884584 1.253468 0.07409656 61
0.19888878 1.2400239 0.092922069 53
0.209268 1.2261294 0.11066922 14
0.20712203 1.2290022 0.13227122 47
0.18003377 1.2652645 0.16564418 68
0.19138038 1.2534103 0.010506349 81
0.19895715 1.243197 0.030878214 31
0.17607155 1.2740462 0.054908119 50
0.20346105 1.2371259 0.071415432 96
0.20280325 1.2380126 0.092296332 80
0.20844305 1.2304103 0.11143246 14
0.21096814 1.2270064 0.13137141 31
0.18282917 1.2649372 0.16512655 76
0.19425577 1.253049 0.010471444 82
0.21837658 1.2202965 0.029308135 68
0.17901477 1.2737441 0.054733805 75
0.19332221 1.2543167 0.073852822 100
0.20209625 1.2424028 0.092922069 100
0.20190281 1.2426655 0.11410378 13
0.22412145 1.2124958 0.12687239 24
0.17883113 1.2739935 0.16771474 67
0.19358373 1.2575165 0.010541254 95
0.20344797 1.2440239 0.030773543 64
0.18783069 1.2653856 0.053687938 78
0.20087278 1.2475463 0.072634131 78
0.20957652 1.235641 0.09135773 94
0.20818958 1.2375382 0.1125773 13
0.22566801 1.2136307 0.12687239 16
0.18857369 1.2643694 0.16409127 69
0.19528764 1.2587576 0.010541254 81
0.21331653 1.2339157 0.03004084 66
0.18488109 1.2730968 0.054385185 100
0.19321412 1.2616147 0.074584037 76
0.20888346 1.240024 0.091983467 100
0.21097681 1.2371396 0.11219569 14
0.24095395 1.1958342 0.12147357 8
0.19597504 1.2578105 0.16150309 70
0.20167145 1.2535028 0.010401634 97
0.20326331 1.2512932 0.031087559 94
0.19945022 1.2565861 0.052467756 100
0.20189446 1.2531933 0.073121607 78
0.21052623 1.2412119 0.091983467 93
0.20801914 1.2446918 0.11372216 13
0.23788586 1.2032349 0.12327318 17
0.19542152 1.2621782 0.16253836 70
0.19638202 1.2644751 0.010611063 94
0.21656343 1.2362548 0.03004084 66
0.18260741 1.2837367 0.055256739 99
0.20589268 1.2511761 0.072634131 63
0.20872593 1.2472143 0.092922069 100
0.21310428 1.241092 0.1125773 13
0.25186938 1.1868855 0.11832426 17
0.19714171 1.263413 0.16253836 70
0.20274034 1.2591841 0.010471444 96
0.22050524 1.2341586 0.029831495 66
0.19593593 1.2687694 0.053513627 100
0.21217072 1.2458994 0.071659178 64
0.21725452 1.2387379 0.091044858 100
0.20224991 1.2598749 0.1167751 26
0.23978996 1.2069924 0.12372308 16
0.19774792 1.2662169 0.163056 70
0.19514748 1.2734084 0.010750682 92
0.21744341 1.2417786 0.030250182 98
0.20218351 1.2634269 0.05281638 100
0.20803219 1.2551297 0.072877869 63
0.22336319 1.2333806 0.089793384 100
0.1936962 1.2754674 0.12020966 51
0.23001316 1.2239466 0.12822211 32
0.2038475 1.2610663 0.16098544 72
0.20837092 1.2582595 0.010401634 97
0.22252727 1.2380271 0.029936166 99
0.21304575 1.2515782 0.051421888 100
0.20858967 1.257947 0.073121607 78
0.22045282 1.240992 0.091044858 95
0.20784345 1.2590134 0.11601187 99
0.22266212 1.2378345 0.13182132 55
0.20777875 1.2591059 0.15995017 72
0.2145558 1.2528207 0.010262015 98
0.21268535 1.255513 0.030982886 95
0.20555019 1.265783 0.05281638 100
0.21700543 1.2492949 0.071659178 64
0.22314358 1.2404599 0.090731993 100
0.22290906 1.2407975 0.11143246 91
0.22199154 1.2421181 0.13272113 78
0.20940259 1.2602381 0.15995017 72
0.21170229 1.2605736 0.010401634 97
0.22005138 1.2484664 0.030459527 97
0.21180722 1.2604215 0.052119136 100
0.22318828 1.2439175 0.070684217 81
0.2203021 1.2481028 0.091983467 93
0.2234399 1.2435527 0.11181407 84
0.23138565 1.2320303 0.12957181 96
0.20124549 1.2757373 0.16460891 69
0.21793467 1.2551508 0.010262015 84
0.2363888 1.2281891 0.029098792 100
0.20451838 1.2747521 0.053513627 100
0.22596577 1.2434173 0.070440479 65
0.22866744 1.2394701 0.090106249 96
0.22731268 1.2414495 0.11105084 98
0.23300037 1.2331396 0.12957181 96
0.20955989 1.2673864 0.16150309 70
0.21625906 1.2612693 0.010366729 55
0.21891037 1.2573665 0.030878214 63
0.2107608 1.2693628 0.05281638 100
0.22092727 1.2543976 0.071902916 48
0.23363826 1.235687 0.089167647 100
0.22675386 1.2458209 0.11181407 84
0.23023868 1.2406912 0.13137141 94
0.21238375 1.2669737 0.16098544 72
0.22029719 1.2591728 0.010296919 42
0.20841986 1.2767949 0.032029606 30
0.21927467 1.2606899 0.051770512 54
0.22159541 1.2572466 0.072146654 63
0.23645127 1.2352053 0.088854775 98
0.22740272 1.2486304 0.11219569 100
0.22760934 1.2483239 0.13317102 93
0.22068584 1.2585962 0.15787962 73
0.22423041 1.2569964 0.01022711 42
0.21685389 1.2680237 0.031401575 31
0.21877393 1.2651534 0.052119136 54
0.22660938 1.2534401 0.071415432 48
0.23368376 1.2428646 0.090106249 96
0.23780805 1.2366991 0.10914274 92
0.23036447 1.2478266 0.13272113 100
0.21809688 1.2661655 0.15995017 72
0.22363448 1.2614057 0.010296919 42
0.19861767 1.2990732 0.03328567 28
0.21270177 1.2778668 0.053339314 52
0.2380985 1.2396272 0.069221787 100
0.23634645 1.2422653 0.089793384 100
0.23935741 1.2377318 0.10914274 92
0.24273211 1.2326505 0.12822211 97
0.21974406 1.2672634 0.15995017 72
0.22535181 1.2625419 0.010296919 42
0.18727669 1.3203077 0.03454173 27
0.22434497 1.2640694 0.051770512 54
0.23536986 1.2473429 0.07019674 82
0.23908398 1.241708 0.089480512 97
0.23991153 1.2404525 0.10952436 85
0.24327648 1.2353474 0.128672 89
0.22148183 1.2684132 0.15995017 72
0.22816774 1.2619987 0.010262015 28
0.23074651 1.2580564 0.030564198 32
0.22389022 1.2685379 0.052119136 54
0.23703802 1.2484382 0.07019674 82
0.24505788 1.2361779 0.088229038 98
0.23295787 1.2546757 0.1125773 96
0.2449027 1.2364151 0.128672 97
0.22428116 1.2679403 0.15943253 73
0.23097593 1.2614417 0.01022711 42
0.23245209 1.2591678 0.030564198 32
0.23431116 1.256304 0.05072464 56
0.23762912 1.2511928 0.070440479 49
0.24776256 1.2355827 0.087916173 84
0.24320346 1.2426058 0.10952436 85
0.24759373 1.2358428 0.12822211 97
0.23338443 1.2577316 0.15580906 75
0.24785471 1.2390175 0.0097384425 45
0.25146776 1.2334089 0.028889447 34
0.22522059 1.2741523 0.052467756 53
0.2350105 1.2589555 0.071415432 48
0.24725002 1.2399561 0.08854191 84
0.2480447 1.2387226 0.10837951 87
0.24605557 1.2418103 0.12957181 96
0.22881156 1.2685781 0.15891489 73
0.24087706 1.2535479 0.010017681 58
0.2487841 1.2411793 0.029308135 68
0.23234814 1.2668895 0.051596198 54
0.25168824 1.2366365 0.068003096 68
0.24676436 1.2443388 0.089167647 70
0.25285503 1.2348113 0.10723466 88
0.25505182 1.231375 0.12642249 90
0.23055387 1.2696961 0.15891489 65
0.23605335 1.2647008 0.01022711 70
0.25248861 1.2388029 0.029098792 68
0.23079491 1.2729868 0.052119136 81
0.2404733 1.257736 0.070927955 48
0.25045589 1.2420059 0.08854191 84
0.24072251 1.2573433 0.11219569 91
0.25658342 1.2323506 0.12642249 99
0.23221269 1.2707527 0.15891489 65
0.23778206 1.2657937 0.01022711 70
0.25519115 1.2381486 0.028994121 100
0.23892277 1.2639823 0.051073264 83
0.24429333 1.2554539 0.070440479 49
0.26052639 1.2296762 0.086038955 58
0.25079492 1.2451296 0.10914274 85
0.2581991 1.233372 0.12642249 82
0.23602146 1.2685895 0.15787962 65
0.244813 1.2584013 0.010052586 86
0.25259352 1.2459499 0.029412808 100
0.24381641 1.2599962 0.05055033 84
0.24598974 1.2565181 0.070440479 49
0.2621327 1.2306839 0.086038955 72
0.24829379 1.2528309 0.11066922 92
0.25981835 1.2343876 0.12642249 99
0.24185866 1.2631292 0.15580906 67
0.24968097 1.254365 0.0099478718 73
0.24794191 1.2571698 0.03004084 100
0.23922926 1.2712219 0.051596198 82
0.2487359 1.2558892 0.07019674 66
0.25749695 1.2417592 0.087916173 56
0.26239559 1.2338583 0.1060898 66
0.25938734 1.2387103 0.1273223 89
0.2456179 1.2609181 0.15477379 67
0.25032571 1.2571136 0.0099827768 87
0.25592351 1.2480145 0.029412808 100
0.23889279 1.2756975 0.051944822 81
0.25355431 1.2518656 0.069465525 49
0.2612156 1.2394123 0.087290429 71
0.25578678 1.2482368 0.10914274 85
0.26204634 1.238062 0.12687239 90
0.24733338 1.2619776 0.15477379 67
0.24890232 1.2632772 0.010087491 71
0.25863448 1.2473333 0.029308135 100
0.24273601 1.2733792 0.051596198 82
0.25730664 1.2495087 0.068978049 50
0.2649143 1.2370453 0.086664692 57
0.24825206 1.2643425 0.1125773 100
0.27586567 1.2191042 0.12147357 86
0.24100041 1.2762226 0.15891489 65
0.2475183 1.2694566 0.010192205 85
0.25926781 1.2500559 0.029412808 100
0.24759135 1.269336 0.051073264 83
0.25692555 1.2539234 0.069465525 49
0.27063954 1.2312789 0.085413218 58
0.26014966 1.2485998 0.10876112 72
0.2683495 1.2350602 0.12552269 90
0.24477085 1.2739933 0.15787962 65
0.25338325 1.2636532 0.010052586 86
0.26094529 1.2510679 0.029412808 100
0.25651929 1.2584339 0.049853086 85
0.26066133 1.2515404 0.068978049 50
0.26818183 1.2390242 0.086664692 57
0.26182204 1.2496086 0.10876112 79
0.27198192 1.2326998 0.12462288 83
0.25449181 1.2618083 0.15373851 68
0.26329967 1.2509443 0.0097733475 89
0.2564902 1.2623672 0.03004084 99
0.24904433 1.2748578 0.051421888 82
0.26437691 1.2491372 0.068490572 50
0.27386665 1.233218 0.085413218 58
0.26651376 1.2455525 0.10761628 79
0.27359876 1.2336674 0.12462288 83
0.25225356 1.2694743 0.15580906 67
0.26294437 1.2553846 0.0098431576 88
0.26837754 1.2461976 0.028994121 100
0.25080845 1.2759054 0.051421888 82
0.26403016 1.2535486 0.068978049 50
0.27146307 1.2409803 0.086664692 57
0.26417798 1.2532986 0.10914274 78
0.28017887 1.2262425 0.12237337 85
0.25399888 1.2705106 0.15580906 67
0.2686044 1.2494354 0.0097035384 90
0.26995823 1.2471288 0.028994121 100
0.24845368 1.2837678 0.052119136 81
0.26764488 1.2510703 0.068490572 50
0.28102565 1.2282724 0.084161744 74
0.26379469 1.2576301 0.10990598 78
0.28267974 1.2254542 0.12192347 85
0.25272664 1.2764876 0.15736198 74
0.26223016 1.2642397 0.0099827768 87
0.27564529 1.2411995 0.028575432 100
0.25325641 1.2796519 0.051596198 82
0.27132353 1.2486219 0.068003096 51
0.28163302 1.2309155 0.084474608 59
0.26352286 1.2620194 0.11066922 85
0.2823101 1.2297527 0.12282328 76
0.26323634 1.2625115 -0.0099478718 86
0.26518899 1.2591579 0.15166797 69
0.27387521 1.2478769 0.0096337283 90
0.27720934 1.2421067 0.028575432 100
0.26690969 1.2599318 0.049504463 86
0.27291223 1.2495434 0.068003096 51
0.2801981 1.2369342 0.085413218 58
0.27104935 1.2527674 0.10837951 79
0.28481114 1.2289505 0.12237337 85
0.26681265 1.2600996 0.15166797 69
0.275545 1.2488377 0.0096337283 90
0.27289981 1.2534528 0.029203463 100
0.26862159 1.2609169 0.049504463 86
0.27458784 1.2505077 0.068003096 51
0.27593577 1.2481561 0.087290429 57
0.27273622 1.2537382 0.10837951 87
0.28641477 1.2298734 0.12237337 85
0.26560098 1.266187 -0.0099827768 86
0.26372182 1.2694656 0.15425615 75
0.27334973 1.2567947 0.0097733475 89
0.27664727 1.2509923 0.028994121 100
0.26845393 1.2654094 0.049853086 85
0.27438918 1.2549657 0.068490572 50
0.28061822 1.2440051 0.086351827 58
0.27936125 1.2462168 0.10647142 81
0.28906494 1.2291422 0.12192347 76
0.27032694 1.2621136 0.15166797 69
0.27799654 1.2525315 0.0096686333 75
0.28421253 1.2415043 0.028366089 100
0.26040119 1.2837454 0.051596198 82
0.28193247 1.2455492 0.067028143 51
0.28906459 1.2328968 0.084161744 59
0.27331266 1.2608407 0.10952436 99
0.29066923 1.2300502 0.12192347 76
0.27406868 1.2594994 -0.0098082526 88
0.26825187 1.2698184 0.15373851 68
0.27577904 1.2604597 0.0098082526 74
0.28391063 1.2459159 0.028575432 100
0.2845594 1.2447555 0.047587037 90
0.27681282 1.2586106 0.068734311 50
0.28971797 1.2355291 0.084474608 59
0.28269243 1.2480946 0.10647142 81
0.29132569 1.2326536 0.12237337 93
0.27187553 1.2674413 -0.0099478718 86
0.27659765 1.2589955 0.15011504 78
0.28525093 1.2474234 0.0095290141 76
0.2836363 1.2503351 0.028784776 100
0.28525198 1.2474215 0.047761347 90
0.28140816 1.2543532 0.068003096 51
0.29134455 1.2364347 0.084474608 59
0.28341082 1.2507417 0.10685304 88
0.29577741 1.228441 0.12102367 77
0.28111684 1.2548785 0.14856213 79
0.29069149 1.2412907 0.0093893949 77
0.28137943 1.2582152 0.029203463 100
0.28203437 1.2570249 0.048632905 88
0.28492966 1.2517627 0.067515619 51
0.29289272 1.2372899 0.084474608 59
0.2868993 1.248183 0.1060898 73
0.29448083 1.2344036 0.12237337 76
0.27526793 1.2693229 -0.0099478718 86
0.2808637 1.2591527 0.14959741 70
0.28467536 1.2562358 0.0096686333 90
0.2926521 1.2416177 0.028156744 100
0.27991864 1.2649531 0.049330149 87
0.29231808 1.2422298 0.066053182 52
0.29452544 1.2381846 0.084474608 59
0.28951046 1.247375 0.10570818 81
0.29983723 1.2284502 0.12057377 77
0.27516997 1.2736555 0.15373851 68
0.2864593 1.257205 0.0096686333 60
0.2924819 1.2460711 0.028366089 100
0.27699488 1.2747018 0.050201707 56
0.2921617 1.2466631 0.066540658 52
0.29812282 1.2356428 0.083848871 59
0.2865915 1.2569606 0.10761628 79
0.2987377 1.2345061 0.12192347 76
0.27884802 1.271276 -0.0099478718 96
0.27885607 1.2712611 0.15270324 68
0.28154472 1.2704573 0.0099129668 87
0.28942469 1.2557673 0.028889447 100
0.2891182 1.2563386 0.048284281 88
0.28819695 1.258056 0.068003096 51
0.29107705 1.252687 0.10647142 81
0.2843805 1.2651707 -0.0098082526 88
0.28608662 1.2619902 0.14959741 70
0.29268435 1.2537367 0.0095639192 91
0.29487377 1.2496207 0.02847076 100
0.28520337 1.2678005 0.049330149 87
0.28990218 1.2589669 0.068003096 51
0.29460749 1.2501212 0.10570818 73
0.28423238 1.2696258 -0.0098780617 87
0.29324907 1.2526751 0.14649157 72
0.29903919 1.2457883 0.0093893949 77
0.2928223 1.2575746 0.028889447 100
0.29066077 1.2616726 0.048632905 88
0.29253671 1.258116 0.067759357 68
0.29903281 1.2458003 0.10456333 75
0.28411213 1.2740879 -0.0099478718 86
0.29042906 1.2621119 0.14907977 78
0.29876417 1.2501615 0.009459204 77
0.29999623 1.2478068 0.028261416 100
0.28767422 1.2713566 0.049504463 57
0.28763935 1.2714233 -0.0098780617 87
0.28937554 1.268105 0.15063268 70
0.29767916 1.2563607 0.0095639192 91
0.28575581 1.2793435 0.050201707 56
0.29956499 1.2527256 0.10570818 73
0.2875495 1.2758861 -0.0099478718 96
0.28666764 1.2775859 0.15322088 76
0.29946345 1.2572823 0.0095639192 91
0.29900464 1.275184 0.15115032 77
