# .PCD v0.7 - Point Cloud Data file format
VERSION 0.7
FIELDS x y z intensity
SIZE 4 4 4 4
TYPE F F F F
COUNT 1 1 1 1
WIDTH 735
HEIGHT 1
VIEWPOINT 0 0 0 1 0 0 0
POINTS 735
DATA ascii
-1.1663482 0.15334557 0.061651755 20
-1.0826498 0.14638001 0.057255536 26
-1.128455 0.16060294 0.019895744 4
-1.0665463 0.15559228 0.018813694 6
-1.02254 0.15245473 0.018045789 5
-1.0140944 0.15481599 0.017906168 2
-1.0846148 0.16984613 0.019162742 1
0.055557251 0.0027750134 0.047835063 64
0.051340431 0.013743043 0.015811881 9
0.045026004 0.0096651316 0.047835063 100
0.050020099 0.023138881 0.047102362 82
0.039730251 0.013209045 0.047835063 37
0.032469392 0.0084767938 0.048253752 17
0.031075001 0.011845291 0.048149079 17
0.029433846 0.015396357 0.04804441 9
0.031492651 0.02368778 0.047625721 9
0.015280545 0.0057737827 0.048881784 7
-1.0445302 1.1349032 0.028552137 5
-1.0094898 1.1268843 0.083842203 5
-1.0173404 1.1286809 0.14066938 6
-1.0179262 1.1345794 0.028098375 10
-1.000453 1.1305164 0.083423518 20
-1.0296631 1.1373085 0.14188954 35
-0.99134415 1.1340742 0.027644612 26
-0.99529749 1.1350081 0.083214171 88
-1.0206153 1.1409882 0.1411923 81
-0.98818368 1.1387174 0.027609708 38
-0.98825186 1.1387337 0.082900152 100
-1.0193765 1.1461946 0.1411923 87
-0.99660212 1.1464491 0.02778423 41
-0.98695546 1.144101 0.082900152 100
-0.99869496 1.1469585 0.13944919 92
-0.98550588 1.1497148 0.027609708 26
-0.98557395 1.1497316 0.082900152 97
-0.99923712 1.1531105 0.13962349 87
-0.97059435 1.1516647 0.027365373 26
-0.98423904 1.1550896 0.082900152 52
-0.99209303 1.1570609 0.13910057 84
-0.96731502 1.1564767 0.027330469 41
-0.98288554 1.1604427 0.082900152 33
-0.99073249 1.1624414 0.13910057 80
-0.9698289 1.1627715 0.027400278 59
-0.97571212 1.1642919 0.082586139 62
-0.98742419 1.1673187 0.13892625 91
-0.96844858 1.1680743 0.027400278 67
-0.9704625 1.1686022 0.082376793 100
-0.97831899 1.1706619 0.13822901 89
-0.95352191 1.1697752 0.027155945 78
-0.96520144 1.1728808 0.082167454 92
-0.9711346 1.1744583 0.13770607 99
-0.94832629 1.1737185 0.027086135 89
-0.95421475 1.175305 0.081644088 100
-0.96208984 1.1774269 0.13700883 100
-0.95076591 1.1800001 0.027155945 92
-0.94893748 1.1795006 0.081434749 100
-0.9721902 1.185853 0.1380547 99
-0.94925314 1.1854979 0.027155945 89
-0.94165236 1.1833915 0.081120729 100
-0.96681577 1.1903651 0.13770607 91
-0.95549434 1.1928918 0.027295563 93
-0.93635458 1.1875155 0.08091139 86
-0.9557485 1.1929632 0.13683452 98
-0.94439262 1.1954069 0.027121039 72
-0.93680912 1.1932482 0.081016064 78
-0.94659787 1.1960347 0.13613728 100
-0.95250541 1.2033918 0.027295563 55
-0.94299871 1.2006496 0.081434749 44
-0.93935853 1.1995996 0.13561434 100
-0.93954283 1.2050085 0.027086135 45
-0.92239064 1.1999993 0.080388032 22
-0.95896322 1.21068 0.13753176 84
-0.93034512 1.2079362 0.026946515 68
-0.91896552 1.2045697 0.080283359 26
-0.95741576 1.2159445 0.13753176 85
-0.93455416 1.2148228 0.027051231 75
-0.91743964 1.2096946 0.080283359 28
-0.93294734 1.2143413 0.13544002 94
-0.91385692 1.2141956 0.026702182 75
-0.9273631 1.218294 0.08091139 80
-0.92566758 1.2177795 0.1349171 100
-0.9084745 1.2181281 0.026632372 83
-0.92388016 1.2228615 0.080806717 100
-0.92028648 1.2217574 0.13456847 100
-0.90881079 1.2238104 0.026667276 88
-0.89940506 1.2208844 0.079550654 93
-0.92821294 1.229846 0.13544002 78
-0.9110325 1.2301011 0.026737086 88
-0.90163237 1.2271409 0.07976 74
-0.91899723 1.2326094 0.13474278 52
-0.90941757 1.2351983 0.026737086 83
-0.90573663 1.234025 0.080074012 72
-0.90788203 1.2347088 0.13387123 45
-0.89272231 1.2348745 0.026457848 85
-0.90617257 1.2392085 0.080178685 84
-0.90072578 1.2374535 0.13334829 48
-0.88348609 1.2374281 0.02631823 96
-0.91212136 1.2467654 0.080597371 100
-0.91234487 1.2468382 0.13456847 59
-0.88176328 1.2426789 0.02631823 100
-0.89139837 1.2458597 0.079550654 100
-0.90680343 1.2509456 0.13421984 80
-0.88389796 1.2489408 0.026388038 100
-0.88783413 1.2502556 0.07944598 100
-0.91645437 1.2598151 0.13526571 84
-0.88609093 1.2549728 0.026457848 93
-0.88812584 1.2556599 0.079550654 100
-0.89783305 1.2589381 0.13369691 77
-0.86925071 1.2548114 0.02617861 93
-0.88642186 1.260677 0.079550654 100
-0.89423209 1.263345 0.1335226 100
-0.86368436 1.2587032 0.0261088 88
-0.88272613 1.265286 0.07944598 100
-0.88488203 1.2660313 0.13282534 97
-0.86952049 1.2662747 0.02624842 88
-0.86213487 1.2636926 0.078399263 95
-0.89442641 1.274982 0.13387123 54
-0.87155014 1.2725599 0.02631823 81
-0.85098773 1.2652904 0.077875905 57
-0.9039256 1.2840054 0.1349171 38
-0.86602122 1.2761726 0.02624842 92
-0.84925038 1.2701777 0.077875905 21
-0.88711351 1.2837124 0.1335226 39
-0.85296184 1.2770344 0.026038991 93
-0.87003618 1.283205 0.079131968 44
-0.85907871 1.2792451 0.13108224 24
-0.8399139 1.2778112 0.025829561 96
-0.86260813 1.2861027 0.078817949 85
-0.86664957 1.2875792 0.13195379 16
-0.84572619 1.2851872 0.025969181 100
-0.85152048 1.2873261 0.07829459 100
-0.87240189 1.2950338 0.13265105 7
-0.84766644 1.2914542 0.026038991 100
-0.83660728 1.2873281 0.077561885 89
-0.87242717 1.3006921 0.13282534 1
-0.84592956 1.2960861 0.026038991 100
-0.83301514 1.2912191 0.077457212 44
-0.87065953 1.3054062 0.13282534 1
-0.83287221 1.2966852 0.025829561 83
-0.84051973 1.2995979 0.077980578 53
-0.84271508 1.3004341 0.130385 11
-0.82542652 1.2993543 0.025724847 75
-0.83679861 1.3037311 0.077875905 61
-0.85387105 1.3103018 0.13160518 50
-0.8310253 1.3070514 0.025864467 74
-0.83120424 1.3071209 0.077666558 68
-0.85754734 1.3173652 0.1321281 100
-0.83463079 1.3143042 0.025969181 93
-0.82179111 1.3092568 0.077247873 61
-0.84255177 1.3174181 0.13090792 100
-0.82900542 1.3176579 0.025899371 99
-0.82361287 1.3155165 0.077457212 82
-0.83137399 1.3185986 0.13003637 99
-0.81604546 1.3177625 0.025689943 100
-0.82735759 1.3222985 0.077771232 91
-0.82399935 1.3209519 0.12951343 100
-0.80671138 1.3195246 0.025550323 100
-0.82357019 1.3263532 0.077666558 97
-0.82945448 1.3287365 0.13021068 100
-0.78760427 1.3117855 0.17719802 13
-0.81218809 1.3272858 0.025689943 100
-0.80868 1.3258506 0.076933853 100
-0.82380766 1.3320396 0.12986206 100
-0.79856592 1.321713 0.17890419 24
-0.81023449 1.3320374 0.025689943 100
-0.79934782 1.3275391 0.076515168 100
-0.82920295 1.339875 0.1305593 100
-0.78012007 1.3195944 0.17671055 16
-0.80457348 1.3352419 0.025620133 100
-0.79370695 1.3307076 0.076305822 100
-0.80697936 1.3362458 0.12864187 100
-0.77819353 1.324234 0.17671055 18
-0.79153544 1.3353076 0.025410704 100
-0.79726309 1.3377212 0.076619841 99
-0.80499452 1.3409791 0.12864187 100
-0.78539735 1.3327211 0.17792924 20
-0.79343361 1.341084 0.025480513 92
-0.80466336 1.3458577 0.0771432 72
-0.80502766 1.3460126 0.12881619 100
-0.76170033 1.3275945 0.17500438 16
-0.81348282 1.3552347 0.025899371 57
-0.81549233 1.3560972 0.077875905 42
-0.81033212 1.3538823 0.12951343 33
-0.78528422 1.3431313 0.17841671 8
-0.81683272 1.3626146 0.026004085 90
-0.80050796 1.3555367 0.0771432 85
-0.83743054 1.3715451 0.13230242 52
-0.77406818 1.3440733 0.17719802 15
-0.79826885 1.3601654 0.025689943 100
-0.81492275 1.3674552 0.078085244 100
-0.81342 1.3667974 0.13021068 100
-0.78842288 1.3558557 0.17939167 33
-0.79071325 1.3624434 0.025585229 100
-0.80917519 1.3706014 0.077875905 100
-0.809506 1.3707477 0.13003637 100
-0.77729112 1.3565123 0.17817298 33
-0.7886371 1.3671198 0.025585229 100
-0.81071848 1.3769696 0.078085244 100
-0.80194205 1.3730546 0.12951343 100
-0.76617116 1.3570985 0.17695428 28
-0.79748493 1.3767148 0.025794657 100
-0.80677027 1.3808956 0.077980578 100
-0.80709571 1.3810421 0.13021068 100
-0.74963313 1.3551693 0.17500438 20
-0.79899997 1.3830695 0.025864467 100
-0.80281132 1.3848016 0.077875905 100
-0.81583768 1.3907216 0.13125655 100
-0.76204044 1.3662727 0.17695428 18
-0.80412215 1.3911095 0.026004085 100
-0.80610317 1.3920181 0.078189917 100
-0.81004065 1.3938241 0.13090792 100
-0.77979881 1.3799527 0.17963541 15
-0.79468709 1.3924723 0.025864467 100
-0.81117362 1.400104 0.07860861 100
-0.80062252 1.3952198 0.13021068 100
-0.78126436 1.3862587 0.18012288 10
-0.78525907 1.3937768 0.025724847 100
-0.81439441 1.4073876 0.078922622 100
-0.80204219 1.4016171 0.1305593 100
-0.76831406 1.3858607 0.17866045 7
-0.79211742 1.4026973 0.025899371 100
-0.8031283 1.4078881 0.078399263 100
-0.81064218 1.4114302 0.13160518 100
-0.76256508 1.3887658 0.17817298 5
-0.79531819 1.4099554 0.026004085 100
-0.80089349 1.4126074 0.078399263 100
-0.81559175 1.4195993 0.13230242 100
-0.77653068 1.4010184 0.18036664 3
-0.80028719 1.4181087 0.026143705 100
-0.80044264 1.4181833 0.078503937 100
-0.80433482 1.4200515 0.13143086 100
-0.79824442 1.4223475 0.026143705 100
-0.80738908 1.4267721 0.079027295 100
-0.79690558 1.4216998 0.13090792 100
-0.78697413 1.4226637 0.025969181 100
-0.80867785 1.4332587 0.079236634 100
-0.80715555 1.4325155 0.1321281 100
-0.79533571 1.4328624 0.02617861 100
-0.80086297 1.4355857 0.078922622 100
-0.81365436 1.4418882 0.13299966 100
-0.79659504 1.4393346 0.02624842 100
-0.79495436 1.4385191 0.078713275 100
-0.81843728 1.4501915 0.13369691 100
-0.80151886 1.4473804 0.026388038 100
-0.79273015 1.4429755 0.078713275 100
-0.80192465 1.4475838 0.13230242 100
-0.79200786 1.448485 0.02624842 100
-0.80997938 1.4575709 0.079864666 100
-0.79955119 1.4522988 0.13230242 100
-0.7860685 1.4513484 0.02617861 100
-0.80757099 1.4623139 0.079864666 100
-0.80426103 1.460626 0.13299966 100
-0.7943514 1.4614961 0.026388038 100
-0.80159396 1.4652214 0.079655327 100
-0.8195594 1.4744624 0.13474278 100
-0.79535764 1.4682611 0.026457848 100
-0.79549128 1.4683304 0.07944598 100
-0.81166309 1.4767239 0.13421984 100
-0.79291207 1.4729531 0.026457848 100
-0.79658443 1.4748753 0.079655327 100
-0.81271821 1.4833207 0.13456847 100
-0.78349942 1.4736694 0.02631823 92
-0.79600602 1.480269 0.07976 100
-0.80153471 1.4831865 0.13369691 98
-0.79162675 1.4839565 0.026527658 20
-0.80938679 1.4934075 0.080702044 20
-0.80079585 1.4888358 0.13387123 47
0.12836489 1.2925382 0.13051336 5
0.15615714 1.2615962 0.010995016 12
0.13790539 1.2843782 0.03454173 27
0.15136743 1.2675748 0.055779677 24
0.16218182 1.2540762 0.098240845 12
0.1461491 1.2740884 0.12555231 24
0.14777729 1.272056 0.17237349 7
0.15787551 1.2629681 0.010995016 64
0.16954318 1.2482998 0.032029606 60
0.15186641 1.2705225 0.055953987 48
0.16815355 1.2500467 0.075315252 30
0.17125213 1.2461513 0.096363634 25
0.15035546 1.2724221 0.12478908 78
0.18606424 1.22753 0.13497064 15
0.15915307 1.2613618 0.16823238 22
0.16562575 1.2563531 0.010820492 100
0.16485563 1.2573276 0.032552965 88
0.16208854 1.2608287 0.054733805 100
0.16227838 1.2605885 0.076777689 29
0.17274988 1.2473388 0.096363634 37
0.16289175 1.2598125 0.12135452 100
0.19112837 1.2240844 0.13362093 38
0.15111586 1.2747126 0.17237349 42
0.17102906 1.2529722 0.010715778 100
0.16286027 1.2633828 0.032866981 100
0.15396482 1.2747195 0.056128297 100
0.1701203 1.2541304 0.07555899 30
0.17929608 1.2424365 0.095112152 25
0.1755113 1.24726 0.11791996 100
0.19030964 1.2284005 0.13452072 38
0.15049496 1.2791415 0.17340876 42
0.16788718 1.2606689 0.010855397 100
0.17817 1.2474647 0.031715591 92
0.15826571 1.2730237 0.055779677 98
0.16335949 1.2664828 0.077265166 29
0.1786027 1.2469091 0.095737889 25
0.18088186 1.2439824 0.1167751 100
0.1943869 1.2266407 0.13362093 31
0.14880282 1.2851748 0.17496167 35
0.17318663 1.257188 0.010750682 79
0.17975539 1.2486951 0.031715591 61
0.17212546 1.2585599 0.054036561 51
0.1832253 1.2442088 0.073609084 31
0.18018624 1.2481381 0.095737889 25
0.18365681 1.2436509 0.11639348 19
0.19828761 1.2247345 0.13272113 23
0.14342195 1.2956712 0.17806751 33
0.17001799 1.2648444 0.010890301 78
0.1631825 1.2737463 0.03328567 28
0.17019281 1.2646167 0.054559495 50
0.17400184 1.2596563 0.075802729 45
0.19268522 1.2353253 0.092922069 53
0.18292099 1.2480412 0.11715672 13
0.19038221 1.2383244 0.13632034 22
0.15349534 1.2863617 0.17444403 56
0.17772415 1.2581514 0.010715778 53
0.1696997 1.2686737 0.032866981 29
0.17545971 1.2611208 0.054036561 51
0.18766537 1.2451159 0.073365346 62
0.18824086 1.2443613 0.094486415 52
0.19046089 1.2414503 0.11524864 13
0.20020929 1.2286675 0.13317102 46
0.17395359 1.2630956 0.16616182 61
0.17236221 1.2691456 0.010925206 65
0.17643741 1.2637591 0.032448292 29
0.16893351 1.2736775 0.055256739 49
0.19188777 1.2433375 0.072877869 47
0.1948323 1.2394456 0.093234941 53
0.19108924 1.244393 0.11563025 13
0.19726995 1.2362236 0.13497064 45
0.1770153 1.2629952 0.16564418 68
0.17401952 1.270395 0.010925206 65
0.16847882 1.2777693 0.03328567 28
0.17898366 1.2637883 0.054036561 51
0.19942158 1.2365873 0.071659178 64
0.19283116 1.2453585 0.094173551 52
0.20563695 1.2283152 0.11143246 14
0.21169463 1.220253 0.13002171 48
0.17284986 1.2719518 0.16823238 67
0.18046457 1.2652285 0.010785587 52
0.18688706 1.2566215 0.03182026 30
0.17228237 1.2761936 0.055256739 49
0.19384772 1.2472932 0.073121607 78
0.20149767 1.2370412 0.092296332 53
0.1942434 1.2467629 0.11563025 13
0.2108587 1.2244961 0.13092151 40
0.17798248 1.2685548 0.16667947 67
0.18091825 1.2680578 0.010820492 91
0.19920495 1.2433808 0.030878214 63
0.17752177 1.2726412 0.054733805 75
0.19188678 1.2532563 0.073852822 93
0.21010497 1.2286717 0.090419121 96
0.19933304 1.2432079 0.1144854 13
0.21468824 1.2224869 0.13002171 32
0.18308836 1.2651293 0.16512655 76
0.19357771 1.2550328 0.010506349 68
0.20347342 1.2415662 0.03066887 64
0.18426171 1.2677102 0.054036561 77
0.19853148 1.2482914 0.072877869 94
0.20493057 1.2395833 0.092296332 93
0.20123544 1.2446117 0.1144854 13
0.22343105 1.2144072 0.1273223 24
0.18393493 1.268155 0.16564418 76
0.1940093 1.2578273 0.010541254 95
0.20386174 1.2443261 0.030773543 64
0.18826312 1.2657015 0.053687938 100
0.19660899 1.2542648 0.073609084 77
0.20183191 1.2471077 0.093547814 100
0.20744041 1.2394222 0.11295892 13
0.22605529 1.2139134 0.12687239 16
0.19242162 1.260003 0.16253836 70
0.19562897 1.2590051 0.010541254 81
0.20895255 1.2406197 0.030459527 97
0.19107804 1.265285 0.053513627 100
0.20287618 1.2490045 0.072634131 78
0.20689341 1.243461 0.092609204 100
0.21015099 1.2389659 0.1125773 13
0.23324671 1.2070955 0.12462288 8
0.19064766 1.2658789 0.16409127 69
0.19258034 1.26667 0.010680873 93
0.21634811 1.2336423 0.029936166 66
0.1869036 1.2745584 0.054385185 100
0.20446652 1.2501529 0.072634131 78
0.21538833 1.2349761 0.090731993 95
0.20826775 1.2448709 0.11372216 13
0.23469791 1.2081435 0.12462288 8
0.19229403 1.2670679 0.16409127 69
0.19905147 1.2614672 0.010541254 95
0.21572837 1.2381129 0.030145511 65
0.19222882 1.2710216 0.053862248 100
0.20046073 1.2594936 0.073852822 100
0.22627839 1.2233386 0.088229038 98
0.21115142 1.2445225 0.11334054 20
0.22724617 1.2219834 0.12822211 16
0.19860891 1.2620869 0.16202073 70
0.1983698 1.2658907 0.010611063 94
0.21150616 1.247365 0.03066887 96
0.20080695 1.2624537 0.05281638 100
0.20782703 1.2525535 0.072634131 63
0.21635738 1.2405235 0.09135773 94
0.20704886 1.2536509 0.11524864 27
0.23438278 1.2151029 0.12597258 16
0.20024267 1.2632495 0.16202073 70
0.21169662 1.2508217 0.010262015 98
0.2086609 1.2551363 0.031087559 94
0.20032126 1.2669892 0.053165004 100
0.2061711 1.2586749 0.073365346 100
0.21467409 1.2465899 0.092296332 100
0.20430493 1.2613273 0.1167751 66
0.22592396 1.2306007 0.13002171 40
0.2053878 1.2597883 0.1604678 72
0.21558347 1.2486624 0.010192205 99
0.22514182 1.2349812 0.029726824 100
0.19740695 1.2746791 0.053862248 100
0.2157518 1.2484214 0.071659178 64
0.2139937 1.2509378 0.092922069 100
0.20706055 1.2608615 0.11639348 100
0.22856921 1.2300754 0.12957181 72
0.20148188 1.2688465 0.163056 70
0.2127831 1.2564586 0.010331824 98
0.21888325 1.2476587 0.030459527 97
0.19698888 1.2792429 0.054210871 100
0.22429311 1.2398547 0.07019674 82
0.22588721 1.237555 0.090106249 100
0.21557286 1.2524343 0.11410378 89
0.23358828 1.2264457 0.12822211 97
0.20221198 1.2717083 0.16357364 69
0.21439812 1.2575742 0.010331824 98
0.22952831 1.2355925 0.029622151 100
0.20771673 1.2672812 0.05281638 100
0.21684891 1.2540137 0.072146654 79
0.23415947 1.2288642 0.088229038 98
0.21494824 1.2567749 0.11486702 94
0.22405466 1.2435448 0.13272113 94
0.21592617 1.2553542 0.15787962 81
0.21393192 1.2621037 0.010401634 83
0.2256051 1.2450107 0.030145511 65
0.2072944 1.2718229 0.053165004 100
0.22086415 1.2519529 0.071659178 80
0.23584342 1.2300187 0.088229038 98
0.22116339 1.2515147 0.11334054 100
0.2290895 1.2399085 0.13137141 94
0.2068125 1.2725286 0.163056 78
0.21893245 1.2582501 0.010296919 70
0.23166564 1.2394716 0.029726824 67
0.21455121 1.2647115 0.052293446 80
0.2213501 1.2546847 0.071902916 96
0.22739309 1.2457726 0.091044858 100
0.23378009 1.2363533 0.10952436 92
0.23064953 1.2409701 0.13137141 94
0.21390176 1.2656693 0.1604678 72
0.22063878 1.2594028 0.010296919 42
0.2176947 1.2637775 0.03119223 31
0.2151677 1.2675323 0.052467756 53
0.23080227 1.2443007 0.07019674 82
0.22905579 1.2468958 0.091044858 100
0.2332176 1.2407117 0.1102876 92
0.23555955 1.2372317 0.13002171 100
0.21886981 1.2620313 0.15891489 73
0.21559766 1.2704685 0.010506349 27
0.22377241 1.258234 0.030773543 32
0.20907104 1.2802362 0.053687938 52
0.21583399 1.2701148 0.073852822 100
0.23832124 1.2364602 0.088854775 100
0.22932667 1.2499216 0.11219569 91
0.23927602 1.2350314 0.1291219 96
0.21299031 1.2743707 0.16253836 70
0.21743423 1.2716907 0.010506349 40
0.21894294 1.2694148 0.031401575 31
0.21534678 1.2748398 0.05299069 52
0.22644365 1.2580996 0.071902916 96
0.240033 1.2375995 0.088854775 98
0.22891834 1.2543664 0.11295892 89
0.24205923 1.2345427 0.128672 97
0.2223129 1.2643311 0.15891489 73
0.22349706 1.2661092 0.010366729 41
0.22060087 1.2705098 0.031401575 31
0.22359464 1.2659609 0.051944822 54
0.21933356 1.2724354 0.073852822 100
0.24049935 1.2402749 0.089167647 100
0.23916075 1.2423089 0.10990598 85
0.24253008 1.2371892 0.1291219 100
0.22607803 1.2621875 0.15787962 73
0.22759023 1.26401 0.010296919 28
0.2050598 1.298532 0.033076324 29
0.22876817 1.2622051 0.051421888 55
0.23970908 1.245441 0.069709264 83
0.24338698 1.2398056 0.088854775 98
0.24204957 1.2418548 0.10952436 85
0.24752143 1.2334706 0.1277722 81
0.22480276 1.268281 0.15943253 73
0.2314049 1.2617199 0.01022711 42
0.22853497 1.2661494 0.030982886 31
0.22390184 1.2733002 0.052467756 53
0.23481092 1.2564632 0.071171694 65
0.24924311 1.2341884 0.087603301 99
0.24148092 1.2461686 0.1102876 92
0.24800035 1.2361065 0.12822211 97
0.22855785 1.2661141 0.15839726 81
0.23744923 1.256101 0.010087491 57
0.24755159 1.2403891 0.029308135 68
0.22458315 1.2761114 0.05264207 53
0.24295247 1.247542 0.069709264 66
0.24766025 1.2402201 0.08854191 84
0.24526849 1.24394 0.10952436 85
0.25489888 1.2289621 0.12597258 99
0.22402278 1.2769828 0.16150309 70
0.23691109 1.260506 0.0101573 71
0.24696392 1.2447566 0.029517479 67
0.2326951 1.2671111 0.051596198 54
0.24346969 1.2502309 0.069953002 49
0.25347251 1.2345598 0.087290429 71
0.24684182 1.2449479 0.10952436 71
0.25432551 1.2332234 0.12687239 90
0.23194221 1.2682906 0.15839726 73
0.24076521 1.2582172 0.010087491 71
0.25076041 1.2424369 0.029308135 100
0.23656449 1.2648493 0.051247578 82
0.25152108 1.241236 0.068490572 50
0.2508679 1.2422671 0.08854191 84
0.24640051 1.2493203 0.1102876 85
0.25594425 1.2342527 0.12687239 90
0.23678464 1.2645018 0.15684435 66
0.24664354 1.2524686 0.0099478718 73
0.24276069 1.258644 0.030250182 98
0.24563083 1.2540791 0.050027397 85
0.2530854 1.2422231 0.068490572 50
0.25243565 1.2432566 0.08854191 84
0.25635174 1.2370282 0.10723466 81
0.25437352 1.2401745 0.12822211 97
0.23225641 1.2753503 0.15995017 64
0.25061414 1.2502359 0.0098780617 88
0.25731856 1.2394814 0.028994121 100
0.23484337 1.2755332 0.052119136 81
0.25280043 1.2467289 0.068978049 50
0.25425503 1.2443956 0.08854191 70
0.24360645 1.2614766 0.1125773 96
0.26339766 1.2297302 0.12507279 100
0.23624319 1.2732879 0.15891489 65
0.24694696 1.2597282 0.010052586 86
0.25257111 1.2506397 0.029622151 100
0.23861837 1.2731872 0.051770512 81
0.25856128 1.2409596 0.068003096 51
0.25790873 1.2420142 0.087916173 70
0.25350267 1.2491343 0.10952436 71
0.26492375 1.2306781 0.12507279 92
0.23994699 1.2710401 0.15787962 65
0.24447298 1.2675996 0.010192205 85
0.25007045 1.2584832 0.03004084 99
0.24663174 1.2640836 0.05072464 84
0.25397491 1.2521241 0.069465525 49
0.26575977 1.2329307 0.086038955 58
0.24695891 1.2635508 0.1125773 82
0.26755321 1.2300097 0.12462288 83
0.25284359 1.2539667 -0.0099129668 87
0.24574116 1.2655342 0.15580906 67
0.25653145 1.2515343 0.0098431576 88
0.26208597 1.2424202 0.028994121 100
0.24723497 1.2667882 0.050898954 83
0.23491395 1.2870052 0.074340299 92
0.2703805 1.2288103 0.085100345 58
0.25983599 1.2461121 0.10837951 79
0.26502362 1.2376001 0.12642249 99
0.25341824 1.2566426 0.15270324 68
0.26251897 1.2458113 0.0097035384 90
0.26493493 1.2418127 0.028889447 100
0.24708408 1.2713578 0.051247578 82
0.26153868 1.2474339 0.068490572 50
0.26703662 1.2383342 0.086664692 57
0.26166627 1.2472227 0.10837951 87
0.26984441 1.2336869 0.12507279 100
0.2452988 1.2743125 0.15787962 65
0.25895628 1.255337 0.0098780617 88
0.26341957 1.247894 0.029203463 100
0.24669898 1.2757769 0.051596198 100
0.26516533 1.244983 0.068003096 51
0.26859123 1.23927 0.086664692 57
0.26022133 1.2532274 0.10952436 85
0.2763947 1.2262571 0.12282328 93
0.25094697 1.2686931 0.15580906 67
0.25656247 1.2632241 0.010017681 87
0.27019539 1.2403092 0.028680105 100
0.25152239 1.2716957 0.051073264 83
0.26885501 1.2425623 0.067515619 51
0.26417103 1.2504354 0.08854191 70
0.26994026 1.2407382 0.10647142 81
0.28097811 1.2221851 0.12147357 86
0.24676311 1.2796954 0.15891489 65
0.25311604 1.2728041 0.010192205 85
0.27277201 1.2395147 0.028575432 100
0.25825277 1.2641046 0.050201707 85
0.26840502 1.2469107 0.068003096 68
0.27781811 1.2309686 0.084787481 59
0.26152086 1.2585697 0.1102876 85
0.27950665 1.2281089 0.12282328 85
0.25238389 1.2740442 0.15684435 66
0.2660754 1.2549068 0.0098082526 89
0.27146721 1.2456982 0.028889447 100
0.26610601 1.2548544 0.049155839 87
0.26814881 1.2513657 0.068490572 50
0.27551699 1.2387818 0.086038955 58
0.26827347 1.2511528 0.10837951 87
0.2792182 1.2324606 0.12372308 92
0.26204234 1.2617948 0.15270324 68
0.26768497 1.2558457 0.0098082526 74
0.2730462 1.2466193 0.028889447 100
0.2557033 1.2764653 0.051247578 82
0.2717413 1.248865 0.068003096 51
0.2750881 1.2431054 0.086664692 57
0.27381605 1.2452945 0.10685304 88
0.28075325 1.233356 0.12372308 83
0.26173359 1.2660877 0.15373851 68
0.27545759 1.2464812 0.0095988233 76
0.27080649 1.2545534 0.029308135 100
0.25656688 1.2792668 0.051421888 82
0.2734983 1.2498816 0.068003096 51
0.27485159 1.247533 0.087290429 57
0.27359965 1.2497057 0.10761628 87
0.28829074 1.2242086 0.12102367 86
0.25776696 1.277184 0.15684435 66
0.27207625 1.2560687 0.0097733475 89
0.28232861 1.2381381 0.028261416 100
0.26320207 1.271589 0.05055033 84
0.28001785 1.2421795 0.066784397 52
0.28330025 1.2364388 0.085100345 58
0.26934496 1.2608457 0.10990598 92
0.28883108 1.2267658 0.12147357 86
0.26136827 1.2747962 0.15580906 67
0.26991478 1.2640425 0.0099129668 87
0.27616611 1.2530158 0.029098792 100
0.26405981 1.2743701 0.05072464 84
0.27685523 1.2518003 0.068003096 51
0.2879343 1.2322578 0.084161744 59
0.27598712 1.2533315 0.10799789 79
0.29146805 1.2260246 0.12102367 86
0.26991478 1.2640425 -0.0099129668 87
0.27084243 1.2624062 0.15166797 69
0.28037861 1.249283 0.0095988233 76
0.27287313 1.2626247 0.029622151 100
0.27061823 1.2666332 0.049853086 85
0.27261475 1.2630842 0.069465525 49
0.28462604 1.2417326 0.08572609 58
0.27951655 1.2508154 0.10723466 81
0.29298171 1.2268795 0.12102367 86
0.27437121 1.2599618 0.15063268 70
0.28116304 1.2520144 0.0096337283 90
0.27954486 1.2549157 0.029098792 100
0.27632231 1.2606936 0.049155839 87
0.28022546 1.2536954 0.068003096 51
0.28347021 1.2478777 0.086664692 57
0.27841175 1.2569473 0.10837951 87
0.29465801 1.2278185 0.12102367 77
0.27805087 1.2575943 0.14959741 70
0.28566769 1.2476542 0.0095290141 76
0.28502265 1.2488198 0.028680105 100
0.27119803 1.2738013 0.05037602 84
0.28183094 1.2545874 0.068003096 51
0.28888229 1.2418454 0.085413218 73
0.28002802 1.2578453 0.10837951 94
0.29617757 1.2286626 0.12102367 86
0.27218607 1.2720158 0.15373851 68
0.27972549 1.2626454 0.0098082526 74
0.2887007 1.2462857 0.02847076 100
0.27112979 1.2783133 0.05072464 84
0.28360882 1.255567 0.068003096 51
0.29346383 1.2376037 0.084474608 59
0.28559509 1.2519464 0.10685304 66
0.29973501 1.2261728 0.12012386 77
0.28068733 1.2608922 -0.0097733475 88
0.27402791 1.2730308 0.15373851 76
0.27849263 1.268808 0.0099129668 87
0.29601064 1.2366242 0.027842728 100
0.27853206 1.2687355 0.049678773 86
0.28711855 1.2529607 0.067515619 51
0.29690465 1.2349818 0.083848871 59
0.28437898 1.2579937 0.10799789 79
0.29845417 1.2321351 0.12147357 77
0.28422868 1.2582698 -0.0097035384 89
0.28308618 1.2603688 0.14959741 70
0.28696963 1.2574809 0.0096686333 75
0.28444487 1.2621601 0.029308135 100
0.28982285 1.2521929 0.047935657 89
0.28700519 1.2574149 0.068003096 51
0.29176292 1.2485973 0.10570818 81
0.28222179 1.2662801 -0.0098431576 87
0.28488526 1.2613438 0.14959741 78
0.28772944 1.2601591 0.0097035384 90
0.29087579 1.2542789 0.028784776 100
0.28680772 1.2618817 0.048807215 58
0.29620042 1.2443277 0.066053182 52
0.29930648 1.2385228 0.084161744 59
0.29991868 1.2373786 0.10303686 76
0.29024762 1.2554529 0.14752686 71
0.29412833 1.2522395 0.0095290141 76
0.28665864 1.2663175 0.049155839 87
0.29041436 1.2592391 0.068003096 51
0.29816589 1.2446299 0.085100345 58
0.29603061 1.2486541 0.10532656 75
0.28194395 1.2752032 -0.0099827768 86
0.28832191 1.2631826 0.14959741 70
0.28929558 1.2655176 0.0097733475 89
0.29798278 1.2490059 0.028366089 100
0.29488653 1.2548909 0.047935657 89
0.29212371 1.2601422 0.068003096 51
0.29770297 1.2495378 0.10532656 75
0.28464806 1.2743511 0.15270324 76
0.29472649 1.2593328 0.0096337283 90
0.29873261 1.2516534 0.02847076 100
0.29473761 1.2593114 0.048284281 88
0.29199991 1.2645594 0.068490572 50
0.29483816 1.2591188 0.10723466 73
0.28825215 1.2717434 -0.0098780617 97
0.29534543 1.2581463 0.14752686 71
0.29551741 1.261997 0.0096686333 75
0.29766265 1.2578497 0.028784776 100
0.29187042 1.2690479 0.049155839 87
0.29555181 1.2619306 0.068003096 51
0.28816774 1.2762064 -0.0099478718 100
0.29882601 1.2556005 0.14649157 72
0.29989308 1.2574923 0.047935657 59
0.29355991 1.2698364 0.068978049 50
0.29513046 1.2710741 0.15063268 70
0.29789603 1.269948 0.0097733475 100
0.29971418 1.2663424 0.048632905 59
0.29699564 1.2717335 -0.0098082526 100
0.29601127 1.2736857 0.15115032 77
0.29696029 1.276191 -0.0098780617 100
0.29968232 1.275147 0.069221787 67
0.29777223 1.3118916 0.052293446 26
