# .PCD v0.7 - Point Cloud Data file format
VERSION 0.7
FIELDS x y z intensity
SIZE 4 4 4 4
TYPE F F F F
COUNT 1 1 1 1
WIDTH 751
HEIGHT 1
VIEWPOINT 0 0 0 1 0 0 0
POINTS 751
DATA ascii
-1.0966078 0.1474877 0.057988241 25
-1.1741056 0.16626377 0.020698555 25
-1.1845403 0.16774142 0.062698476 31
-1.0745705 0.1559968 0.018953314 5
-1.0364386 0.15415713 0.018290121 6
-1.0279866 0.15656966 0.018150503 3
-1.084733 0.16908889 0.019162742 1
0.048029006 0.01246655 0.047625721 100
0.046496809 0.015884459 0.047521047 78
0.037178516 0.0077036023 0.048149079 35
0.034520745 0.0094982982 0.048149079 17
0.026237369 0.0030555725 0.048672438 16
0.024695575 0.0065339208 0.048567768 8
0.024309456 0.011655152 0.048358422 8
0.014804065 0.0036699772 0.048986454 7
-1.0314722 1.1293017 0.084993593 3
-1.031502 1.1293085 0.14188954 4
-1.0283027 1.1340897 0.028272899 8
-1.0088644 1.1296057 0.083842203 11
-1.0225363 1.1327596 0.1411923 13
-0.99574453 1.1328357 0.027714422 13
-1.007472 1.1355885 0.083842203 65
-1.019192 1.1383396 0.14101799 61
-1.0042591 1.1402767 0.027888946 42
-0.99070817 1.1370485 0.083004825 100
-1.0276527 1.1458499 0.14188954 100
-0.9912954 1.1428785 0.027679516 38
-0.98747629 1.1419547 0.082900152 100
-1.0089025 1.1471381 0.14032075 91
-0.9822821 1.146081 0.027539898 33
-0.99593276 1.1494315 0.083423518 100
-0.99409848 1.1489812 0.13910057 91
-0.97701281 1.150727 0.027470088 25
-0.98484212 1.1526791 0.082900152 67
-0.98496634 1.1527101 0.13840333 91
-0.97186452 1.1548083 0.027400278 33
-0.98356467 1.1577667 0.082900152 41
-1.0126626 1.1651242 0.14101799 66
-0.96850711 1.1598864 0.027365373 53
-0.97052604 1.1604047 0.08227212 36
-0.98997623 1.1653987 0.13910057 89
-0.97301143 1.166431 0.027470088 61
-0.96922308 1.1654449 0.08227212 88
-0.9770878 1.1674919 0.1380547 91
-0.9598785 1.169209 0.027260659 72
-0.96962434 1.1717858 0.082376793 100
-0.97362405 1.1728433 0.13788038 98
-0.94309384 1.1700733 0.026981421 88
-0.96828359 1.1768229 0.082376793 94
-0.96265727 1.1753153 0.13700883 100
-0.95519644 1.1789528 0.027225753 92
-0.94179827 1.1753126 0.081016064 100
-0.97084671 1.1832049 0.13788038 100
-0.95375973 1.1842045 0.027225753 93
-0.93844885 1.1799871 0.08091139 100
-0.9693951 1.1885111 0.13788038 94
-0.95230478 1.189451 0.027225753 89
-0.9447034 1.1873287 0.081330076 94
-0.95641094 1.1905975 0.13683452 98
-0.93928653 1.1914256 0.027016325 85
-0.94323748 1.1925436 0.081330076 86
-0.94726521 1.1936834 0.13613728 100
-0.94941491 1.1996671 0.027225753 61
-0.93606812 1.1958425 0.081016064 62
-0.94968253 1.1997437 0.13648589 100
-0.94790596 1.2048984 0.027225753 44
-0.93073648 1.1999135 0.080806717 20
-0.95774025 1.2077537 0.13735744 91
-0.93870491 1.2078674 0.027086135 61
-0.92156237 1.2028253 0.080388032 26
-0.95429152 1.2124518 0.13718314 85
-0.93141812 1.2113484 0.026981421 74
-0.91812855 1.2073891 0.080283359 28
-0.93937176 1.2137179 0.13596296 91
-0.91646737 1.2124733 0.026737086 81
-0.92806548 1.2159728 0.08091139 50
-0.92636913 1.215461 0.1349171 100
-0.911089 1.2164209 0.026667276 89
-0.92076951 1.2193787 0.080597371 100
-0.93242699 1.2229404 0.13561434 99
-0.90188032 1.2191544 0.026527658 88
-0.90583557 1.2203779 0.079864666 95
-0.92512673 1.2263459 0.13509139 85
-0.91175348 1.2278056 0.026737086 88
-0.89853674 1.2236662 0.079550654 82
-0.93303138 1.2344697 0.13596296 63
-0.91014653 1.2329053 0.026737086 83
-0.91407913 1.2341521 0.080492698 64
-0.9048118 1.231214 0.1335226 48
-0.89328915 1.2331116 0.026457848 81
-0.91054827 1.2386496 0.080388032 76
-0.90509003 1.2368982 0.13369691 45
-0.89182717 1.2376435 0.026457848 93
-0.9109686 1.2438519 0.080492698 100
-0.90740651 1.2426965 0.13404553 54
-0.89398593 1.2439208 0.026527658 100
-0.89412433 1.2439661 0.079655327 100
-0.90953368 1.2490236 0.13439415 73
-0.88852721 1.2476978 0.026457848 100
-0.8867746 1.2471159 0.079341307 100
-0.91163439 1.2553712 0.13474278 82
-0.88685101 1.2527164 0.026457848 100
-0.88888699 1.2534003 0.079550654 100
-0.89671069 1.2560288 0.1335226 86
-0.87371272 1.2541168 0.02624842 96
-0.88521463 1.2580279 0.07944598 100
-0.89303321 1.2606865 0.13334829 88
-0.86823219 1.2577828 0.02617861 100
-0.88539106 1.2636844 0.079550654 100
-0.8875435 1.2644247 0.13299966 100
-0.87416214 1.2651098 0.02631823 85
-0.86865395 1.2631948 0.078713275 100
-0.90471512 1.2757316 0.13474278 84
-0.87431163 1.2707412 0.026353134 75
-0.85938686 1.2654941 0.07829459 74
-0.90670007 1.2821279 0.13509139 43
-0.87820762 1.2777194 0.026457848 81
-0.85388499 1.2690728 0.078085244 34
-0.88049871 1.2785339 0.13282534 39
-0.86137205 1.2772906 0.02617861 96
-0.85777289 1.2759969 0.078399263 19
-0.87871498 1.2835242 0.13282534 30
-0.84831589 1.2781163 0.025969181 99
-0.86538392 1.2843184 0.078922622 61
-0.87878627 1.2891886 0.13299966 18
-0.84662324 1.2827506 0.025969181 99
-0.85617107 1.2862558 0.078503937 100
-0.86583477 1.2898037 0.13195379 15
-0.84107536 1.286231 0.025899371 100
-0.84125298 1.2862971 0.077771232 100
-0.8696155 1.2968223 0.13247673 3
-0.84310073 1.2922451 0.025969181 100
-0.83579296 1.2895055 0.077561885 48
-0.87159187 1.3029258 0.13282534 1
-0.82995802 1.2930948 0.025759751 93
-0.84321743 1.298121 0.078085244 48
-0.83423144 1.2947147 0.12951343 5
-0.82634836 1.296953 0.025724847 71
-0.84705418 1.3048805 0.078399263 55
-0.84736925 1.3050011 0.13090792 24
-0.82813746 1.3034377 0.025794657 72
-0.83018357 1.3042297 0.077561885 72
-0.84168285 1.3086808 0.1305593 61
-0.83381075 1.3109169 0.025934275 83
-0.82840437 1.3088036 0.077561885 57
-0.8603012 1.3212717 0.13247673 100
-0.83367866 1.31672 0.025969181 99
-0.83013541 1.31532 0.077771232 72
-0.83974129 1.3191154 0.13073361 99
-0.82071406 1.3168595 0.025759751 100
-0.83202964 1.3213739 0.077980578 91
-0.82310826 1.3178146 0.12933913 97
-0.80766839 1.3171558 0.025550323 100
-0.83009654 1.3261948 0.077980578 91
-0.83227545 1.3270729 0.130385 100
-0.80584651 1.321655 0.025550323 100
-0.82084459 1.3277574 0.077561885 100
-0.83595699 1.3339062 0.13090792 100
-0.77939671 1.3108935 0.17622307 15
-0.81491238 1.3311833 0.025759751 100
-0.80401331 1.3267021 0.076724514 100
-0.82466727 1.3351941 0.13003637 100
-0.77924126 1.3165171 0.17646681 16
-0.80934995 1.3341733 0.025689943 100
-0.79847032 1.329658 0.076515168 100
-0.81542474 1.3366945 0.12933913 100
-0.79575628 1.3285315 0.17890419 19
-0.79620832 1.334512 0.025480513 100
-0.80746132 1.3392308 0.0771432 99
-0.80966371 1.3401543 0.1289905 100
-0.79370004 1.3334602 0.17890419 21
-0.79432899 1.338973 0.025480513 100
-0.80188757 1.3421721 0.076933853 85
-0.80226105 1.3423302 0.12846756 100
-0.78451174 1.3348181 0.17792924 18
-0.8014279 1.3478272 0.025655037 67
-0.79978138 1.3471233 0.076933853 42
-0.80198628 1.3480661 0.12864187 61
-0.77695686 1.3373642 0.17719802 15
-0.81970102 1.3610203 0.026038991 70
-0.81253082 1.3579264 0.077771232 63
-0.82018477 1.3612292 0.1305593 22
-0.78600413 1.3464803 0.17866045 7
-0.810193 1.3628407 0.025899371 100
-0.80121225 1.3589264 0.077247873 100
-0.81983513 1.3670433 0.13073361 90
-0.76204509 1.3418554 0.17573559 16
-0.7935757 1.3609076 0.025620133 100
-0.81387788 1.3698366 0.078085244 100
-0.80872864 1.3675718 0.12986206 100
-0.78921539 1.35899 0.17963541 38
-0.78957337 1.3650163 0.025585229 100
-0.80619425 1.3723991 0.077771232 100
-0.81563359 1.3765918 0.13073361 100
-0.75802082 1.3510013 0.17573559 26
-0.79489213 1.3727264 0.025724847 100
-0.80418926 1.376893 0.077771232 100
-0.80816013 1.3786726 0.13021068 100
-0.76152152 1.357771 0.17646681 22
-0.80381864 1.3821261 0.025934275 100
-0.80034941 1.3805575 0.077666558 100
-0.81339592 1.3864565 0.13090792 100
-0.77403551 1.3686597 0.17841671 15
-0.8054201 1.388272 0.026004085 100
-0.80740291 1.3891765 0.078189917 100
-0.80409342 1.3876668 0.13021068 100
-0.78649157 1.3796377 0.18036664 15
-0.79384714 1.3895221 0.025829561 100
-0.81397551 1.3988013 0.078713275 100
-0.79436547 1.389761 0.12951343 100
-0.78583628 1.385829 0.18061037 12
-0.78815895 1.3922886 0.025759751 100
-0.81369382 1.4041631 0.078817949 100
-0.80314249 1.3992565 0.1305593 100
-0.76938695 1.383559 0.17866045 14
-0.79332966 1.4001195 0.025899371 100
-0.80615872 1.4061372 0.078503937 100
-0.81187123 1.4088168 0.13160518 100
-0.75835901 1.3837157 0.17744176 7
-0.80207831 1.4097021 0.0261088 100
-0.79862553 1.4080684 0.078189917 100
-0.81514829 1.4158857 0.1321281 100
-0.76887745 1.3939939 0.17914793 3
-0.79792017 1.4137914 0.026073895 100
-0.79627794 1.413007 0.078189917 100
-0.80378252 1.4165914 0.13125655 100
-0.79037315 1.4156544 0.025969181 100
-0.80853325 1.424402 0.079027295 100
-0.80163091 1.4210773 0.13125655 100
-0.78799766 1.4205627 0.025969181 100
-0.80971795 1.4311236 0.079236634 100
-0.80281919 1.4277692 0.13160518 100
-0.79301482 1.4285176 0.0261088 100
-0.800345 1.4321117 0.078817949 100
-0.80420834 1.434006 0.13195379 100
-0.79776114 1.4369833 0.02624842 100
-0.7979092 1.4370565 0.078817949 100
-0.81247967 1.4442673 0.13299966 100
-0.80627769 1.4468063 0.026457848 100
-0.80462521 1.4459817 0.079341307 100
-0.80488795 1.4461129 0.13247673 100
-0.79307193 1.4463761 0.02624842 100
-0.80749005 1.4536371 0.079655327 100
-0.80240077 1.4510741 0.13247673 100
-0.78725559 1.4490155 0.02617861 100
-0.80699641 1.4590392 0.07976 100
-0.80013484 1.4555552 0.13247673 100
-0.79199654 1.4573256 0.02631823 100
-0.79924995 1.4610405 0.07944598 100
-0.81724018 1.4702544 0.13439415 100
-0.79326361 1.463607 0.026388038 100
-0.79340166 1.4636782 0.079236634 100
-0.81668085 1.4756987 0.13456847 100
-0.79780608 1.4722215 0.026527658 100
-0.80147773 1.4741344 0.079864666 100
-0.80348343 1.4751794 0.1335226 100
-0.78484792 1.471108 0.02631823 99
-0.79559892 1.4767549 0.079655327 100
-0.80113763 1.4796638 0.1335226 100
-0.77873534 1.4741231 0.02624842 60
-0.79476434 1.4826171 0.07976 57
-0.80732983 1.4892759 0.13439415 91
-0.20749056 1.4071887 0.017277882 6
-0.19926941 1.4045279 0.017138263 7
-0.19400692 1.4045441 0.017068453 12
-0.19330436 1.4084404 0.017103359 19
-0.18653411 1.4071064 0.016998643 23
-0.18743342 1.4121718 0.017068453 25
-0.18969768 1.4186975 0.017173167 18
-0.20691371 1.438484 0.01762693 7
-0.19262201 1.4304905 0.017347692 6
-0.18733281 1.4304104 0.017277882 6
-0.19541728 1.4423556 0.017522216 10
-0.20046687 1.4516761 0.01769674 5
-0.2039848 1.4596903 0.01783636 5
-0.1824525 1.4447052 0.017382598 14
-0.18595707 1.4526976 0.017522216 12
-0.20256639 1.4730084 0.017975979 3
-0.1928252 1.4687802 0.017801454 3
-0.19631177 1.4767396 0.017941074 3
-0.19239306 1.4779603 0.017906168 5
-0.19135964 1.4819325 0.017941074 3
-0.18599504 1.4817358 0.017871264 3
-0.18637139 1.4870908 0.017941074 3
0.13516143 1.2857707 0.011553493 11
0.12672532 1.2962594 0.13127659 11
0.17260191 1.2392209 0.13901976 7
0.1568439 1.2621456 0.010995016 25
0.16604906 1.2506229 0.032238949 30
0.162011 1.2556776 0.054385185 25
0.138652 1.2849181 0.080921248 13
0.1529946 1.2669642 0.10074379 11
0.14440259 1.2777195 0.12631555 47
0.19118834 1.2191539 0.13272113 15
0.14244983 1.280164 0.17496167 7
0.16220686 1.2587472 0.010890301 100
0.17385206 1.2440705 0.031715591 92
0.15247822 1.2710085 0.055953987 97
0.16133723 1.2598432 0.076777689 29
0.1669229 1.2528034 0.097615108 24
0.16927373 1.2498406 0.11906482 100
0.18541223 1.2295008 0.13542053 30
0.15374991 1.2694058 0.17082056 36
0.16523799 1.2585943 0.010855397 100
0.17559212 1.245446 0.031715591 92
0.15801516 1.2677662 0.055431053 100
0.1631352 1.2612644 0.076777689 29
0.17358357 1.2479966 0.096363634 37
0.16010332 1.2651145 0.12249938 100
0.18227622 1.236958 0.13722014 45
0.15677819 1.2693371 0.17030293 43
0.1656284 1.2614427 0.010890301 100
0.17347944 1.2514045 0.032029606 100
0.15475813 1.2753409 0.056128297 100
0.17577311 1.248472 0.074584037 30
0.17517072 1.2492422 0.096363634 25
0.17868045 1.2447548 0.11715672 100
0.18622789 1.2351049 0.13632034 38
0.15724602 1.2721599 0.17082056 36
0.16497985 1.2660074 0.010960111 100
0.18259451 1.243315 0.031401575 62
0.16394314 1.2673429 0.055082429 100
0.17509487 1.2529765 0.075071514 30
0.17692974 1.2506127 0.096363634 25
0.187646 1.2368073 0.11486702 74
0.18912995 1.2348957 0.13587044 30
0.14013594 1.298013 0.17910278 33
0.16540584 1.2688651 0.010995016 64
0.1841661 1.2445308 0.031401575 31
0.16802746 1.2654645 0.054733805 50
0.17185044 1.2605057 0.076046467 44
0.18817425 1.2393317 0.093860678 39
0.1736131 1.2582194 0.11982805 12
0.18829393 1.2391765 0.13677025 15
0.15132523 1.2871294 0.17496167 49
0.16958034 1.2670287 0.010925206 65
0.17125776 1.2648371 0.032657638 29
0.16975927 1.2667949 0.054733805 50
0.17718452 1.2570937 0.075315252 60
0.18861413 1.2421606 0.094173551 52
0.18963858 1.2408221 0.11524864 20
0.20177814 1.2249614 0.13227122 31
0.16370025 1.2747111 0.17030293 58
0.17607114 1.2619195 0.010785587 39
0.17531806 1.2629102 0.032448292 29
0.17261451 1.266467 0.054559495 50
0.18721086 1.2472649 0.073609084 62
0.18779102 1.2465016 0.094799288 51
0.19951838 1.2310737 0.1125773 13
0.1997509 1.2307678 0.13362093 38
0.17122141 1.2682996 0.16771474 67
0.17546806 1.2664796 0.010855397 39
0.14104274 1.3121138 0.035588451 25
0.17443669 1.2678468 0.054559495 50
0.19254902 1.2438371 0.072877869 47
0.18359175 1.2557108 0.096363634 50
0.20594001 1.2260859 0.11105084 14
0.20613644 1.2258255 0.13182132 39
0.17537716 1.2666001 0.16667947 67
0.17711651 1.2677188 0.010855397 39
0.17876834 1.265514 0.032448292 29
0.17847887 1.2659004 0.054210871 51
0.19055161 1.2497859 0.073609084 62
0.19704846 1.241114 0.093234941 53
0.1992144 1.238223 0.11372216 13
0.21232364 1.2207249 0.13002171 40
0.18165922 1.2616553 0.16460891 69
0.18490881 1.2610583 0.010680873 80
0.18535361 1.2604601 0.032029606 30
0.18267643 1.264061 0.053862248 51
0.19468132 1.2479141 0.073121607 78
0.20231333 1.2376487 0.092296332 80
0.19859016 1.2426565 0.1144854 13
0.20700163 1.2313428 0.13272113 39
0.18576896 1.2599014 0.16357364 69
0.18662512 1.2623298 0.010680873 93
0.190626 1.256909 0.031715591 61
0.18558642 1.2637371 0.053687938 78
0.19163638 1.2555401 0.07409656 76
0.20864007 1.2325021 0.091044858 81
0.21423247 1.224925 0.10990598 14
0.22018653 1.216858 0.12822211 24
0.18862846 1.2596154 0.163056 70
0.1978848 1.2507522 0.010401634 97
0.19477335 1.2550004 0.031506244 62
0.1932849 1.2570326 0.05281638 79
0.20045617 1.2472415 0.072634131 78
0.20683587 1.2385311 0.091983467 100
0.21706218 1.2245688 0.10952436 14
0.21376616 1.229069 0.13137141 15
0.18928391 1.2624953 0.16357364 69
0.19721317 1.2552131 0.010471444 82
0.21408632 1.2320063 0.029936166 66
0.18092722 1.2776124 0.054908119 100
0.20679367 1.2420363 0.071659178 80
0.20615011 1.2429216 0.092609204 100
0.21865097 1.2257283 0.10952436 14
0.2474584 1.1861073 0.11877415 17
0.18873313 1.2668763 0.16460891 85
0.19188723 1.2661705 0.010680873 80
0.22037658 1.226698 0.029517479 67
0.18853149 1.2708199 0.054036561 100
0.20844349 1.2432315 0.071659178 80
0.2158955 1.2329066 0.090419121 100
0.20990297 1.2412094 0.11295892 13
0.24321032 1.1950616 0.12102367 8
0.18368617 1.2775332 0.16771474 67
0.19827992 1.2609153 0.010541254 95
0.21499348 1.2375872 0.030145511 65
0.19144228 1.2704589 0.053862248 100
0.20431679 1.2524893 0.072877869 94
0.21636292 1.2356758 0.090731993 100
0.20926306 1.2455854 0.11372216 13
0.24015608 1.2024664 0.12282328 8
0.20008662 1.2583935 0.16098544 72
0.19767776 1.2653992 0.010611063 94
0.20505226 1.2550299 0.03119223 94
0.20473859 1.255471 0.052119136 100
0.20715359 1.2520753 0.072634131 78
0.2168456 1.2384474 0.091044858 100
0.20751172 1.2515717 0.11486702 20
0.22472623 1.2273664 0.12957181 16
0.2062721 1.2533147 0.15891489 81
0.20632872 1.2568243 0.010401634 97
0.21711412 1.2415463 0.030250182 98
0.20183912 1.263184 0.05281638 100
0.21227294 1.248404 0.071902916 48
0.22190052 1.2347661 0.090106249 96
0.21372378 1.2463489 0.11334054 48
0.22070536 1.2364591 0.13182132 23
0.19904822 1.2671373 0.163056 70
0.20556358 1.261176 0.010471444 96
0.22318405 1.2360487 0.029831495 99
0.20110235 1.2675378 0.053165004 100
0.21719676 1.2445867 0.071171694 65
0.22109392 1.2390293 0.090731993 95
0.20733154 1.2586548 0.11601187 99
0.23336107 1.221536 0.1273223 48
0.20283008 1.265074 0.16202073 70
0.21184981 1.2558103 0.010331824 98
0.22823587 1.2322689 0.029517479 67
0.20056477 1.2720232 0.053513627 100
0.21658731 1.2490041 0.071659178 64
0.22386166 1.2385533 0.090419121 100
0.21801201 1.2469573 0.11295892 89
0.23159927 1.2274368 0.128672 81
0.20124942 1.2710396 0.16357364 69
0.21135989 1.2603374 0.010401634 97
0.22425738 1.2416623 0.03004084 99
0.21372935 1.2569064 0.051770512 100
0.2183452 1.2502229 0.071659178 80
0.23119396 1.2316184 0.088854775 98
0.21976238 1.2481709 0.11295892 89
0.22995573 1.2334113 0.13002171 96
0.2107729 1.2611872 0.15995017 72
0.21307355 1.2615163 0.010401634 97
0.22703502 1.2411491 0.029936166 66
0.21092504 1.2646507 0.052467756 100
0.21328929 1.2612016 0.073121607 78
0.22833976 1.2392457 0.090106249 96
0.22698361 1.2412241 0.11105084 98
0.22826985 1.2393477 0.13137141 94
0.21467409 1.2591815 0.15891489 73
0.22154048 1.2527696 0.010192205 85
0.23429906 1.234017 0.029412808 67
0.21153301 1.2674785 0.05264207 79
0.211656 1.2672977 0.073852822 100
0.22997969 1.2403656 0.090106249 96
0.22973484 1.2407255 0.11066922 100
0.22552535 1.2469126 0.13317102 100
0.21529698 1.2619462 0.15943253 73
0.21763226 1.2621994 0.010366729 41
0.22586122 1.2500131 0.030354854 32
0.20435163 1.2818664 0.054036561 77
0.2278358 1.247089 0.070684217 98
0.23051804 1.243117 0.090419121 100
0.23137993 1.2418406 0.11066922 92
0.23918828 1.2302773 0.12822211 97
0.21593511 1.2647126 0.15995017 72
0.21258479 1.2732644 0.010576159 40
0.23857704 1.2344962 0.029308135 34
0.20494145 1.2846646 0.054210871 51
0.22831422 1.2498035 0.070927955 97
0.23208871 1.2441738 0.090419121 100
0.22638661 1.2526786 0.11295892 100
0.24071634 1.2313054 0.12822211 97
0.21435007 1.2706314 0.16150309 70
0.21655911 1.2711096 0.010506349 40
0.21143323 1.2788129 0.032029606 30
0.22771093 1.2543501 0.050898954 55
0.23109069 1.2492709 0.070684217 65
0.23921734 1.2370577 0.088854775 98
0.23024863 1.2505363 0.11219569 100
0.24016938 1.2356269 0.1291219 96
0.223591 1.2605417 0.15787962 73
0.22263169 1.2655386 0.010366729 27
0.19991148 1.2999303 0.03328567 28
0.21943486 1.2703776 0.052467756 53
0.23049337 1.2536384 0.071171694 65
0.23532364 1.2463267 0.090419121 100
0.23617256 1.2450417 0.11066922 92
0.23527017 1.2464076 0.13182132 94
0.22096008 1.2680689 0.15995017 72
0.22655627 1.2633337 0.010296919 28
0.23242575 1.2543812 0.030354854 32
0.22446075 1.2665298 0.051944822 54
0.24197921 1.2398098 0.068978049 100
0.23698825 1.2474222 0.090419121 100
0.24429131 1.2362833 0.10837951 87
0.23693508 1.2475034 0.13182132 94
0.22375989 1.2675989 0.15943253 73
0.22828031 1.2644597 0.010296919 42
0.22322604 1.2722278 0.031401575 31
0.22510937 1.2693331 0.052119136 54
0.24253842 1.242546 0.069221787 83
0.24188861 1.2435447 0.089480512 100
0.23949659 1.247221 0.11066922 85
0.24710608 1.2355258 0.12822211 97
0.22233808 1.2735925 0.16098544 72
0.22783881 1.2689395 0.010366729 41
0.24664906 1.2398076 0.029308135 34
0.22361207 1.2754856 0.05264207 53
0.24849698 1.2369456 0.068246834 85
0.25104415 1.2330008 0.087290429 85
0.24222925 1.2466527 0.1102876 85
0.24767581 1.2382175 0.128672 97
0.22724169 1.2698643 0.15943253 73
0.23182678 1.2667491 0.010296919 56
0.2472958 1.2425982 0.029412808 67
0.23406386 1.2632565 0.051247578 55
0.238433 1.2564352 0.070927955 48
0.25487402 1.2307665 0.086664692 86
0.24186054 1.251084 0.11105084 91
0.25359824 1.2327584 0.12687239 99
0.23532772 1.2612833 0.1563267 74
0.23892605 1.2594185 0.010122396 85
0.25001866 1.2419662 0.029308135 68
0.24647507 1.2475415 0.049504463 57
0.24439222 1.2508185 0.069953002 49
0.25648418 1.231794 0.086664692 71
0.25196669 1.2389015 0.10799789 72
0.25835139 1.2288563 0.12552269 90
0.24222594 1.2542268 0.15373851 76
0.2480202 1.2486091 0.0098780617 73
0.24838811 1.2480259 0.029622151 100
0.23742864 1.2653956 0.051247578 82
0.2481069 1.2484716 0.069465525 49
0.25274673 1.241118 0.088229038 56
0.24514228 1.2531703 0.11105084 100
0.25363535 1.2397096 0.12822211 97
0.23970991 1.26178 0.15580906 75
0.2422646 1.2615246 0.010122396 85
0.25853747 1.235533 0.028784776 100
0.23598796 1.2715498 0.051770512 81
0.24977893 1.2495224 0.069465525 49
0.2533448 1.243827 0.08854191 56
0.25724891 1.2375911 0.10723466 81
0.2583791 1.235786 0.12687239 99
0.2352775 1.2726846 0.15891489 65
0.24292699 1.2642944 0.0101573 71
0.25594848 1.2433338 0.029203463 100
0.23984337 1.269258 0.051421888 82
0.24935955 1.2539399 0.069953002 49
0.26021257 1.2364699 0.086977564 57
0.24541485 1.2602897 0.11219569 77
0.26926187 1.2219032 0.12282328 85
0.24009243 1.2688572 0.15736198 66
0.24561739 1.2636079 0.010122396 85
0.25751972 1.2443063 0.029203463 100
0.24150068 1.2702839 0.051421888 82
0.24992406 1.2566239 0.07019674 66
0.26279786 1.2357469 0.086664692 86
0.25116426 1.2546127 0.11066922 85
0.26871628 1.2261491 0.12372308 92
0.24884629 1.2583717 0.15373851 68
0.25665143 1.2492645 0.0098082526 74
0.25492349 1.2520875 0.029622151 100
0.2473219 1.2645068 0.05072464 84
0.25050309 1.2593094 0.070440479 49
0.26125017 1.2417512 0.087603301 57
0.25379786 1.2539265 0.1102876 85
0.26514375 1.2353899 0.12597258 90
0.2524845 1.2560723 0.15270324 68
0.25928065 1.2485256 0.0097733475 89
0.25548676 1.2547703 0.029726824 100
0.25103238 1.2621022 0.05037602 84
0.26037297 1.2467276 0.068490572 50
0.26384181 1.2410178 0.087290429 57
0.25642359 1.2532282 0.10990598 92
0.26770043 1.2346666 0.12552269 82
0.24807969 1.2669624 0.15580906 67
0.2548444 1.2598648 0.0099827768 87
0.26654232 1.2404499 0.028784776 100
0.24666858 1.273434 0.051421888 82
0.25495088 1.2596881 0.07019674 33
0.26557007 1.2420635 0.087290429 57
0.26934195 1.2358034 0.10570818 81
0.27543971 1.2256831 0.12282328 85
0.24591517 1.2746844 0.15787962 65
0.25441781 1.2642733 0.010052586 86
0.27015409 1.237959 0.028575432 100
0.25038487 1.2710173 0.051073264 83
0.2616705 1.2521453 0.068978049 33
0.26916477 1.2396134 0.086664692 57
0.25980431 1.255266 0.10990598 78
0.27695233 1.2265911 0.12282328 85
0.24957344 1.2723742 0.15684435 66
0.25419134 1.2687933 0.010122396 85
0.26881477 1.2441353 0.028889447 100
0.2573047 1.2635436 0.050201707 85
0.26546475 1.249784 0.068490572 33
0.27592599 1.2321444 0.085100345 58
0.25858051 1.2613922 0.11105084 84
0.27862763 1.2275888 0.12282328 85
0.2533876 1.2701485 0.15580906 67
0.26294726 1.2577081 0.0098780617 88
0.26734933 1.2502289 0.029203463 100
0.26096418 1.2610774 0.049853086 85
0.26605043 1.2524357 0.068734311 50
0.27645802 1.234753 0.085413218 73
0.27216166 1.2420526 0.10647142 73
0.2781696 1.231845 0.12372308 83
0.26092723 1.2611401 0.15270324 68
0.26977673 1.2501216 0.0097035384 90
0.27313843 1.2443618 0.028784776 100
0.26678327 1.2552505 0.049155839 87
0.26181674 1.2637599 0.07019674 49
0.27418032 1.2425766 0.086664692 71
0.27092481 1.2481545 0.10761628 79
0.27691725 1.2378874 0.12507279 92
0.25883409 1.2688701 0.15477379 67
0.27036816 1.2527785 0.0097384425 75
0.2697078 1.2539186 0.029308135 100
0.26040515 1.2699795 0.05055033 84
0.26644054 1.2595595 0.069465525 66
0.27673903 1.2417793 0.086351827 58
0.26955995 1.2541739 0.10876112 79
0.28530741 1.2269863 0.12192347 76
0.25855348 1.2731764 0.15580906 67
0.27413133 1.2503321 0.0096686333 75
0.27844623 1.2428192 0.028575432 100
0.25827053 1.2779484 0.051247578 82
0.26527083 1.2657597 0.07019674 49
0.28338906 1.2342129 0.084787481 59
0.27133644 1.2551985 0.10876112 87
0.2889252 1.2245736 0.12102367 86
0.26915175 1.2590024 -0.0098431576 87
0.26424819 1.2675403 0.15373851 68
0.26879457 1.2634058 0.0099129668 87
0.28001565 1.2437171 0.028575432 100
0.26982197 1.261603 0.049504463 86
0.27674568 1.2494546 0.067759357 68
0.2849299 1.2350945 0.084787481 59
0.26808634 1.2646483 0.11066922 78
0.28850418 1.2288231 0.12192347 85
0.26879457 1.2634058 -0.0099129668 87
0.26972592 1.2617716 0.15166797 69
0.27257246 1.2609512 0.0098431576 88
0.27192786 1.2620919 0.029622151 100
0.26966527 1.2660959 0.049853086 85
0.2765516 1.2539093 0.068246834 51
0.28955179 1.2309035 0.083848871 59
0.28052565 1.2468767 0.10647142 81
0.29114634 1.2280818 0.12147357 77
0.27343106 1.2594317 0.15063268 78
0.27811405 1.2548916 0.0097035384 90
0.2774685 1.256043 0.029203463 100
0.27813298 1.2548578 0.048632905 88
0.28204128 1.2478876 0.067271881 51
0.28431886 1.2438257 0.086038955 58
0.28114834 1.2494801 0.10685304 81
0.28980756 1.2340369 0.12282328 93
0.27028999 1.2688453 -0.0099827768 86
0.2712763 1.2670863 0.15270324 68
0.28280792 1.2506415 0.0095988233 91
0.28313345 1.2500559 0.028784776 100
0.27023131 1.2732651 0.05037602 84
0.28958169 1.2384564 0.065809444 52
0.28701708 1.2430698 0.08572609 58
0.28481534 1.2470304 0.1060898 81
0.29719117 1.2247679 0.12012386 86
0.27310008 1.2681046 0.15270324 76
0.27764261 1.2637819 0.0098431576 88
0.28665611 1.2474405 0.028575432 100
0.2738263 1.2707008 0.050027397 85
0.28250781 1.2549613 0.068003096 51
0.28954136 1.2422096 0.085413218 58
0.28260586 1.2547835 0.10761628 79
0.27957422 1.2602799 -0.0097733475 88
0.26822209 1.2808611 0.1563267 74
0.28329176 1.2577586 0.0097035384 90
0.28840777 1.2484025 0.028575432 100
0.2766192 1.2699616 0.049853086 85
0.28904894 1.2472299 0.066784397 52
0.29980326 1.2275623 0.082597397 60
0.28250068 1.2592055 0.10837951 79
0.29943725 1.2282317 0.12057377 69
0.28137299 1.2612678 -0.0097733475 88
0.28121838 1.2615504 0.15011504 78
0.28586426 1.2568827 0.0096686333 75
0.28904325 1.2510228 0.028680105 100
0.28967953 1.24985 0.047761347 90
0.28400677 1.2603066 0.068490572 67
0.29943806 1.2318621 0.083223134 60
0.28880531 1.2514615 0.10647142 81
0.29909965 1.2324859 0.12147357 77
0.27823579 1.2709444 -0.0099478718 96
0.28377113 1.260741 0.14959741 70
0.29238608 1.2490417 0.0094941091 92
0.28702423 1.2590122 0.029098792 100
0.2801162 1.271858 0.049853086 85
0.28862619 1.2560333 0.067759357 51
0.29551899 1.2432159 0.085100345 58
0.29057172 1.2524155 0.10647142 81
0.27912655 1.2736982 -0.0099827768 86
0.28740153 1.2583107 0.14856213 71
0.29021102 1.2569506 0.0096337283 90
0.29804847 1.24226 0.028052073 100
0.28271973 1.2709923 0.049678773 86
0.29210818 1.2533946 0.067271881 51
0.29708964 1.2440572 0.085100345 58
0.29586935 1.2463446 0.10494494 75
0.28079838 1.2745937 -0.0099827768 86
0.28720358 1.2625877 0.14959741 70
0.29199752 1.2578995 0.0096337283 90
0.282695 1.2754911 0.050027397 85
0.28831384 1.2648655 0.068734311 50
0.29211038 1.257686 0.10723466 73
0.28638878 1.2685061 -0.0098431576 87
0.28630155 1.2686709 0.15115032 77
0.28990117 1.2658358 0.0097733475 89
0.29455358 1.2569667 0.048109971 59
0.28903416 1.2674885 0.068978049 50
0.29828903 1.2498457 0.10532656 75
0.28990117 1.2658358 -0.0097733475 88
0.29244369 1.2609888 0.14856213 71
0.29940537 1.2520039 0.02847076 100
0.29817823 1.2543641 0.047761347 90
0.29543775 1.2596353 0.067759357 68
0.28710812 1.2756569 -0.0099478718 96
0.29246274 1.2653576 0.14959741 70
0.29520217 1.2640848 0.0097035384 100
0.2943067 1.2658213 0.048807215 58
0.29979238 1.2551838 0.067028143 51
0.2958777 1.2627749 0.14856213 71
0.29847878 1.2619389 0.1480445 79
0.29323304 1.2765535 0.0099129668 100
0.29413715 1.2747698 -0.0098780617 100
0.29233658 1.278322 0.15270324 68
0.29769644 1.2720864 -0.0098082526 100
0.29588404 1.2801236 -0.0099478718 100
