# .PCD v0.7 - Point Cloud Data file format
VERSION 0.7
FIELDS x y z intensity
SIZE 4 4 4 4
TYPE F F F F
COUNT 1 1 1 1
WIDTH 773
HEIGHT 1
VIEWPOINT 0 0 0 1 0 0 0
POINTS 773
DATA ascii
-1.168167 0.15482931 0.061756428 21
-1.0924428 0.14848073 0.057778895 27
-1.1685096 0.16297567 0.020593839 22
-1.1097207 0.1547762 0.058720943 28
-1.1897087 0.1701681 0.020977793 31
-1.0605018 0.15546669 0.01870898 6
-1.0203755 0.15340659 0.018010883 6
-1.0376215 0.15970522 0.018325027 1
0.060462356 0.0030575395 0.015881689 100
0.055146515 0.00066405535 0.047939736 58
0.056207716 0.0081718564 0.015846785 62
0.052464038 0.0023961067 0.047939736 55
0.047603309 0.0007930994 0.048149079 37
0.044921339 0.002551496 0.048149079 100
0.042904735 0.011078238 0.047835063 75
0.042489529 0.016166508 0.047625721 38
0.039861202 0.017942667 0.047625721 19
0.029350519 0.0081853271 0.048358422 17
0.030356169 0.014760971 0.04804441 9
0.027723074 0.016579449 0.04804441 9
-1.0236816 1.1275318 0.084574908 5
-1.0353878 1.1301913 0.14223817 4
-1.0320723 1.135541 0.028342709 8
-1.0009549 1.1283512 0.083423518 9
-1.010762 1.1306173 0.14014643 14
-0.99191409 1.1316527 0.027644612 13
-1.0133693 1.1366849 0.084156215 69
-1.0153768 1.1371558 0.14066938 61
-0.9886331 1.1368378 0.027609708 36
-0.99841529 1.1391702 0.083423518 100
-1.0159588 1.1433527 0.14084367 100
-0.98352081 1.1409976 0.027539898 38
-0.98165244 1.1405457 0.082586139 100
-1.0166485 1.1490121 0.14101799 87
-0.99192637 1.1487334 0.027714422 31
-0.98228937 1.1463664 0.082690813 100
-0.99983698 1.1506765 0.13962349 81
-0.9790197 1.150944 0.027504992 23
-0.98490888 1.1524112 0.082900152 65
-0.98696631 1.1529238 0.13857763 89
-0.96785313 1.1543578 0.027330469 33
-0.9911738 1.1602631 0.083318844 39
-0.98548466 1.1588225 0.13857763 77
-0.96269649 1.1583945 0.027260659 50
-0.97632951 1.1618948 0.082586139 38
-0.98997623 1.1653987 0.13910057 89
-0.95932776 1.1634318 0.027225753 61
-0.9613542 1.16396 0.081853434 88
-0.98273283 1.1695327 0.13857763 89
-0.96768147 1.1709888 0.027400278 71
-0.96197051 1.1694798 0.081958108 96
-0.96984178 1.1715595 0.13753176 98
-0.95074993 1.1724055 0.027121039 83
-0.95663792 1.1739843 0.081748761 92
-0.96258646 1.1755793 0.13700883 100
-0.94747752 1.1768556 0.027086135 92
-0.9572174 1.1795019 0.081853434 100
-0.9612332 1.180593 0.13700883 100
-0.94219238 1.1810182 0.027016325 89
-0.9422999 1.1810479 0.081120729 100
-0.9693951 1.1885111 0.13788038 94
-0.94467348 1.1870391 0.027086135 96
-0.94092864 1.1859943 0.081120729 92
-0.9718371 1.1946182 0.13822901 94
-0.95083147 1.1946925 0.027225753 89
-0.93939394 1.191456 0.081120729 80
-0.95301658 1.1953108 0.1366602 99
-0.95710415 1.2018704 0.027365373 59
-0.93222815 1.1947421 0.080806717 58
-0.94202131 1.1975484 0.13578865 100
-0.94206911 1.2034861 0.027121039 41
-0.94216925 1.2035152 0.081434749 22
-0.95001072 1.2057934 0.1366602 92
-0.93103117 1.2056103 0.026946515 61
-0.91964632 1.2022617 0.080283359 26
-0.95238012 1.2118896 0.13700883 84
-0.92766196 1.2099485 0.026911611 75
-0.91437644 1.2059929 0.080074012 28
-0.94135875 1.2140266 0.13613728 89
-0.92810959 1.2154232 0.026946515 78
-0.92439646 1.2143042 0.080702044 52
-0.93033987 1.2160953 0.13526571 100
-0.92072958 1.2190858 0.026841801 83
-0.91893774 1.2185386 0.080492698 100
-0.92107278 1.2191906 0.13456847 100
-0.90203708 1.2186475 0.026527658 85
-0.92316693 1.2251762 0.080806717 88
-0.91957515 1.2240664 0.13456847 91
-0.91175348 1.2278056 0.026737086 85
-0.90616053 1.226054 0.079969339 76
-0.92162341 1.2308967 0.1349171 61
-0.90450841 1.2308385 0.026632372 75
-0.90654427 1.2314835 0.080074012 66
-0.91628832 1.2345707 0.13456847 43
-0.90471357 1.2367773 0.026667276 78
-0.90484303 1.2368189 0.080074012 80
-0.91078144 1.2387244 0.13421984 43
-0.88794142 1.2366606 0.026388038 92
-0.90328699 1.2416408 0.080074012 100
-0.90921909 1.2435659 0.13421984 52
-0.88630372 1.241677 0.026388038 100
-0.90352935 1.247334 0.080178685 100
-0.90566415 1.2480351 0.13404553 71
-0.88473171 1.2464375 0.026388038 100
-0.8867746 1.2471159 0.079341307 100
-0.91541618 1.256627 0.13509139 82
-0.8830598 1.2514427 0.026388038 93
-0.88320714 1.2514923 0.079236634 100
-0.90426522 1.2585667 0.13421984 78
-0.8852424 1.2574785 0.026457848 99
-0.88160259 1.2562423 0.079236634 100
-0.90263718 1.2633866 0.13421984 85
-0.87192875 1.2593317 0.02624842 99
-0.87397343 1.2600354 0.078922622 100
-0.88180536 1.2627306 0.13247673 100
-0.86274344 1.2614164 0.0261088 83
-0.88365895 1.2686918 0.079550654 100
-0.89898139 1.2740216 0.13421984 84
-0.86470538 1.2679188 0.02617861 79
-0.86863369 1.2693015 0.078817949 78
-0.89336556 1.2780061 0.13387123 40
-0.86869866 1.2746179 0.026283324 83
-0.84250718 1.2653018 0.077457212 36
-0.90105897 1.2861282 0.13474278 33
-0.86881024 1.2802438 0.02631823 100
-0.84828752 1.2728631 0.077875905 19
-0.88050014 1.2844477 0.13299966 31
-0.8520748 1.2794822 0.026038991 93
-0.85975248 1.2822721 0.07860861 61
-0.87878627 1.2891886 0.13299966 18
-0.84653372 1.2829943 0.025969181 100
-0.85795563 1.28719 0.07860861 100
-0.86200362 1.288677 0.13160518 13
-0.83732587 1.2848396 0.025829561 100
-0.84499794 1.2876868 0.077980578 100
-0.88829464 1.3037543 0.13421984 3
-0.8466627 1.2941365 0.026038991 100
-0.8225221 1.2850771 0.07682918 49
-0.87140578 1.303422 0.13282534 1
-0.84865671 1.3001828 0.0261088 99
-0.83387953 1.2945812 0.077561885 51
-0.84168357 1.2975395 0.13021068 5
-0.83736783 1.3017273 0.025934275 75
-0.84127241 1.3032238 0.078085244 57
-0.85648459 1.3090541 0.13177948 31
-0.82813746 1.3034377 0.025794657 75
-0.84508437 1.3099973 0.078399263 68
-0.84539896 1.3101192 0.13090792 86
-0.82254237 1.3067884 0.025724847 83
-0.82459027 1.3075893 0.077352546 65
-0.85278279 1.3186152 0.13177948 100
-0.82633442 1.3135405 0.025829561 100
-0.82094234 1.311411 0.077247873 76
-0.84724957 1.3218002 0.13143086 97
-0.82433301 1.3185813 0.025829561 100
-0.8208037 1.3171725 0.077352546 97
-0.8267135 1.3195316 0.12968774 99
-0.81508738 1.3201458 0.025689943 100
-0.81898171 1.3217154 0.077352546 97
-0.82488364 1.3240938 0.12968774 100
-0.80194992 1.3206198 0.025480513 100
-0.82434922 1.3297426 0.077771232 97
-0.82653397 1.3306324 0.13003637 100
-0.80126935 1.3203427 0.17914793 21
-0.80751449 1.3281417 0.025620133 100
-0.81140214 1.32974 0.0771432 100
-0.81729645 1.3321636 0.12933913 100
-0.77373344 1.3142526 0.17573559 16
-0.80925149 1.3344107 0.025689943 100
-0.79283899 1.3275955 0.076201156 100
-0.81900591 1.3384609 0.12968774 100
-0.78282541 1.3234375 0.17719802 20
-0.80737239 1.3389149 0.025689943 100
-0.79098254 1.3320454 0.076201156 100
-0.80608815 1.3383768 0.12864187 100
-0.78281361 1.3286216 0.17744176 20
-0.79044765 1.3378822 0.025410704 100
-0.79249269 1.3387485 0.076410495 90
-0.79472309 1.3396934 0.12777032 100
-0.77517539 1.3314121 0.17671055 15
-0.79764992 1.3464901 0.025585229 67
-0.81620735 1.3544285 0.077875905 40
-0.80188543 1.3483019 0.12864187 65
-0.7732076 1.3360343 0.17671055 13
-0.80847996 1.3567411 0.025829561 70
-0.81049186 1.3576101 0.077666558 63
-0.83461088 1.3680273 0.13195379 22
-0.77122372 1.3406498 0.17671055 7
-0.80459052 1.3606801 0.025794657 100
-0.79927868 1.3583639 0.0771432 100
-0.82703608 1.3704678 0.13143086 86
-0.7601257 1.341291 0.17549185 18
-0.80262429 1.3651689 0.025794657 100
-0.80097634 1.3644438 0.077352546 100
-0.81227165 1.3694139 0.13021068 100
-0.78729564 1.3584242 0.17939167 35
-0.79140097 1.365828 0.025620133 100
-0.80984491 1.3740206 0.077980578 100
-0.80652934 1.3725479 0.12986206 100
-0.76709169 1.3550303 0.17695428 28
-0.79296225 1.372143 0.025689943 100
-0.815018 1.3820322 0.078399263 100
-0.80078179 1.3756491 0.12951343 100
-0.76141888 1.358 0.17646681 22
-0.79267401 1.3776517 0.025724847 100
-0.80195576 1.3818524 0.077771232 100
-0.80592006 1.3836465 0.13021068 100
-0.77382642 1.3691218 0.17841671 19
-0.7941826 1.3839965 0.025794657 100
-0.79981178 1.3865678 0.077771232 100
-0.80739433 1.3900313 0.1305593 100
-0.75728196 1.367141 0.17646681 16
-0.80655926 1.3953824 0.026073895 100
-0.80309266 1.3937843 0.078085244 100
-0.80522174 1.3947657 0.1305593 100
-0.76059777 1.3741939 0.17719802 13
-0.79167646 1.3942091 0.025829561 100
-0.80815047 1.4018736 0.078503937 100
-0.7994197 1.3978117 0.13021068 100
-0.78727812 1.3921628 0.18109785 12
-0.78586918 1.3971889 0.025759751 100
-0.8113603 1.409157 0.078817949 100
-0.80082709 1.4042118 0.1305593 100
-0.77791065 1.3934524 0.18012288 5
-0.79270738 1.406129 0.025934275 100
-0.80370611 1.4113398 0.078503937 100
-0.81120878 1.4148943 0.13177948 100
-0.76137477 1.3912847 0.17817298 3
-0.79408699 1.412537 0.026004085 100
-0.80145913 1.4160612 0.078503937 100
-0.81074697 1.4205012 0.13195379 100
-0.79386324 1.4176245 0.026038991 100
-0.80302137 1.4220378 0.078713275 100
-0.80510694 1.423043 0.13160518 100
-0.79519123 1.4240603 0.0261088 100
-0.80253321 1.4276302 0.078817949 100
-0.7920683 1.4225419 0.1305593 100
-0.7893092 1.4269906 0.026038991 100
-0.8091951 1.4367455 0.079341307 100
-0.80051488 1.4324875 0.13160518 100
-0.79059225 1.4334356 0.0261088 100
-0.80506939 1.4406 0.079236634 100
-0.80890828 1.4424999 0.13265105 100
-0.79542476 1.4416838 0.02624842 100
-0.80272037 1.4453261 0.079236634 100
-0.81724805 1.4525788 0.13369691 100
-0.8002159 1.4499738 0.026388038 100
-0.80035478 1.4500438 0.079236634 100
-0.80240077 1.4510741 0.13247673 100
-0.79426843 1.4528716 0.02631823 100
-0.8104375 1.4610852 0.079969339 100
-0.80356783 1.4575956 0.13282534 100
-0.78831726 1.4557359 0.02624842 100
-0.80979437 1.4667406 0.080074012 100
-0.8047058 1.4641333 0.13317397 100
-0.7931425 1.4638414 0.026388038 100
-0.79682952 1.465746 0.07944598 100
-0.81301743 1.4741083 0.13421984 100
-0.79780608 1.4722215 0.026527658 100
-0.79793519 1.4722888 0.079655327 100
-0.80878431 1.4779413 0.13404553 100
-0.7952233 1.4771568 0.026527658 93
-0.79535216 1.4772246 0.079655327 100
-0.80265337 1.4810627 0.13369691 100
-0.78226918 1.4759958 0.02631823 57
-0.79123479 1.4807467 0.079550654 57
-0.80204839 1.4864771 0.13387123 91
-0.1888929 1.3245748 0.016126024 8
-0.18854767 1.3283566 0.016160928 8
-0.20409423 1.3442578 0.016544882 20
-0.20377266 1.3479722 0.016579786 9
-0.20501757 1.3529127 0.016649596 35
-0.19045013 1.3455949 0.016370358 10
-0.19138271 1.3509004 0.016440166 28
-0.19416219 1.3570714 0.016544882 37
-0.19670171 1.3635279 0.016649596 35
-0.21034217 1.3784956 0.016998643 23
-0.18786985 1.3649608 0.016544882 23
-0.19055039 1.3711854 0.016649596 9
-0.18545604 1.3711069 0.016579786 9
-0.19581163 1.3837073 0.016859025 8
-0.19806737 1.3903961 0.016963739 18
-0.21289086 1.4069713 0.017347692 4
-0.20136946 1.4020398 0.017138263 7
-0.18095732 1.3890201 0.016719405 12
-0.21226478 1.4201158 0.017487312 5
-0.204036 1.4174293 0.017347692 4
-0.21212965 1.4294792 0.017592026 3
-0.19033694 1.4149275 0.017138263 7
-0.18518734 1.414742 0.017068453 7
-0.19353873 1.4264407 0.017312787 12
-0.20147055 1.4385953 0.01755712 14
-0.19478059 1.4370811 0.017452406 11
-0.17451471 1.4237311 0.017033549 15
-0.18418455 1.4368863 0.017312787 16
-0.18775421 1.4448438 0.017452406 15
-0.18845433 1.4499956 0.017522216 12
-0.19170117 1.458267 0.017661836 10
-0.1937986 1.464818 0.01776655 5
-0.19707209 1.473021 0.017906168 5
-0.19183326 1.4727441 0.01783636 5
-0.19516337 1.4808505 0.017975979 5
-0.19568664 1.4860878 0.018045789 5
-0.18887001 1.484516 0.017941074 3
-0.16786921 1.4688289 0.017487312 1
-0.18529153 1.4910569 0.017975979 3
-0.17315006 1.4891224 0.017801454 3
0.12522733 1.2983106 0.011832732 11
0.098065168 1.3320935 0.063100755 19
0.14650011 1.2718527 0.12517071 12
0.18733689 1.2210619 0.13362093 7
0.13721761 1.2833977 0.1765146 6
0.15193844 1.2684646 0.011134636 25
0.16862559 1.2475685 0.032029606 30
0.16209576 1.2557453 0.054385185 51
0.15112916 1.2694781 0.078483857 14
0.15554669 1.2639463 0.10011806 12
0.14449123 1.2777903 0.12631555 47
0.20585927 1.2009434 0.1273223 16
0.14133337 1.2817447 0.17547931 14
0.15501019 1.2683531 0.011099731 100
0.17410031 1.2442673 0.031715591 92
0.1527406 1.2712166 0.055953987 97
0.15049645 1.2740481 0.078971334 28
0.18435377 1.2313308 0.093234941 26
0.16098875 1.2608101 0.12173614 100
0.19412607 1.2190012 0.13227122 31
0.14681163 1.278697 0.1739264 35
0.16532329 1.2586614 0.010855397 100
0.16208577 1.262774 0.032866981 100
0.16056681 1.2647036 0.055082429 100
0.16813245 1.2550929 0.075802729 30
0.18344188 1.2356451 0.093860678 39
0.15897536 1.2667253 0.122881 100
0.18717927 1.2308974 0.13542053 38
0.16284004 1.2618159 0.16771474 37
0.17187259 1.2536329 0.010715778 100
0.16987291 1.2561905 0.032343622 90
0.15730071 1.2722707 0.055779677 100
0.16485241 1.2626119 0.076777689 29
0.18012121 1.2430828 0.095112152 25
0.18118179 1.2417263 0.11639348 100
0.19111025 1.2290275 0.13452072 38
0.15614378 1.2737504 0.1713382 43
0.172252 1.2564636 0.010750682 92
0.17271224 1.2558709 0.032238949 60
0.15652451 1.2767174 0.056128297 72
0.17988056 1.2466396 0.07409656 30
0.16957664 1.2599089 0.098240845 24
0.18997276 1.2336428 0.11410378 68
0.18546319 1.2394502 0.13722014 30
0.14241347 1.2948897 0.17806751 40
0.17281687 1.2594287 0.010785587 78
0.18302977 1.2461766 0.031506244 62
0.15960056 1.2765782 0.055953987 48
0.18526524 1.2432759 0.073365346 46
0.17619807 1.2550414 0.096989371 37
0.15572211 1.2816107 0.12555231 12
0.18480718 1.2438703 0.13811995 22
0.14198154 1.2994404 0.17910278 53
0.17444193 1.2606769 0.010785587 65
0.17611343 1.2584931 0.032238949 30
0.16491544 1.2731235 0.055431053 49
0.17959756 1.2539409 0.074827775 45
0.1934166 1.235886 0.092922069 53
0.18844533 1.2423811 0.11563025 13
0.20059371 1.2265089 0.13272113 31
0.16370025 1.2747111 0.17030293 58
0.17866203 1.2588652 0.010715778 53
0.16824159 1.2725837 0.033076324 29
0.17037752 1.2697718 0.054908119 50
0.18377525 1.2521337 0.074340299 61
0.19512653 1.2371898 0.092922069 53
0.19611678 1.2358861 0.11372216 13
0.20698425 1.2215792 0.13092151 48
0.17490095 1.2638167 0.16616182 68
0.18028522 1.2600939 0.010715778 39
0.1530709 1.2961693 0.03454173 27
0.16723737 1.2773902 0.055605363 49
0.19374451 1.2422523 0.072634131 78
0.19429848 1.241518 0.093547814 52
0.20594001 1.2260859 0.11105084 14
0.20613644 1.2258255 0.13182132 39
0.18003085 1.2604312 0.16460891 69
0.18696234 1.255106 0.010576159 54
0.17184773 1.2753026 0.033076324 29
0.18231988 1.2613094 0.053687938 52
0.19556043 1.2436168 0.072634131 63
0.19137731 1.2492064 0.094799288 51
0.20651749 1.2289755 0.11143246 14
0.21022445 1.2240222 0.13092151 40
0.18075919 1.2633948 0.16512655 68
0.17783755 1.270752 0.010890301 78
0.20688397 1.2316694 0.030145511 32
0.17563185 1.2737198 0.054908119 50
0.19950119 1.241603 0.072146654 79
0.20357329 1.2361239 0.091983467 53
0.19867265 1.2427179 0.1144854 13
0.22103137 1.2126337 0.1273223 32
0.17778796 1.2708187 0.16719711 67
0.18442315 1.2656753 0.010750682 79
0.19316697 1.2538197 0.031506244 62
0.1810284 1.2702781 0.054385185 76
0.20123205 1.2428845 0.072146654 79
0.20645654 1.2358007 0.091670595 81
0.20390353 1.2392623 0.11334054 13
0.22034252 1.2169732 0.12822211 24
0.18765274 1.2612963 0.16357364 69
0.18606886 1.2668848 0.010750682 79
0.20657489 1.2388874 0.030459527 65
0.19093034 1.2602473 0.053165004 100
0.20280212 1.2440385 0.072146654 95
0.20917031 1.2353438 0.09135773 94
0.21474206 1.2277365 0.1102876 14
0.22067508 1.2196361 0.128672 16
0.18814242 1.2640538 0.16409127 69
0.19948098 1.2519172 0.010401634 97
0.19990802 1.2513301 0.03119223 63
0.18787026 1.2678804 0.053862248 100
0.20437598 1.2451872 0.072146654 79
0.20141983 1.2492515 0.093860678 100
0.21048781 1.2367842 0.11219569 14
0.23248431 1.206542 0.12462288 16
0.19432807 1.2590017 0.16202073 70
0.19171405 1.2660455 0.010680873 80
0.21320054 1.2362975 0.030145511 98
0.18485692 1.2755392 0.054559495 100
0.20130441 1.2527676 0.073121607 78
0.20763755 1.2439995 0.092609204 93
0.21778524 1.22995 0.1102876 14
0.22936955 1.2139115 0.12642249 16
0.19142702 1.2664428 0.16409127 69
0.19586438 1.2641046 0.010611063 94
0.21723887 1.234282 0.029936166 99
0.18206963 1.2833517 0.055256739 99
0.19960693 1.2588829 0.073852822 100
0.21167862 1.2420399 0.091983467 93
0.2148985 1.2375474 0.11181407 14
0.24348632 1.1976604 0.12147357 17
0.1977506 1.2614729 0.16202073 70
0.19518581 1.2685347 0.010680873 80
0.21414787 1.2418919 0.030354854 65
0.19301626 1.271583 0.053862248 100
0.20928743 1.248721 0.072146654 63
0.21897295 1.2351123 0.090419121 100
0.19595972 1.2674472 0.1186832 19
0.22682655 1.2240775 0.128672 16
0.20162266 1.2594905 0.16098544 72
0.20624375 1.2567642 0.010401634 97
0.22164038 1.2349623 0.029831495 99
0.2040517 1.2598683 0.052467756 100
0.21104434 1.2499666 0.072146654 63
0.21726134 1.2411631 0.09135773 100
0.21024308 1.2511011 0.1144854 54
0.22961715 1.2236671 0.12822211 24
0.20787671 1.254452 0.15891489 73
0.20556358 1.261176 0.010471444 96
0.21974388 1.2409545 0.030145511 65
0.20339021 1.2642753 0.05281638 100
0.21035835 1.2543385 0.072634131 63
0.21542314 1.247116 0.092296332 100
0.21071315 1.2538326 0.11486702 100
0.22552899 1.2327048 0.13047162 56
0.20283008 1.265074 0.16202073 70
0.2119346 1.2558694 0.010331824 98
0.22261298 1.2405224 0.03004084 99
0.19610062 1.278626 0.054210871 100
0.21553713 1.2506918 0.071902916 100
0.22055876 1.2434746 0.09135773 94
0.22033787 1.2437921 0.11219569 91
0.22500104 1.2370901 0.13137141 94
0.20685369 1.2631717 0.16098544 72
0.209001 1.2635686 0.010471444 96
0.22644562 1.2383189 0.029831495 99
0.2045843 1.2699615 0.053165004 100
0.229545 1.2338328 0.069221787 33
0.23560476 1.2250619 0.087603301 100
0.22637463 1.2384217 0.11066922 85
0.23541337 1.2253389 0.1277722 81
0.20300049 1.2722539 0.16357364 69
0.20846412 1.2680542 0.010541254 81
0.22243467 1.2476814 0.030354854 97
0.20407805 1.2744505 0.053513627 100
0.21320355 1.261143 0.073121607 62
0.23496082 1.2294147 0.088229038 98
0.21690863 1.2557399 0.1144854 100
0.23369843 1.2312558 0.1291219 96
0.2124036 1.2623094 0.15995017 72
0.21912113 1.2559607 0.010262015 84
0.21615204 1.2603214 0.031087559 63
0.21920869 1.2558322 0.051421888 100
0.22377184 1.2491302 0.071171694 81
0.22981551 1.2402539 0.090106249 100
0.23067546 1.2389909 0.1102876 92
0.23193946 1.2371345 0.13047162 100
0.21186352 1.2666199 0.16098544 72
0.22202384 1.2555132 0.01022711 42
0.21906942 1.2598867 0.030982886 31
0.20872346 1.2752022 0.053339314 52
0.22775254 1.2470328 0.070684217 65
0.23154122 1.2414243 0.090106249 100
0.22909963 1.2450386 0.11143246 100
0.23801711 1.2318377 0.128672 97
0.22017437 1.258251 0.15787962 73
0.21695244 1.2665626 0.010436539 41
0.21624568 1.2676163 0.031401575 31
0.22038886 1.261439 0.051770512 54
0.23597065 1.2382071 0.069221787 67
0.23090562 1.2457588 0.090731993 95
0.23395738 1.2412088 0.1102876 100
0.23629388 1.2377251 0.13002171 100
0.21426269 1.2705729 0.16150309 70
0.21443161 1.2744977 0.010576159 40
0.22479567 1.2589163 0.030773543 32
0.21455419 1.2743134 0.05299069 52
0.23117435 1.2493265 0.070684217 65
0.24148691 1.2338225 0.088229038 98
0.2270706 1.2554961 0.11334054 96
0.24132991 1.2340585 0.128672 97
0.21832708 1.2686412 0.1604678 72
0.22170302 1.2673217 0.010401634 27
0.21330041 1.2800505 0.032029606 30
0.23168361 1.2522025 0.05055033 56
0.23394307 1.2487798 0.070440479 98
0.24201956 1.2365451 0.08854191 84
0.23093045 1.2533435 0.1125773 82
0.23973089 1.2400122 0.13002171 96
0.22751969 1.2585102 0.15684435 74
0.2267285 1.2634466 0.010296919 28
0.21070486 1.2879052 0.032448292 29
0.22790959 1.2616436 0.051421888 55
0.23452842 1.2515407 0.070684217 81
0.24256748 1.2392697 0.088854775 98
0.24015063 1.2429588 0.10990598 85
0.24671298 1.2329419 0.1277722 97
0.23346153 1.2531692 0.15477379 75
0.24371278 1.2411008 0.0098082526 44
0.22122404 1.2756908 0.031610917 30
0.22419769 1.271117 0.052293446 53
0.23729324 1.2509747 0.070440479 98
0.2474376 1.2353716 0.087916173 98
0.24608397 1.2374537 0.10837951 87
0.24408194 1.240533 0.12957181 96
0.22672594 1.2672282 0.15891489 81
0.24310786 1.2454741 0.0098780617 44
0.23590001 1.2566413 0.030354854 32
0.23126355 1.2638247 0.051421888 55
0.24104294 1.2486732 0.069953002 49
0.24684003 1.2396917 0.08854191 84
0.24337712 1.2450569 0.10990598 92
0.25198472 1.2317209 0.12687239 99
0.22942421 1.2666744 0.15839726 73
0.22966969 1.270117 0.010366729 83
0.25806817 1.2257798 0.028366089 70
0.22331774 1.2800341 0.05299069 79
0.24592775 1.244734 0.069221787 67
0.24635053 1.244074 0.089167647 84
0.24397835 1.2477775 0.1102876 78
0.25675145 1.2278354 0.12552269 82
0.22907597 1.2710439 0.15943253 73
0.22819936 1.2762951 0.010471444 82
0.25001866 1.2419662 0.029308135 68
0.23578757 1.2643564 0.051247578 55
0.24439222 1.2508185 0.069953002 66
0.2607227 1.2251254 0.085413218 73
0.237223 1.262098 0.11334054 96
0.25835139 1.2288563 0.12552269 82
0.24222594 1.2542268 0.15373851 76
0.24383664 1.2554272 0.010017681 87
0.25273344 1.2413212 0.029203463 100
0.23857799 1.263765 0.051073264 83
0.2481904 1.2485243 0.069465525 66
0.25599036 1.2361574 0.087290429 71
0.25360528 1.239939 0.10799789 72
0.25163814 1.2430578 0.1291219 96
0.23979574 1.2618341 0.15580906 67
0.24553296 1.256493 0.010017681 72
0.24802306 1.2525142 0.029831495 99
0.23396155 1.2749825 0.052119136 81
0.24986261 1.2495749 0.069465525 49
0.25761932 1.2371808 0.087290429 71
0.24899831 1.2509559 0.1102876 85
0.25949422 1.234185 0.12642249 90
0.23843986 1.2678268 0.15736198 74
0.24828795 1.255854 0.0099827768 87
0.2539238 1.2467785 0.029412808 100
0.23572618 1.2760825 0.052119136 81
0.25363293 1.2472469 0.068978049 50
0.25716767 1.2415549 0.087916173 56
0.25896469 1.2386611 0.10723466 81
0.26420048 1.2302297 0.12507279 100
0.23508376 1.277117 0.15995017 64
0.24998572 1.2569042 0.0099827768 87
0.25978076 1.2410076 0.028994121 100
0.23644948 1.2788727 0.052293446 80
0.25530064 1.2482785 0.068978049 50
0.26088798 1.2392106 0.087290429 57
0.24824378 1.2597313 0.11181407 84
0.2658087 1.2312245 0.12507279 92
0.24090952 1.2716343 0.15787962 65
0.24334276 1.2715974 0.010262015 84
0.25934309 1.2454258 0.029203463 100
0.24862009 1.2629653 0.05055033 100
0.25904283 1.245917 0.068490572 50
0.26664904 1.2334754 0.086038955 58
0.25097916 1.2591066 0.11143246 91
0.26538748 1.235539 0.12597258 90
0.25072372 1.2595245 0.15373851 68
0.25434428 1.2572255 0.0099478718 73
0.26092124 1.246387 0.029203463 100
0.2471557 1.2690719 0.051073264 83
0.25444373 1.2570617 0.069953002 49
0.26408845 1.2411677 0.087290429 57
0.2597321 1.2483467 0.10876112 79
0.26996568 1.2314823 0.12462288 92
0.25435308 1.257211 0.15270324 68
0.26120391 1.2496887 0.0097733475 89
0.25743511 1.2559487 0.029726824 100
0.24787199 1.2718329 0.051247578 82
0.25614572 1.2580904 0.069953002 49
0.26573488 1.2421628 0.087290429 57
0.26241624 1.2476751 0.10837951 79
0.27157825 1.2324569 0.12462288 92
0.25007704 1.2681704 0.15580906 67
0.26595637 1.2455436 0.0096686333 90
0.26220572 1.2518229 0.029412808 100
0.24962553 1.2728846 0.051247578 82
0.26395887 1.2488878 0.068490572 50
0.26738477 1.2431521 0.087290429 71
0.26609889 1.2453051 0.10761628 87
0.28118864 1.2200419 0.12102367 86
0.24983653 1.2725313 0.15684435 66
0.26354033 1.2534136 0.0098082526 74
0.27407122 1.2356422 0.028366089 100
0.25138277 1.27393 0.051247578 82
0.26563227 1.2498833 0.068490572 50
0.27407327 1.2356387 0.08572609 58
0.2577512 1.2631829 0.11143246 77
0.2807743 1.2243304 0.12192347 93
0.25750157 1.2636042 0.15373851 76
0.26117584 1.261306 0.0099478718 73
0.26760083 1.2503767 0.029203463 100
0.26021165 1.2629461 0.050027397 85
0.25724891 1.2679859 0.070927955 48
0.27970469 1.2297873 0.084474608 59
0.26444927 1.2557378 0.10952436 85
0.28236184 1.2252674 0.12192347 85
0.25628924 1.2696184 0.15529142 75
0.26591477 1.257129 0.0098431576 88
0.26927939 1.2513596 0.029203463 100
0.26494527 1.2587914 0.049504463 86
0.26398918 1.2604308 0.069709264 66
0.2763356 1.2392601 0.086038955 58
0.26812461 1.2533398 0.10876112 72
0.28297094 1.2278823 0.12237337 85
0.26095468 1.2656342 0.15373851 68
0.27662912 1.2425394 0.0095290141 76
0.2669608 1.2592518 0.029622151 100
0.26864859 1.2563343 0.049155839 87
0.27862546 1.2390887 0.066540658 52
0.27698609 1.2419224 0.086351827 58
0.27276284 1.2492225 0.10761628 94
0.28164333 1.2338721 0.12372308 83
0.26462132 1.2632958 0.15270324 68
0.27031776 1.2573659 0.0098082526 74
0.2746349 1.2498431 0.028994121 100
0.26538956 1.2659538 0.050027397 85
0.27828845 1.2434765 0.067028143 51
0.2835511 1.234306 0.084787481 59
0.27932319 1.2416735 0.10570818 81
0.28714398 1.2280451 0.12192347 93
0.26442188 1.26764 0.15373851 68
0.26311746 1.2739801 0.010122396 85
0.27828765 1.2473298 0.028784776 100
0.26909378 1.2634811 0.049678773 86
0.27994284 1.2444221 0.067028143 69
0.28810513 1.230083 0.083848871 59
0.2732015 1.2562649 0.10876112 87
0.29067254 1.2255727 0.12102367 86
0.26042658 1.2787073 0.15684435 66
0.27077749 1.2645305 0.0099129668 87
0.27995551 1.2482754 0.028784776 100
0.27179763 1.2627238 0.049504463 86
0.27769655 1.2522762 0.068003096 51
0.2897127 1.2309945 0.083848871 59
0.27779636 1.2520995 0.10761628 72
0.28939 1.231566 0.12237337 85
0.26980263 1.2662572 0.15270324 68
0.2764138 1.2585233 0.0097733475 89
0.2757712 1.2596707 0.029412808 100
0.27741337 1.2567384 0.048807215 88
0.27938166 1.2532239 0.068003096 51
0.28939304 1.2353473 0.084474608 59
0.27948084 1.2530468 0.10761628 79
0.29005057 1.2341732 0.12282328 85
0.27531239 1.2604901 0.15063268 78
0.27812073 1.2594754 0.0097733475 89
0.27748215 1.260625 0.029412808 100
0.27621171 1.2629123 0.049330149 87
0.27914226 1.2576363 0.068490572 50
0.28622305 1.2448884 0.086038955 72
0.28498188 1.247123 0.1060898 81
0.29356492 1.2316705 0.12192347 76
0.26952174 1.2749565 0.15477379 67
0.28851497 1.2446579 0.009459204 77
0.28305128 1.2545757 0.028994121 100
0.27601123 1.2673552 0.049678773 86
0.28659314 1.2481464 0.067028143 51
0.28597602 1.2492666 0.086664692 57
0.28570163 1.2497647 0.10647142 81
0.29893923 1.2257354 0.12012386 77
0.2750147 1.2691641 0.15270324 68
0.27762243 1.2683334 0.0099129668 87
0.29040709 1.244943 0.028366089 100
0.27001745 1.2822473 0.051073264 83
0.28818017 1.2490172 0.067028143 51
0.29230383 1.2414727 0.085100345 58
0.28541085 1.254084 0.10723466 81
0.29951724 1.2282754 0.12057377 86
0.27858153 1.2665787 -0.0098780617 87
0.27111226 1.2802442 0.15580906 67
0.28213623 1.2639604 0.0098082526 74
0.2900793 1.2493126 0.028575432 100
0.28311488 1.2621555 0.048981529 87
0.29071638 1.2481378 0.066784397 34
0.29669368 1.2371153 0.084161744 59
0.28514582 1.2584105 0.10799789 79
0.28201494 1.264184 0.15063268 78
0.29135507 1.2507577 0.0095290141 92
0.28599262 1.2607253 0.029203463 100
0.29135609 1.2507558 0.047761347 90
0.28760087 1.2577358 0.068003096 51
0.29824409 1.2379527 0.084161744 59
0.29420814 1.2454545 0.10494494 75
0.27903864 1.2736509 -0.0099827768 96
0.286401 1.2599661 0.14907977 78
0.29602489 1.2464534 0.0094242999 93
0.29163682 1.2546854 0.028784776 100
0.28664348 1.2640527 0.048981529 87
0.29134312 1.2552363 0.067515619 51
0.29725513 1.2441455 0.085100345 58
0.29880616 1.2412357 0.1038001 76
0.28555807 1.266089 0.15063268 70
0.2929323 1.2561316 0.0095988233 91
0.2789695 1.2825363 0.05072464 84
0.29480958 1.2525816 0.067028143 51
0.29486367 1.2524794 0.1060898 81
0.28359231 1.2737942 0.15270324 76
0.2946308 1.2570261 0.0095988233 76
0.29186291 1.2623048 0.048632905 88
0.29649568 1.2534695 0.067028143 51
0.29654938 1.2533671 0.1060898 73
0.28720188 1.2711941 -0.0098780617 87
0.28714675 1.2712994 0.15166797 69
0.29255629 1.2649665 0.0097384425 90
0.29717433 1.2560878 0.047935657 89
0.2999323 1.2507852 0.066540658 52
0.29815367 1.2542049 0.1060898 73
0.28978807 1.2702887 -0.0098431576 97
0.29059342 1.2687404 0.15063268 70
0.29804474 1.2587821 0.048109971 59
0.29169124 1.2711077 0.069221787 83
0.28887478 1.2765715 -0.0099478718 100
0.29950428 1.2559507 0.14649157 72
0.29584047 1.2670991 0.14959741 70
0.29504472 1.2731972 0.15115032 77
0.29593447 1.2755927 0.049504463 57
0.29590067 1.2756599 -0.0098780617 100
0.29844961 1.2705874 0.15011504 78
0.29953837 1.2730076 0.0098082526 100
0.29959777 1.2728884 0.068978049 100
0.29766625 1.2810075 -0.0099478718 100
0.29954088 1.281929 -0.0099478718 100
