# .PCD v0.7 - Point Cloud Data file format
VERSION 0.7
FIELDS x y z intensity
SIZE 4 4 4 4
TYPE F F F F
COUNT 1 1 1 1
WIDTH 795
HEIGHT 1
VIEWPOINT 0 0 0 1 0 0 0
POINTS 795
DATA ascii
-1.1722124 0.16536964 0.020663649 25
-1.0805893 0.15629289 0.019058028 5
-1.0286069 0.15244181 0.018150503 6
-1.0162331 0.15405366 0.017941074 3
-1.1520364 0.17875646 0.020349506 51
0.087091208 0.0089480281 0.046683673 32
0.063204199 0.00026261806 0.047730394 44
0.05578655 0.0060622692 0.015881689 125
0.050456166 0.0037012696 0.047939736 38
0.046687782 0.003780365 0.04804441 25
0.047323346 0.01053834 0.047730394 100
0.038026392 0.0023278594 0.048358422 77
0.033121884 0.00080418587 0.048567768 50
0.039529622 0.015754819 0.047730394 28
0.036899924 0.017541289 0.047730394 19
0.031015456 0.014307737 0.04804441 9
0.030653596 0.019408822 0.047835063 9
0.016481638 0.0049347878 0.048881784 7
0.0092217326 0.00026476383 0.049300469 7
-1.0457323 1.1296138 0.14310972 3
-1.0522633 1.1369673 0.028691756 6
-1.0055337 1.1262648 0.083632857 5
-1.0328147 1.1325129 0.14206386 6
-1.0296125 1.1372967 0.028307803 10
-0.99461693 1.1291595 0.083109498 24
-1.0257819 1.1364061 0.14154093 39
-0.98933452 1.1338832 0.027609708 27
-0.99912113 1.1361967 0.083423518 88
-1.0108557 1.1389706 0.14032075 84
-0.97645217 1.136187 0.027400278 42
-1.0114934 1.1445931 0.084156215 100
-1.0134985 1.1450741 0.14066938 95
-0.98481375 1.1441473 0.027574802 41
-0.98876518 1.1451105 0.083004825 100
-1.0043705 1.1489147 0.13997212 87
-0.98938829 1.1506749 0.027679516 23
-0.97006315 1.1458961 0.082062781 100
-1.0011711 1.1535888 0.13979781 86
-0.9782185 1.1541455 0.027504992 23
-0.98410457 1.1556251 0.082900152 46
-0.99775463 1.1590563 0.13962349 78
-0.96337205 1.1557536 0.027260659 38
-0.98281735 1.1607102 0.082900152 33
-0.98680264 1.1617261 0.13875194 84
-0.95814425 1.1600326 0.027190849 63
-0.99111241 1.1685587 0.083423518 63
-0.98156816 1.1660905 0.13840333 91
-0.96264559 1.166553 0.027295563 67
-0.9704625 1.1686022 0.082376793 100
-0.98024625 1.1711671 0.13840333 91
-0.95345217 1.1700376 0.027155945 78
-0.95741075 1.171091 0.081748761 92
-0.9768402 1.1762607 0.13822901 98
-0.95984024 1.1771035 0.027295563 89
-0.95414394 1.1755676 0.081644088 100
-0.96778983 1.1792469 0.13753176 100
-0.94290751 1.1784133 0.027016325 92
-0.95650035 1.1821319 0.081853434 100
-0.95667082 1.1821785 0.1366602 99
-0.94154495 1.1833616 0.027016325 93
-0.9474265 1.1849917 0.081434749 100
-0.95913571 1.1882367 0.13700883 91
-0.94009286 1.1885656 0.027016325 92
-0.94212312 1.1891359 0.081225403 86
-0.96150285 1.1945796 0.13735744 99
-0.95216042 1.1973348 0.027260659 70
-0.9291988 1.1908027 0.080597371 78
-0.96008664 1.1995896 0.13735744 99
-0.96795267 1.2075605 0.027574802 47
-0.92964 1.1965166 0.080702044 40
-0.94517678 1.2009952 0.13613728 98
-0.94345802 1.205869 0.027155945 46
-0.93588656 1.2036593 0.081120729 22
-0.94947714 1.2076256 0.1366602 84
-0.91876405 1.2047889 0.026737086 75
-0.92846519 1.2076607 0.080806717 26
-0.93823355 1.2105523 0.13578865 84
-0.91539854 1.2090831 0.026702182 75
-0.91552645 1.2091215 0.080178685 32
-0.9405815 1.2166288 0.13613728 94
-0.91959757 1.2159376 0.026806897 78
-0.91398472 1.2142344 0.080178685 84
-0.93329376 1.2200936 0.13561434 99
-0.91811067 1.2208085 0.026806897 85
-0.91250354 1.2190866 0.080178685 98
-0.92798382 1.2238402 0.13526571 99
-0.90888995 1.2235558 0.026667276 85
-0.91474146 1.2253749 0.080388032 86
-0.90546244 1.2224902 0.13334829 80
-0.89958841 1.2264972 0.026527658 85
-0.9149676 1.2313404 0.080492698 68
-0.91139573 1.2302155 0.13404553 49
-0.89790553 1.2318071 0.026527658 77
-0.89994711 1.2324584 0.07976 80
-0.90400463 1.2337525 0.1335226 45
-0.90000898 1.2383401 0.026597468 81
-0.89634174 1.2371557 0.079655327 95
-0.91177481 1.2421404 0.13439415 45
-0.89844793 1.2431459 0.026597468 93
-0.89098758 1.2407089 0.07944598 100
-0.91209501 1.2476039 0.13456847 59
-0.88531262 1.2446842 0.026388038 100
-0.89494151 1.2478687 0.07976 100
-0.90465981 1.2510827 0.13404553 78
-0.87243479 1.245388 0.02617861 100
-0.89532727 1.2530389 0.079864666 100
-0.90125161 1.2550187 0.13387123 84
-0.8706829 1.2505983 0.02617861 96
-0.88787144 1.2564129 0.079550654 100
-0.89380223 1.2584193 0.13334829 80
-0.88051933 1.2589395 0.026388038 93
-0.87688655 1.2576979 0.079027295 100
-0.90545779 1.2674633 0.13456847 89
-0.87871772 1.2641795 0.026388038 88
-0.87697703 1.2635773 0.079131968 100
-0.89232713 1.2688868 0.1335226 97
-0.86943382 1.2665224 0.02624842 83
-0.87524539 1.2685554 0.079131968 91
-0.8905769 1.2739184 0.1335226 63
-0.86006397 1.2690529 0.0261088 77
-0.87529141 1.2744422 0.079236634 57
-0.88872033 1.2791951 0.1335226 41
-0.85660619 1.2728071 0.026073895 88
-0.85489243 1.2721946 0.078189917 21
-0.89461809 1.2863948 0.13421984 38
-0.86415654 1.2813592 0.02624842 100
-0.85679883 1.2786987 0.078399263 46
-0.87397903 1.2849112 0.13247673 26
-0.85502952 1.2830558 0.0261088 96
-0.85706991 1.2838008 0.078503937 85
-0.85551077 1.2832315 0.13090792 15
-0.84938794 1.2868165 0.026038991 100
-0.85705084 1.2896465 0.07860861 100
-0.8610962 1.2911406 0.13160518 7
-0.83258802 1.2861035 0.025759751 100
-0.84961492 1.2924595 0.07829459 87
-0.90966624 1.3148758 0.13631158 1
-0.83817047 1.2939923 0.025899371 100
-0.83461064 1.2926486 0.077561885 46
-0.88529116 1.3117788 0.13421984 1
-0.83651751 1.2983507 0.025899371 83
-0.83109552 1.2962847 0.077457212 53
-0.8500697 1.303515 0.13108224 13
-0.84390169 1.3070235 0.026073895 72
-0.83102101 1.3020611 0.077561885 59
-0.85368246 1.3107917 0.13160518 50
-0.83279508 1.3080175 0.025899371 78
-0.83483309 1.3088105 0.077875905 63
-0.85373813 1.3161659 0.13177948 100
-0.81964833 1.3086905 0.025689943 93
-0.83099025 1.3131514 0.077771232 61
-0.83874804 1.3162026 0.1305593 100
-0.81785446 1.3132296 0.025689943 99
-0.81990033 1.3140421 0.077247873 85
-0.84248418 1.3230109 0.13108224 97
-0.82327729 1.3212188 0.025829561 100
-0.81419009 1.3175714 0.077038527 100
-0.83859891 1.3273687 0.13090792 100
-0.81773525 1.3242676 0.025759751 100
-0.82532412 1.327343 0.077771232 97
-0.8312034 1.3297256 0.130385 100
-0.8022278 1.3179834 0.17914793 14
-0.81218809 1.3272858 0.025689943 100
-0.81052846 1.3266069 0.077038527 100
-0.81458741 1.3282675 0.1289905 100
-0.79489142 1.3202095 0.17841671 15
-0.80653828 1.3305101 0.025620133 100
-0.80857724 1.3313527 0.077038527 100
-0.81631321 1.334549 0.12933913 100
-0.78378934 1.3211105 0.17719802 16
-0.79728967 1.3319263 0.025480513 100
-0.79564816 1.3312418 0.076410495 100
-0.81627244 1.3398438 0.12951343 100
-0.7709617 1.3209456 0.17573559 18
-0.8025921 1.3399668 0.025620133 100
-0.78437942 1.3322922 0.075887136 99
-0.81233865 1.3440739 0.12933913 100
-0.78539735 1.3327211 0.17792924 24
-0.80069464 1.344449 0.025620133 93
-0.79904896 1.3437492 0.07682918 72
-0.80126017 1.3446896 0.12846756 99
-0.77804369 1.3348156 0.17719802 16
-0.8132785 1.3557106 0.025899371 59
-0.80611235 1.3526318 0.077352546 42
-0.81012827 1.3543572 0.12951343 33
-0.79055578 1.3459482 0.17914793 5
-0.79848593 1.35466 0.025655037 90
-0.81516749 1.3618926 0.077980578 93
-0.8301186 1.3683749 0.13160518 52
-0.78863841 1.3503904 0.17914793 12
-0.79460508 1.3585618 0.025620133 100
-0.80577439 1.3634508 0.077561885 100
-0.81889552 1.3691941 0.13073361 100
-0.78660434 1.3550596 0.17914793 33
-0.79813355 1.3654411 0.025724847 100
-0.80014509 1.3663296 0.077352546 100
-0.82236868 1.3761452 0.13125655 100
-0.79192036 1.3626969 0.18012288 40
-0.79959458 1.3720076 0.025794657 100
-0.80342239 1.3737149 0.077666558 100
-0.80194205 1.3730546 0.12951343 100
-0.7806744 1.3635678 0.17890419 31
-0.79576725 1.375659 0.025759751 100
-0.81051952 1.3822981 0.078189917 100
-0.80356854 1.3791699 0.12986206 100
-0.76421708 1.3614599 0.17695428 20
-0.78261536 1.3756232 0.025550323 100
-0.8173576 1.3914123 0.078713275 100
-0.80132669 1.3841269 0.12986206 100
-0.76384765 1.367094 0.17719802 15
-0.79332405 1.3858727 0.025794657 100
-0.80439621 1.390949 0.078085244 100
-0.81014949 1.3935866 0.13090792 100
-0.75825137 1.3697929 0.17671055 15
-0.79831642 1.3941523 0.025934275 100
-0.80211121 1.395909 0.078085244 100
-0.81689507 1.4027526 0.13177948 100
-0.76685292 1.3795874 0.17817298 12
-0.80167502 1.4011582 0.026038991 100
-0.80364758 1.4020793 0.07829459 100
-0.80215234 1.4013811 0.1305593 100
-0.77561611 1.3889902 0.17963541 5
-0.79573506 1.4044027 0.025969181 100
-0.80854803 1.4104431 0.078713275 100
-0.79622477 1.4046336 0.13021068 100
-0.79308993 1.4031558 0.18231654 3
-0.78459412 1.4045684 0.025794657 100
-0.81182808 1.4175175 0.079027295 100
-0.80131024 1.4125166 0.13090792 100
-0.7909829 1.4076061 0.18231654 1
-0.78969485 1.4124494 0.025934275 100
-0.79706711 1.4159846 0.07829459 100
-0.79737574 1.4161327 0.13073361 100
-0.79115742 1.4186296 0.026004085 100
-0.79491752 1.4204481 0.07829459 100
-0.81495565 1.4301393 0.13265105 100
-0.79393297 1.4266417 0.0261088 100
-0.80126816 1.4302256 0.078817949 100
-0.79797357 1.4286159 0.13125655 100
-0.79174811 1.4310948 0.0261088 88
-0.80086297 1.4355857 0.078922622 100
-0.80293101 1.4366047 0.13195379 100
-0.78226954 1.432214 0.025969181 57
-0.80568546 1.4438531 0.079341307 100
-0.8077324 1.4448705 0.13265105 100
-0.78006619 1.4366283 0.025969181 45
-0.79987234 1.4465551 0.079131968 100
-0.81617421 1.4547256 0.13369691 100
-0.7795158 1.4421693 0.026004085 26
-0.79393762 1.4494607 0.078922622 100
-0.81555372 1.4603893 0.13387123 100
-0.61861449 1.3659527 0.022897556 10
-0.79867476 1.4577773 0.079341307 100
-0.79893619 1.4579105 0.13247673 100
-0.39060587 1.2540286 0.018464645 5
-0.79792076 1.4636295 0.07944598 100
-0.79640585 1.4628501 0.13247673 100
-0.22562176 1.1725595 0.015253403 16
-0.80080944 1.4710907 0.07976 100
-0.80105275 1.4712169 0.13317397 100
-0.22435325 1.1749942 0.015253403 16
-0.79329079 1.472554 0.07944598 100
-0.80767065 1.4800748 0.13404553 100
-0.22293484 1.1776948 0.015253403 33
-0.79259676 1.4781704 0.079550654 100
-0.81047052 1.4875982 0.13456847 99
-0.20914882 1.1738166 0.01500907 42
-0.79893321 1.4875425 0.080074012 18
-0.80092126 1.4886 0.13387123 47
-0.20244807 1.1736282 0.014904355 36
-0.19744623 1.17448 0.014834546 18
-0.20656198 1.1828337 0.015043974 17
-0.20686835 1.1864359 0.015078879 35
-0.21415323 1.1939259 0.015253403 45
-0.20394266 1.1917098 0.015078879 35
-0.20420784 1.1953212 0.015113784 46
-0.21670169 1.2057242 0.015393022 53
-0.20997077 1.2054155 0.015288308 38
-0.21537268 1.2120663 0.015427927 36
-0.19654381 1.2046733 0.015078879 41
-0.19329739 1.2062644 0.015043974 29
-0.20209628 1.2149657 0.015253403 16
-0.20748723 1.221553 0.015393022 26
-0.2110486 1.2272842 0.015497737 30
-0.19747448 1.2226866 0.015253403 28
-0.19588977 1.225293 0.015253403 16
-0.20110875 1.2320852 0.015393022 26
-0.20628929 1.2389193 0.015532642 25
-0.20464784 1.2415563 0.015532642 25
-0.18776804 1.2345973 0.015218498 33
-0.18461609 1.2358419 0.015183593 28
-0.19646567 1.2470176 0.015462833 21
-0.19807446 1.2519163 0.015532642 20
-0.19303316 1.252347 0.015462833 26
-0.19645047 1.2580914 0.015567547 30
-0.18472326 1.2540928 0.015358117 32
-0.18977857 1.2609496 0.015497737 30
-0.2046833 1.2746444 0.015846785 31
-0.20282865 1.2774071 0.015846785 27
-0.19112706 1.2732913 0.015637357 29
-0.18615288 1.2734884 0.015567547 35
-0.19097733 1.2805936 0.015707165 33
-0.20214933 1.2925627 0.015986403 26
-0.19376761 1.2905983 0.015846785 31
-0.19376308 1.2940841 0.015881689 40
-0.18051487 1.2885745 0.015637357 39
-0.1899938 1.2993929 0.015881689 45
-0.19138598 1.304311 0.015951499 39
-0.19617814 1.3113346 0.016091119 37
-0.18944049 1.3103962 0.015986403 43
-0.1826244 1.3095454 0.015881689 40
-0.18404359 1.3143542 0.015951499 43
-0.18854719 1.3217001 0.016091119 33
-0.21068478 1.342177 0.01661469 19
-0.20061427 1.3389218 0.016440166 21
-0.18282706 1.3292758 0.016091119 20
-0.1918686 1.3404911 0.016335452 22
-0.1947161 1.3466208 0.016440166 28
-0.19742936 1.3529061 0.016544882 27
-0.19077396 1.3516765 0.016440166 31
-0.18706882 1.353147 0.016405262 25
-0.1866951 1.3568339 0.016440166 10
-0.21282446 1.3817937 0.017068453 20
-0.19678921 1.3730135 0.016754311 21
-0.18971026 1.3722188 0.016649596 16
-0.17842978 1.3670626 0.016440166 10
-0.18261522 1.374566 0.016579786 3
-0.20829254 1.3999939 0.017208073 2
-0.21813357 1.4131711 0.017487312 1
-0.20376503 1.4054039 0.017208073 2
0.1280002 1.2922436 0.13051336 5
0.15831679 1.2582017 0.010925206 13
0.15629429 1.2607226 0.032971654 29
0.12359029 1.3014855 0.059614528 21
0.1507116 1.2676809 0.12402584 18
0.19024843 1.2184014 0.13272113 7
0.12324831 1.3019117 0.18272625 6
0.16509143 1.2533767 0.010785587 52
0.16680449 1.2512254 0.032238949 60
0.15532774 1.2656381 0.055431053 49
0.15677321 1.2638229 0.077508904 14
0.16608083 1.2521341 0.097615108 12
0.15253836 1.2691411 0.12402584 79
0.19553608 1.2151437 0.13137141 15
0.15287888 1.2687135 0.17082056 14
0.1593399 1.2641293 0.010995016 100
0.1697253 1.2509933 0.032134276 100
0.14223233 1.285768 0.057522789 100
0.17204183 1.2480632 0.074827775 30
0.17266658 1.247273 0.096363634 37
0.15915349 1.2643651 0.12249938 100
0.19104913 1.2240217 0.13362093 46
0.14982966 1.2761583 0.17289113 35
0.157363 1.2702088 0.011099731 100
0.17263982 1.2507467 0.032029606 8
0.15387675 1.2746503 0.056128297 100
0.16145599 1.2649946 0.077265166 29
0.18165302 1.2392641 0.094486415 39
0.16451815 1.2610935 0.12135452 100
0.19022965 1.2283378 0.13452072 38
0.15517738 1.2729933 0.1713382 43
0.16894513 1.2589581 0.010820492 100
0.17186481 1.2552117 0.032238949 90
0.16298902 1.2666008 0.055082429 100
0.15220413 1.2804397 0.07945881 28
0.18086478 1.2436632 0.095112152 25
0.17588919 1.2500477 0.11830158 100
0.1846444 1.2388133 0.13722014 37
0.15218553 1.2804635 0.17340876 42
0.17301661 1.2570564 0.010750682 79
0.17592087 1.2533041 0.032029606 60
0.16463792 1.2678815 0.055082429 75
0.17333952 1.2566392 0.07555899 30
0.175183 1.2542574 0.096989371 25
0.18469316 1.2419705 0.11601187 33
0.18023714 1.2477276 0.13946965 29
0.14323846 1.2955292 0.17806751 33
0.17837438 1.2536125 0.010645968 66
0.17395931 1.259358 0.032343622 60
0.17244819 1.2613245 0.054210871 51
0.19076461 1.2374885 0.072390392 47
0.17807928 1.2539965 0.096676499 50
0.18993157 1.2385726 0.11486702 20
0.19259354 1.2351085 0.13542053 22
0.14625248 1.2954141 0.17754987 60
0.17036155 1.2676256 0.010925206 65
0.16355553 1.276547 0.033390339 28
0.1669147 1.2721437 0.055256739 49
0.18397033 1.2497873 0.07409656 76
0.1977433 1.2317339 0.091983467 53
0.18918779 1.2429484 0.11563025 13
0.20367524 1.2239585 0.13182132 39
0.17269579 1.2645659 0.16667947 67
0.16727152 1.2753241 0.011064826 51
0.17014956 1.2715242 0.032971654 29
0.16145223 1.2830074 0.056302611 48
0.18325028 1.254227 0.074584037 61
0.19220123 1.2424089 0.093860678 52
0.1908409 1.244205 0.11563025 13
0.20173222 1.229825 0.13317102 46
0.17908996 1.25972 0.16460891 69
0.1762484 1.2670673 0.010855397 39
0.17190254 1.2728471 0.032971654 29
0.18120608 1.2604738 0.053687938 52
0.19210076 1.2459846 0.073121607 62
0.20453686 1.2294453 0.091044858 54
0.20901659 1.2234875 0.1102876 14
0.21153748 1.220135 0.13002171 48
0.18660668 1.2532914 0.16202073 70
0.18755525 1.2555491 0.010576159 40
0.1736601 1.2741637 0.032971654 29
0.18053675 1.2649515 0.054036561 51
0.19376442 1.247231 0.073121607 62
0.2025978 1.2353973 0.091983467 53
0.20707849 1.2293948 0.11143246 14
0.20145375 1.23693 0.13452072 31
0.18136227 1.2638456 0.16512655 68
0.1855948 1.2615676 0.010680873 80
0.20150116 1.2401106 0.03066887 32
0.17624754 1.2741767 0.054908119 50
0.20007762 1.2420309 0.072146654 79
0.20061386 1.2413075 0.092922069 66
0.2039271 1.2368381 0.11295892 13
0.20996717 1.2286903 0.13182132 31
0.18300197 1.2650653 0.16512655 68
0.18494239 1.2660578 0.010750682 79
0.20669571 1.2364984 0.030354854 65
0.1768288 1.2770829 0.055082429 75
0.20172745 1.2432494 0.072146654 95
0.20577368 1.2377512 0.091983467 93
0.20090419 1.2443682 0.1144854 13
0.22312087 1.214179 0.1273223 24
0.18473229 1.2663434 0.16512655 68
0.18431696 1.2705585 0.010820492 78
0.20950437 1.2360811 0.030250182 65
0.18330237 1.2719473 0.054385185 76
0.20103949 1.2476681 0.072634131 78
0.20391271 1.2437352 0.092922069 100
0.21645966 1.2265605 0.10990598 14
0.23501942 1.2011553 0.12327318 17
0.19330469 1.2582557 0.16202073 78
0.20015422 1.2524061 0.010401634 83
0.20644319 1.2437342 0.03066887 64
0.18856579 1.2683855 0.053862248 100
0.20503983 1.2456694 0.072146654 79
0.20904756 1.2401431 0.091983467 93
0.20768213 1.2420259 0.11334054 13
0.23767042 1.2006747 0.12282328 17
0.19727948 1.2563701 0.16098544 72
0.19483033 1.2633618 0.010611063 94
0.20576513 1.2481724 0.030878214 95
0.19030768 1.2696441 0.053862248 100
0.20786211 1.2452595 0.071902916 96
0.21184486 1.2397271 0.091670595 94
0.22309625 1.224098 0.10876112 14
0.2448684 1.1938546 0.12057377 17
0.19446465 1.2638698 0.163056 78
0.20353052 1.2548368 0.010401634 97
0.21556497 1.2379962 0.030145511 98
0.18742037 1.2773807 0.054559495 100
0.21298563 1.2416056 0.071171694 81
0.20659551 1.2505478 0.093547814 100
0.20870289 1.2475988 0.11410378 13
0.23501956 1.2107722 0.12507279 16
0.19169793 1.2713948 0.16512655 76
0.19579515 1.2689677 0.010680873 93
0.22050524 1.2341586 0.029831495 66
0.19132274 1.2752681 0.054210871 100
0.21906519 1.2361872 0.07019674 66
0.2126807 1.2451811 0.092296332 100
0.20452279 1.2566731 0.11601187 26
0.23189369 1.2181158 0.12687239 16
0.1955114 1.2693675 0.16409127 69
0.19523534 1.2734704 0.010750682 92
0.21867618 1.240204 0.030145511 98
0.20226964 1.2634876 0.05281638 100
0.20926028 1.2535666 0.072634131 63
0.2245819 1.2318227 0.089480512 97
0.20283118 1.2626907 0.11715672 59
0.24019474 1.2096655 0.12417299 33
0.20393321 1.2611268 0.16098544 72
0.20845616 1.2583191 0.010401634 83
0.22375369 1.2364476 0.029831495 66
0.2062782 1.261433 0.052467756 100
0.21322584 1.2514998 0.072146654 63
0.22053501 1.2410495 0.091044858 100
0.20792881 1.2590731 0.11601187 99
0.22386071 1.2362946 0.13137141 70
0.20786414 1.2591655 0.15995017 72
0.21472436 1.2529378 0.010262015 84
0.21627185 1.2507088 0.03066887 96
0.20117837 1.2724497 0.053513627 100
0.21377656 1.254303 0.072390392 63
0.22330782 1.240574 0.090731993 100
0.21635574 1.2505879 0.11372216 100
0.2232677 1.2406318 0.13227122 86
0.20957372 1.2603569 0.15995017 72
0.21178794 1.2606326 0.010401634 97
0.22466913 1.2419463 0.03004084 66
0.19832328 1.2801653 0.054210871 100
0.2277776 1.237437 0.069709264 66
0.22262782 1.2449076 0.09135773 94
0.22352254 1.2436097 0.11181407 91
0.22593617 1.2401083 0.13182132 100
0.20791239 1.2662548 0.16150309 70
0.21358845 1.261869 0.010401634 83
0.23316622 1.2332442 0.029412808 67
0.20019549 1.2814509 0.054210871 100
0.22949299 1.2386148 0.069709264 66
0.22325549 1.2477348 0.091670595 100
0.22526062 1.2448031 0.11181407 98
0.23536232 1.2300333 0.128672 97
0.20755234 1.2706944 0.16253836 70
0.20977929 1.2713721 0.010576159 54
0.23598769 1.2327497 0.029308135 68
0.20990357 1.271189 0.05299069 79
0.22452486 1.249642 0.071171694 81
0.23388213 1.2358526 0.089167647 100
0.22149113 1.2541127 0.11372216 89
0.23376784 1.236021 0.13002171 96
0.21698299 1.2607563 0.15891489 73
0.2160863 1.2659805 0.010436539 41
0.22764719 1.2488085 0.030250182 32
0.21953163 1.2608629 0.051770512 54
0.22628504 1.2508317 0.071171694 97
0.23779806 1.2337308 0.08854191 100
0.22984621 1.2455422 0.11143246 91
0.23438972 1.2387934 0.13047162 96
0.22094172 1.2587686 0.15787962 73
0.22440043 1.2571101 0.01022711 42
0.21369803 1.2731214 0.031715591 30
0.21673241 1.2685819 0.052467756 53
0.23008761 1.2486019 0.070684217 65
0.23165333 1.2462595 0.090731993 95
0.23578897 1.2400725 0.10990598 85
0.23161423 1.246318 0.13227122 100
0.22149077 1.2614632 0.15839726 73
0.22397763 1.2616334 0.010296919 28
0.22437483 1.2610344 0.030878214 31
0.21856204 1.2697999 0.052467756 53
0.23403808 1.2464625 0.07019674 66
0.2355845 1.2441305 0.090106249 96
0.23642895 1.2428571 0.1102876 92
0.24520916 1.2296168 0.1273223 97
0.22222662 1.2642739 0.15891489 73
0.22103694 1.2692778 0.010436539 27
0.22143772 1.2686696 0.031296901 31
0.21456549 1.2790997 0.053339314 52
0.23654535 1.2457402 0.069953002 99
0.24460047 1.2335147 0.087916173 84
0.23567301 1.2470641 0.11105084 91
0.25193509 1.2223827 0.12507279 83
0.21838018 1.2733101 0.16150309 70
0.21302232 1.2855449 0.010750682 26
0.21234015 1.2865884 0.032343622 30
0.22951469 1.260313 0.051247578 55
0.23937723 1.2452242 0.069709264 83
0.24738216 1.2329774 0.087603301 99
0.23420122 1.2531431 0.11219569 91
0.24613175 1.2348905 0.12822211 97
0.22762588 1.2632027 0.15787962 73
0.23114747 1.261553 0.01022711 42
0.22066689 1.2777103 0.031715591 30
0.23448095 1.2564142 0.05072464 56
0.23671681 1.2529672 0.070684217 65
0.2490001 1.234031 0.087603301 99
0.24230003 1.24436 0.10990598 92
0.24669585 1.2375833 0.128672 97
0.23250338 1.2594628 0.1563267 74
0.24160787 1.2492654 0.0099478718 43
0.23657981 1.2570794 0.030354854 65
0.2384221 1.2542163 0.05037602 56
0.24385995 1.2457654 0.069465525 66
0.25177181 1.2334698 0.087290429 85
0.24935251 1.2372296 0.10799789 87
0.24946618 1.2370529 0.12822211 97
0.23011801 1.2671216 0.15839726 73
0.2367399 1.2603967 0.0101573 42
0.25324932 1.2345519 0.028889447 69
0.23252159 1.2670003 0.051596198 54
0.25398842 1.2333949 0.067515619 51
0.24480313 1.247774 0.089793384 83
0.25301731 1.234915 0.10723466 81
0.25311476 1.2347624 0.1273223 97
0.23176828 1.2681795 0.15839726 73
0.23532847 1.266609 0.010262015 84
0.26243702 1.2238268 0.028156744 71
0.22688052 1.2799413 0.05281638 79
0.25143883 1.2411839 0.068490572 50
0.25501469 1.2355406 0.087290429 85
0.24421522 1.252584 0.11105084 84
0.2600354 1.227617 0.12507279 92
0.23256236 1.2709744 0.15891489 65
0.23795515 1.2659026 0.01022711 70
0.25535455 1.2382514 0.028994121 100
0.23591191 1.2691498 0.051596198 82
0.24657723 1.2522004 0.069953002 49
0.25858277 1.2331212 0.086664692 57
0.23527691 1.2701589 0.11486702 94
0.25939873 1.2318244 0.12597258 90
0.2361955 1.268699 0.15787962 65
0.24612758 1.2568647 0.010017681 72
0.25178528 1.2477999 0.029517479 100
0.24090827 1.2652271 0.051073264 83
0.25255087 1.2465732 0.068978049 50
0.25819033 1.2375376 0.087290429 71
0.25582311 1.2413304 0.10799789 87
0.25696611 1.2394991 0.1277722 89
0.24416265 1.2600129 0.15477379 67
0.24871203 1.2561171 0.0099827768 87
0.24381825 1.2640131 0.030459527 100
0.24246559 1.2661955 0.051073264 83
0.25823256 1.2407562 0.068003096 51
0.2575793 1.2418102 0.087916173 56
0.25316826 1.2489272 0.10952436 85
0.26254898 1.2337918 0.12597258 90
0.24163273 1.2675394 0.15684435 66
0.25049576 1.2572181 0.0099827768 87
0.26341197 1.2362068 0.028680105 100
0.24011272 1.2741088 0.051770512 81
0.25372252 1.2519691 0.069465525 49
0.26241398 1.2378303 0.086977564 57
0.25184119 1.2550294 0.11066922 85
0.26629186 1.2315218 0.12507279 100
0.23435315 1.2834781 0.16150309 63
0.24586371 1.2684509 0.010192205 85
0.26287895 1.2405645 0.028889447 100
0.2542392 1.2547243 0.049678773 86
0.2532545 1.256338 0.069953002 49
0.26499581 1.2370951 0.086664692 71
0.25447384 1.2543397 0.1102876 78
0.27188396 1.225806 0.12327318 85
0.24310124 1.2729783 0.15787962 65
0.25183389 1.2627189 0.010052586 86
0.25840136 1.2518661 0.029517479 100
0.24570262 1.2728508 0.051421888 82
0.2570945 1.2540257 0.069465525 49
0.26670972 1.2381365 0.086664692 57
0.25218529 1.2621381 0.11181407 98
0.26952079 1.2334913 0.12507279 83
0.25094783 1.264183 0.15477379 67
0.25973153 1.2534701 0.0098431576 88
0.26214132 1.2494564 0.029308135 100
0.2587409 1.25512 0.049504463 86
0.25878584 1.2550452 0.069465525 49
0.27037916 1.2357354 0.086038955 58
0.26906341 1.2379268 0.1060898 66
0.27214345 1.2327968 0.12462288 83
0.2526747 1.2652239 0.15477379 67
0.26355153 1.2510943 0.0097733475 89
0.2598134 1.2573726 0.029726824 100
0.25644377 1.263032 0.050201707 85
0.26462781 1.2492867 0.068490572 50
0.2670351 1.2452437 0.087603301 57
0.26475403 1.2490747 0.10837951 79
0.26985371 1.2405097 0.12642249 90
0.25646842 1.2629905 0.15373851 68
0.26514849 1.2520416 0.0097733475 89
0.26346335 1.2548933 0.029517479 100
0.25199866 1.2742944 0.051247578 82
0.26318908 1.2553574 0.069221787 67
0.27162749 1.2410774 0.086664692 71
0.26634425 1.250018 0.10837951 87
0.27538115 1.2347252 0.12462288 92
0.25613922 1.2672875 0.15477379 67
0.25882909 1.2668847 0.010052586 86
0.2743305 1.2404314 0.028575432 100
0.25787827 1.2685072 0.05055033 84
0.26998806 1.2478418 0.068003096 51
0.27635208 1.2369816 0.08572609 58
0.26413518 1.2578299 0.10990598 78
0.28102729 1.2290034 0.12282328 93
0.26085111 1.2634342 -0.0099827768 86
0.25601041 1.2716948 0.15580906 67
0.25838035 1.2712539 0.010122396 85
0.27580976 1.2412951 0.028575432 100
0.26245153 1.2642561 0.050027397 85
0.26450291 1.26073 0.069709264 83
0.27682716 1.2395464 0.086038955 58
0.26468188 1.2604225 0.1102876 85
0.28443053 1.2264773 0.12192347 85
0.26843622 1.2539693 -0.0097733475 88
0.25661653 1.2742858 0.1563267 74
0.2742089 1.2480695 0.0096337283 90
0.27254885 1.2509471 0.029098792 100
0.26625618 1.2618551 0.049678773 86
0.27324709 1.2497368 0.068003096 51
0.28052413 1.2371224 0.085413218 58
0.27727267 1.2427586 0.1060898 66
0.28610539 1.2274475 0.12192347 85
0.2632935 1.2669908 0.15373851 68
0.2718218 1.2559232 0.0097733475 74
0.27017614 1.2587979 0.029517479 100
0.26788881 1.2627933 0.049678773 86
0.27779818 1.2454836 0.067271881 51
0.28109324 1.2397277 0.08572609 58
0.27689111 1.247068 0.10685304 88
0.2866556 1.2300113 0.12237337 85
0.26398337 1.2696154 0.15425615 75
0.2814191 1.24298 0.0094941091 76
0.28174633 1.2424037 0.02847076 100
0.26272395 1.2759029 0.050898954 83
0.28043979 1.2447047 0.067028143 51
0.27590659 1.2526878 0.087916173 70
0.27758861 1.2497257 0.10723466 81
0.29114977 1.225844 0.12102367 86
0.26095945 1.2790102 0.15684435 66
0.28110904 1.2473993 0.0095639192 91
0.28339696 1.2433373 0.02847076 100
0.2654694 1.2751666 0.05072464 84
0.27527916 1.25775 0.068734311 67
0.28825676 1.234709 0.084474608 59
0.27444747 1.2592266 0.10914274 78
0.29369888 1.2250469 0.12057377 77
0.27129552 1.2648227 -0.0099129668 87
0.26842636 1.2699168 0.15373851 68
0.27692553 1.2588096 0.0097733475 89
0.27920637 1.2547268 0.029098792 100
0.272093 1.2674599 0.049853086 85
0.27795154 1.2569729 0.068490572 50
0.28313667 1.2476915 0.086664692 57
0.27519938 1.2618994 0.10952436 85
0.29243761 1.2310426 0.12192347 85
0.274975 1.2623011 -0.0098431576 87
0.27205744 1.2675235 0.15270324 68
0.27960262 1.2580106 0.0097384425 90
0.28283602 1.2521751 0.028889447 100
0.27672803 1.2631986 0.049330149 87
0.28157723 1.2544469 0.068003096 51
0.29150739 1.2365251 0.084474608 59
0.28167564 1.2542694 0.10761628 87
0.29499298 1.2302343 0.12147357 86
0.27475679 1.2667563 -0.0099129668 87
0.27566841 1.2651111 0.15166797 77
0.29575357 1.2326639 0.0092148706 79
0.28259698 1.2566054 0.029098792 100
0.28037035 1.2606573 0.048981529 87
0.28326991 1.2553809 0.068003096 51
0.29123476 1.2408869 0.085100345 58
0.29187721 1.2397177 0.10418171 75
0.29378551 1.2362452 0.12282328 85
0.28298062 1.2559073 0.14856213 71
0.28684387 1.252863 0.0095988233 91
0.29194331 1.2435061 0.028261416 100
0.27827096 1.2685933 0.049678773 86
0.28876561 1.2493368 0.067028143 51
0.29193476 1.2435218 0.085413218 58
0.28788146 1.2509592 0.10647142 73
0.27913159 1.2670143 0.15166797 77
0.2856786 1.2590562 0.0097035384 90
0.27622375 1.2765498 0.05037602 84
0.29515967 1.241514 0.065809444 35
0.29264998 1.2461575 0.08572609 58
0.28209415 1.2656883 0.10952436 85
0.2856786 1.2590562 -0.0097035384 89
0.27994961 1.2696562 0.1521856 77
0.28919172 1.2564054 0.0096337283 75
0.29139709 1.2522924 0.028680105 100
0.29202759 1.2511165 0.047761347 60
0.28922018 1.2563523 0.067759357 85
0.28930581 1.2561926 0.10723466 81
0.28163207 1.2705041 -0.0099129668 87
0.28617251 1.2620362 0.14959741 70
0.29464638 1.2502503 0.0094941091 76
0.28933156 1.260246 0.029098792 100
0.29651469 1.2467365 0.047238413 91
0.29185143 1.2555069 0.067515619 51
0.29469129 1.2501658 0.10570818 73
0.28338078 1.2714379 -0.0099129668 87
0.28789163 1.2629541 0.14959741 70
0.29671726 1.2505968 0.02847076 100
0.29361916 1.2564753 0.048109971 59
0.29733467 1.2494252 0.066540658 52
0.29736826 1.2493615 0.10532656 75
0.28522044 1.2724116 -0.0099129668 87
0.28609741 1.2707477 0.15166797 69
0.2934733 1.2608989 0.048458595 88
0.29904306 1.2502404 0.10532656 67
0.29142582 1.2648171 0.14959741 70
0.29692867 1.258224 0.0095988233 91
0.28960121 1.2723602 0.049504463 57
0.29512262 1.2617083 0.068003096 51
0.29973349 1.2528131 0.10570818 66
0.28680584 1.2777531 -0.0099827768 96
0.28773388 1.2759626 0.15270324 68
0.2986421 1.2590896 0.048109971 59
0.29956269 1.2572982 0.067271881 69
0.29693335 1.2624145 0.10761628 65
0.29589227 1.2644402 -0.0097035384 100
0.29656598 1.2631292 0.14856213 79
0.29852757 1.2635424 0.0096686333 100
0.29035699 1.2795781 -0.0099827768 100
0.29939061 1.2661222 0.068246834 100
0.29664063 1.275947 0.049504463 28
0.29926288 1.2795651 -0.0099129668 100
