# .PCD v0.7 - Point Cloud Data file format
VERSION 0.7
FIELDS x y z intensity
SIZE 4 4 4 4
TYPE F F F F
COUNT 1 1 1 1
WIDTH 759
HEIGHT 1
VIEWPOINT 0 0 0 1 0 0 0
POINTS 759
DATA ascii
-1.1763457 0.16469654 0.020733459 23
-1.1175514 0.15646495 0.059139632 29
-1.1698254 0.16794923 0.020628745 32
-1.0485499 0.15427543 0.018499551 6
-1.0124123 0.1525708 0.017871264 5
-1.045471 0.16128698 0.018464645 1
0.059338599 0.013291597 0.015742071 63
0.052607298 0.014230072 0.047416378 19
0.045556962 0.0093128085 0.047835063 100
0.042904735 0.011078238 0.047835063 75
0.040522993 0.012675107 0.047835063 37
0.035641372 0.011151552 0.04804441 27
0.029616475 0.0080035925 0.048358422 17
0.041677356 0.031214952 0.046997689 10
0.023038983 0.010105669 0.048463095 8
0.0086844563 0.00064247847 0.049300469 7
0.089849681 0.55971515 0.008830918 16
0.081945777 0.56764877 0.0089007271 16
0.070212692 0.56456107 0.0091101564 16
0.076095611 0.57117808 0.0089705372 16
0.053316444 0.56345391 0.0093893949 15
0.063692927 0.56975722 0.0091799656 15
0.077075034 0.57930982 0.0089007271 16
0.061588645 0.57494593 0.0091799656 15
0.079507321 0.58400369 0.008830918 16
0.060238838 0.57836044 0.0091799656 15
0.074490815 0.58584851 0.0089007271 16
0.06947732 0.58775437 0.0089705372 16
0.046377659 0.58100164 0.0093893949 15
0.068216711 0.59111345 0.0089705372 16
0.045070469 0.58452219 0.0093893949 15
0.044426143 0.58628583 0.0093893949 15
0.058904201 0.5932914 0.0091101564 16
0.031915128 0.58562016 0.0095988233 15
0.027470052 0.58619314 0.0096686333 15
0.041941166 0.593274 0.0093893949 15
0.030012786 0.59105551 0.0095988233 15
0.029391289 0.59287173 0.0095988233 15
0.0022090077 0.58586079 0.010087491 14
0.028137147 0.59660161 0.0095988233 15
-0.01426214 0.58469826 0.010366729 13
0.01552707 0.59654546 0.0098082526 14
0.0073385239 0.59587491 0.0099478718 14
0.0048277974 0.59716588 0.0099827768 29
0.025219083 0.60564417 0.0095988233 15
-0.013558805 0.59565717 0.010296919 14
0.008785069 0.60463727 0.0098780617 14
-1.0505695 1.1354035 0.028656852 3
-1.0291479 1.1305131 0.08488892 5
-1.0369523 1.1322947 0.14241248 6
-1.0278566 1.1360177 0.028272899 8
-0.99869591 1.1292533 0.083318844 15
-1.0182102 1.13378 0.14084367 24
-0.99932009 1.1351018 0.02778423 22
-0.9935444 1.1337408 0.083109498 82
-1.032445 1.1429079 0.14223817 78
-0.99803621 1.1405077 0.02778423 38
-1.0078046 1.1428457 0.083946876 100
-1.0195076 1.1456468 0.1411923 87
-0.98319656 1.1423359 0.027539898 45
-0.98521024 1.1428249 0.082795486 100
-0.99889213 1.1461475 0.13944919 91
-0.97023815 1.1448133 0.027330469 30
-0.9955346 1.1510501 0.083423518 100
-0.99756974 1.1515518 0.13944919 92
-0.97086042 1.1506031 0.027365373 26
-0.98256999 1.1535335 0.082795486 58
-0.99816126 1.1574352 0.13962349 78
-0.97921342 1.1583707 0.027539898 33
-0.97735029 1.1578976 0.082586139 38
-1.0006616 1.1638179 0.13997212 69
-0.97390705 1.1629744 0.027470088 53
-0.97978634 1.1644905 0.082795486 48
-0.9876321 1.1665137 0.13892625 91
-0.96091837 1.1652548 0.027260659 67
-0.97839993 1.1698279 0.082795486 100
-0.96889085 1.1673404 0.13735744 91
-0.95186776 1.168213 0.027121039 75
-0.96934348 1.1728466 0.082376793 92
-0.9752683 1.1744175 0.1380547 99
-0.9504686 1.1734531 0.027121039 83
-0.95249802 1.1739987 0.081539422 92
-0.96615106 1.1776699 0.13735744 100
-0.95483893 1.1802661 0.027225753 92
-0.9452979 1.177665 0.081225403 100
-0.96856326 1.1840079 0.13770607 100
-0.95725256 1.186582 0.027295563 92
-0.94001549 1.1818179 0.081016064 100
-0.9632681 1.1882446 0.13735744 91
-0.94038481 1.1875253 0.027016325 96
-0.94818503 1.1897104 0.081539422 90
-0.9560433 1.1919119 0.13683452 94
-0.93891829 1.1927251 0.027016325 83
-0.95439619 1.1971195 0.081958108 80
-0.94689482 1.1949898 0.13613728 100
-0.96441406 1.2053957 0.027504992 50
-0.92993742 1.1954836 0.080702044 48
-0.94930702 1.2010523 0.13648589 100
-0.94944566 1.2067647 0.027260659 41
-0.91885537 1.1978542 0.080178685 22
-0.96309632 1.2107408 0.13788038 85
-0.93065053 1.2069026 0.026946515 66
-0.92118412 1.2041093 0.080388032 26
-0.93670648 1.2086896 0.13561434 84
-0.91953665 1.2092053 0.026771991 74
-0.92922801 1.2121017 0.08091139 28
-0.93325716 1.213306 0.13544002 98
-0.91033882 1.2120149 0.026632372 75
-0.93149894 1.2184197 0.081120729 70
-0.92979378 1.2179036 0.13526571 99
-0.91452271 1.2188678 0.026737086 81
-0.914648 1.2189062 0.080283359 100
-0.92441136 1.2218986 0.1349171 100
-0.9091273 1.2227919 0.026667276 85
-0.89971942 1.2198725 0.079550654 93
-0.93043655 1.2294044 0.13561434 84
-0.91516894 1.2302797 0.026806897 88
-0.90004569 1.2255287 0.079655327 76
-0.9212206 1.2321808 0.1349171 52
-0.9059307 1.2329674 0.026667276 85
-0.90986687 1.2342191 0.080283359 68
-0.90440875 1.2324834 0.1335226 46
-0.89288443 1.2343709 0.026457848 85
-0.90633637 1.2387002 0.080178685 84
-0.90657872 1.2387782 0.13387123 43
-0.88745195 1.2381661 0.026388038 96
-0.8932969 1.2400699 0.079550654 100
-0.91061682 1.2457107 0.13439415 54
-0.89340585 1.2456846 0.026527658 100
-0.89164728 1.245105 0.079550654 100
-0.91651648 1.2533008 0.13509139 77
-0.88794261 1.249455 0.026457848 100
-0.88808531 1.2495027 0.07944598 100
-0.90915018 1.2565264 0.13456847 85
-0.87876505 1.2516656 0.02631823 96
-0.89595038 1.257459 0.079969339 98
-0.88676089 1.2543612 0.13265105 80
-0.86580318 1.2525303 0.0261088 92
-0.89054495 1.2609627 0.07976 100
-0.89834791 1.263622 0.13387123 89
-0.86419529 1.2572227 0.0261088 93
-0.87569064 1.261183 0.079027295 100
-0.88916808 1.2658262 0.13317397 100
-0.87733215 1.2681673 0.026388038 79
-0.86616462 1.2642696 0.07860861 99
-0.90785831 1.2788215 0.13509139 68
-0.87567228 1.2728977 0.026388038 79
-0.86263424 1.2682986 0.078503937 63
-0.8911317 1.2783508 0.13369691 36
-0.85875267 1.2727427 0.0261088 88
-0.84951204 1.2694449 0.077875905 25
-0.88738233 1.2829598 0.1335226 37
-0.84955329 1.2746981 0.025969181 99
-0.87227291 1.282891 0.079236634 29
-0.87255365 1.2829924 0.13230242 30
-0.85529798 1.28232 0.0261088 93
-0.85733873 1.2830641 0.078503937 78
-0.87262613 1.2886373 0.13247673 16
-0.85734421 1.2883596 0.02617861 100
-0.85375541 1.2870378 0.078399263 100
-0.87089854 1.293352 0.13247673 11
-0.85543495 1.2935144 0.02617861 100
-0.84436446 1.2893907 0.077980578 97
-0.8913756 1.3069019 0.13456847 1
-0.83871847 1.2925382 0.025899371 100
-0.84637302 1.2954185 0.078189917 44
-0.87093967 1.3046622 0.13282534 1
-0.82931799 1.2947803 0.025759751 88
-0.8444379 1.3005329 0.078189917 51
-0.83545154 1.2971139 0.12968774 9
-0.83317 1.3015032 0.025864467 71
-0.84080654 1.3044376 0.078085244 59
-0.86717242 1.3145692 0.13282534 45
-0.83503455 1.3077757 0.025934275 75
-0.83334702 1.3071206 0.077771232 72
-0.84668988 1.3123013 0.13108224 90
-0.83324355 1.3123658 0.025934275 90
-0.82412058 1.3087887 0.077352546 59
-0.85230345 1.319839 0.13177948 100
-0.82195133 1.313748 0.025759751 100
-0.82956356 1.316765 0.077771232 80
-0.82805222 1.3161659 0.12968774 97
-0.8127144 1.3153228 0.025620133 100
-0.82774287 1.3213367 0.077771232 95
-0.82438368 1.3199925 0.12951343 100
-0.81451052 1.321575 0.025689943 100
-0.81840318 1.3231486 0.077352546 95
-0.83908004 1.3315067 0.13108224 100
-0.81267387 1.3260969 0.025689943 100
-0.81656128 1.3276833 0.077352546 100
-0.8316763 1.3338516 0.1305593 100
-0.79353303 1.3182857 0.17817298 21
-0.81422573 1.3328505 0.025759751 100
-0.80333215 1.328356 0.076724514 100
-0.81660861 1.3338336 0.12933913 100
-0.78958291 1.3226833 0.17792924 16
-0.80865973 1.3358337 0.025689943 100
-0.8088482 1.3359122 0.0771432 97
-0.80369574 1.3337665 0.12829325 100
-0.77308255 1.321017 0.17597933 16
-0.78824323 1.3328204 0.025340894 100
-0.80502337 1.3398776 0.077038527 99
-0.80355614 1.3392606 0.12846756 100
-0.77664059 1.3279408 0.17671055 22
-0.79373235 1.3403805 0.025480513 100
-0.78657979 1.3373444 0.076096483 83
-0.81449908 1.3491955 0.12968774 100
-0.76930124 1.3300102 0.17597933 18
-0.81368703 1.3547587 0.025899371 57
-0.81019002 1.3532592 0.077561885 40
-0.8141982 1.3549778 0.12986206 45
-0.78913301 1.3442298 0.17890419 8
-0.820813 1.3634878 0.026073895 83
-0.81181151 1.3595906 0.077771232 82
-0.81763309 1.3621111 0.130385 39
-0.79258555 1.3512669 0.17963541 15
-0.79308075 1.3570566 0.025585229 100
-0.81157523 1.3651406 0.077875905 100
-0.8155579 1.3668814 0.130385 100
-0.79600519 1.358335 0.18036664 33
-0.78919381 1.360934 0.025550323 100
-0.81131679 1.3706961 0.077980578 100
-0.81346601 1.3716445 0.130385 100
-0.79212707 1.3622284 0.18012288 42
-0.79453415 1.3686252 0.025689943 100
-0.80566806 1.3735824 0.077771232 100
-0.80964333 1.3753521 0.13021068 100
-0.77202111 1.3586017 0.1776855 37
-0.79973215 1.3765936 0.025829561 100
-0.80719644 1.3799483 0.077980578 100
-0.81115657 1.3817279 0.1305593 100
-0.75909466 1.3583305 0.17622307 22
-0.79749984 1.3815366 0.025829561 100
-0.80313295 1.384093 0.077875905 100
-0.80527669 1.385066 0.13021068 100
-0.77319831 1.3705078 0.17841671 17
-0.79172081 1.3845711 0.025759751 100
-0.81369203 1.3946348 0.07860861 100
-0.79406446 1.3856444 0.12933913 100
-0.77289885 1.3759496 0.17866045 15
-0.79138249 1.3900899 0.025794657 100
-0.81694204 1.4019054 0.078922622 100
-0.80456668 1.3961847 0.1305593 100
-0.77257746 1.3813968 0.17890419 12
-0.7892099 1.3947684 0.025794657 100
-0.80567807 1.4024512 0.078399263 100
-0.80598384 1.4025939 0.13090792 100
-0.76503843 1.383492 0.17817298 10
-0.79798692 1.4043145 0.026004085 100
-0.80357331 1.4069433 0.078399263 100
-0.81108969 1.4104803 0.13160518 100
-0.76120061 1.3870041 0.17792924 3
-0.79576463 1.409016 0.026004085 100
-0.80495018 1.4133776 0.07860861 100
-0.80164653 1.411809 0.13090792 100
-0.79848939 1.4103098 0.18329149 3
-0.78991896 1.4119816 0.025934275 100
-0.80809969 1.4206923 0.078922622 100
-0.79939801 1.4165232 0.13090792 100
-0.78766996 1.4166548 0.025934275 100
-0.81121451 1.4280368 0.079236634 100
-0.80072051 1.4229639 0.13125655 100
-0.7943911 1.4257033 0.0261088 100
-0.80711418 1.4319088 0.079131968 100
-0.80917746 1.4329152 0.13230242 100
-0.79209405 1.4303921 0.0261088 100
-0.79762715 1.4331148 0.078713275 100
-0.80685526 1.4376554 0.13230242 100
-0.79717857 1.4381592 0.02624842 100
-0.80627292 1.4426697 0.079341307 100
-0.8065359 1.4428002 0.13247673 100
-0.79126137 1.4410682 0.02617861 100
-0.80570275 1.4482936 0.07944598 100
-0.80239731 1.4466398 0.13230242 100
-0.78534037 1.443944 0.0261088 100
-0.80510992 1.4539216 0.079550654 100
-0.8106994 1.4567426 0.13334829 100
-0.79010791 1.45223 0.02624842 100
-0.79915458 1.4568355 0.079341307 100
-0.81539613 1.4651039 0.13404553 100
-0.79471332 1.4607921 0.026388038 100
-0.80018121 1.463601 0.079550654 100
-0.81815594 1.4728348 0.13456847 100
-0.79939586 1.4691616 0.026527658 100
-0.79775184 1.4683099 0.079550654 100
-0.80861813 1.4739399 0.13387123 100
-0.78998011 1.4699292 0.026388038 100
-0.79896933 1.4746246 0.07976 100
-0.80627626 1.4784414 0.13387123 100
-0.78045183 1.4708743 0.02624842 89
-0.79826862 1.48026 0.079864666 100
-0.80908328 1.4859571 0.13439415 100
-0.78341872 1.478096 0.026353134 34
-0.78532213 1.4791067 0.079236634 31
-0.80142266 1.4876568 0.13387123 61
0.11566103 1.307514 0.13432953 5
0.15072167 1.2674905 0.011134636 12
0.13745669 1.2840183 0.03454173 27
0.13596836 1.2858727 0.057871412 23
0.16175953 1.2537376 0.098240845 12
0.14325166 1.276798 0.12631555 17
0.19138992 1.2168189 0.13227122 7
0.13041064 1.2927976 0.17962041 6
0.15753147 1.2626941 0.010995016 38
0.15925404 1.2605317 0.032866981 58
0.15524122 1.2655692 0.055431053 49
0.15173969 1.2699649 0.078483857 14
0.16230434 1.2567024 0.09855371 24
0.14878157 1.2736785 0.12517071 78
0.20152929 1.2074605 0.1291219 16
0.15279183 1.2686441 0.17082056 14
0.16661188 1.2545836 0.010785587 100
0.16336131 1.258692 0.032657638 100
0.15688676 1.2668756 0.055431053 99
0.16202158 1.2603855 0.076777689 29
0.16759738 1.2533379 0.097615108 37
0.16019908 1.262689 0.12211776 100
0.18242681 1.2345942 0.13677025 37
0.15324894 1.2714736 0.1713382 50
0.16847536 1.256052 0.010785587 100
0.1714066 1.2523177 0.032134276 100
0.15387675 1.2746503 0.056128297 100
0.17616427 1.2462566 0.074340299 30
0.17921364 1.2423718 0.095112152 38
0.17179137 1.2518275 0.11906482 100
0.19383937 1.223739 0.13317102 38
0.15040612 1.2790718 0.17340876 42
0.16763031 1.2604687 0.010855397 100
0.18528798 1.2378191 0.031087559 94
0.14820245 1.2853889 0.057174169 100
0.16309959 1.2662803 0.077265166 29
0.18078211 1.2435988 0.095112152 25
0.17821959 1.2468858 0.11753834 100
0.18815705 1.2341388 0.13587044 30
0.14615759 1.2880119 0.17599694 34
0.16322482 1.2697072 0.011029921 76
0.17469838 1.2548835 0.032134276 60
0.16463792 1.2678815 0.055082429 50
0.16847938 1.2629184 0.076533951 29
0.18243754 1.2448847 0.095112152 25
0.17628148 1.2528383 0.1186832 32
0.18142992 1.2461865 0.13901976 29
0.15033314 1.2863631 0.17496167 28
0.17341509 1.2598892 0.010785587 65
0.17509115 1.2577089 0.032238949 30
0.17964804 1.251781 0.053165004 52
0.18100446 1.2500165 0.074340299 61
0.19605333 1.2304398 0.091983467 40
0.1778847 1.2540748 0.1186832 13
0.18419871 1.2458611 0.13856985 22
0.15675715 1.2815591 0.17289113 64
0.17763898 1.2580864 0.010715778 53
0.19141829 1.2400247 0.030982886 31
0.17174858 1.2658075 0.054559495 50
0.18999055 1.2418962 0.072877869 47
0.18935624 1.2427276 0.094173551 52
0.20109579 1.2273395 0.11181407 21
0.19540125 1.2348039 0.13497064 30
0.17152405 1.2661018 0.16719711 67
0.17684433 1.2625064 0.010785587 39
0.1760928 1.2634982 0.032448292 29
0.17098838 1.2702353 0.054908119 50
0.18796098 1.2478341 0.073609084 62
0.18734702 1.2486444 0.095112152 51
0.19550061 1.237883 0.11410378 13
0.20871305 1.2204447 0.13047162 40
0.17083794 1.2704338 0.16823238 60
0.17384484 1.2702639 0.010925206 39
0.17790407 1.2648654 0.032448292 29
0.16564009 1.2811756 0.055953987 48
0.19090775 1.2475712 0.073365346 46
0.19503957 1.2420762 0.093547814 52
0.20075747 1.2344717 0.11295892 13
0.21036631 1.2216924 0.13047162 40
0.17383566 1.2702761 0.16771474 67
0.17789879 1.268304 0.010855397 65
0.17954716 1.2660966 0.032448292 29
0.18879506 1.2537121 0.05281638 53
0.1913057 1.25035 0.073609084 77
0.20369849 1.2337539 0.091670595 54
0.19290236 1.2482117 0.11601187 13
0.20953411 1.2259392 0.13137141 31
0.18705547 1.2560416 0.16253836 70
0.18329942 1.2648445 0.010750682 92
0.20752892 1.2321479 0.030145511 65
0.19057035 1.2550328 0.05281638 53
0.18597731 1.2612308 0.075071514 60
0.20069614 1.2413685 0.092922069 79
0.20517749 1.2353212 0.1125773 13
0.21468824 1.2224869 0.13002171 32
0.18653893 1.2604729 0.16357364 69
0.1873129 1.2628367 0.010680873 80
0.19604144 1.2509758 0.031296901 62
0.18155247 1.2706642 0.054385185 76
0.19937426 1.2464471 0.072634131 63
0.20109034 1.2441152 0.093234941 92
0.20555878 1.2380433 0.11295892 13
0.21734563 1.2220268 0.12957181 32
0.18702236 1.2632315 0.16409127 69
0.19375393 1.2576408 0.010541254 81
0.21892986 1.2231792 0.029412808 67
0.17977643 1.2767737 0.054908119 100
0.20338154 1.2444623 0.072146654 79
0.20274743 1.2453303 0.093234941 92
0.20487842 1.2424133 0.11372216 13
0.22352377 1.2168909 0.1277722 16
0.18532747 1.2691753 0.16564418 68
0.19067591 1.265294 0.010680873 93
0.20753333 1.2420576 0.030564198 64
0.18145898 1.2779987 0.054908119 100
0.2049568 1.245609 0.072146654 63
0.21244544 1.2352867 0.091044858 81
0.20990548 1.2387879 0.1125773 13
0.23645091 1.2021976 0.12327318 8
0.18585038 1.2719455 0.16616182 68
0.19258034 1.26667 0.010680873 80
0.21401489 1.2368846 0.030145511 65
0.19504997 1.2632382 0.053165004 100
0.20446652 1.2501529 0.072634131 78
0.21192685 1.2397861 0.091670595 81
0.21170798 1.2400903 0.1125773 13
0.24949548 1.1875808 0.11877415 8
0.19455084 1.2639318 0.163056 70
0.20120522 1.2580907 0.010471444 96
0.21208128 1.2428712 0.030459527 97
0.19900438 1.2611705 0.05281638 100
0.20606068 1.2512962 0.072634131 78
0.22152615 1.2296543 0.089480512 97
0.21783459 1.2348201 0.11105084 14
0.23728561 1.2076011 0.12417299 16
0.19843715 1.2619643 0.16202073 70
0.20291111 1.2593052 0.010471444 96
0.20564508 1.2554511 0.03119223 63
0.18919367 1.2786434 0.054559495 100
0.21348539 1.2443982 0.071415432 64
0.2139895 1.2436876 0.091983467 93
0.2092362 1.2503885 0.1144854 27
0.2331776 1.2166374 0.12642249 16
0.19456801 1.2710669 0.16460891 69
0.2068387 1.2571838 0.010401634 97
0.21760809 1.2418946 0.030250182 98
0.19317704 1.2765793 0.054210871 100
0.21620354 1.2438886 0.071171694 65
0.21783724 1.2415693 0.09135773 100
0.20517829 1.2595412 0.11639348 59
0.23129386 1.222465 0.1277722 32
0.20401892 1.2611871 0.16098544 72
0.20404443 1.2649946 0.010541254 95
0.22620484 1.2332873 0.029622151 100
0.19503614 1.2778836 0.054210871 100
0.20657083 1.2613797 0.073609084 93
0.22183108 1.2395453 0.090731993 95
0.20247617 1.2672384 0.11791996 97
0.23295435 1.2236302 0.1277722 65
0.20250148 1.2672021 0.16253836 70
0.20796803 1.2628534 0.010471444 96
0.22888166 1.2327178 0.029517479 67
0.20353794 1.2692369 0.053165004 100
0.21952 1.2462075 0.071171694 81
0.23014739 1.2308939 0.088854775 98
0.21308163 1.2554848 0.11486702 87
0.22779405 1.2342849 0.13047162 88
0.20855787 1.2620034 0.1604678 72
0.21641219 1.2541052 0.010262015 98
0.2247515 1.2420031 0.03004084 99
0.2085869 1.2654612 0.05264207 100
0.21546915 1.2554737 0.072390392 47
0.22943583 1.2352052 0.089480512 97
0.2247192 1.2420499 0.11143246 91
0.22491249 1.2417694 0.13227122 94
0.21567211 1.2551792 0.15787962 73
0.22253612 1.2486073 0.010122396 85
0.22293508 1.2480241 0.030354854 65
0.20348144 1.2764568 0.053687938 100
0.22829029 1.2401972 0.069953002 49
0.22874936 1.2395263 0.090106249 96
0.2318294 1.2350246 0.10952436 85
0.22317749 1.2476698 0.13362093 93
0.21182847 1.2642571 0.1604678 72
0.2210077 1.2548251 0.01022711 70
0.24047357 1.2261389 0.028889447 69
0.2076661 1.2744863 0.053339314 78
0.21672237 1.2611403 0.072877869 100
0.22722703 1.2456599 0.091044858 95
0.22920778 1.242741 0.11105084 98
0.23048517 1.2408586 0.13137141 94
0.21264401 1.2671505 0.16098544 72
0.22261727 1.2559135 0.01022711 42
0.22413212 1.2536651 0.030564198 32
0.2071144 1.2789234 0.053687938 52
0.22611722 1.2507187 0.071171694 65
0.2299099 1.2450895 0.090731993 100
0.22968024 1.2454304 0.11143246 91
0.23422608 1.2386832 0.13047162 96
0.21537393 1.2666643 0.1604678 72
0.22217789 1.2604351 0.010296919 42
0.23256648 1.2448934 0.029936166 33
0.22116122 1.2619561 0.051770512 54
0.22788131 1.2519026 0.071171694 81
0.23933756 1.2347636 0.08854191 100
0.22924289 1.2498655 0.11219569 84
0.23702896 1.2382174 0.13002171 100
0.2204172 1.2630692 0.15891489 73
0.21938306 1.2681842 0.010436539 41
0.21647269 1.2725697 0.031610917 30
0.22609952 1.2580637 0.051247578 55
0.22948113 1.2529681 0.071171694 81
0.2376036 1.2407289 0.089480512 97
0.23409274 1.2460192 0.11105084 98
0.23750579 1.2408763 0.13047162 96
0.22205409 1.2641594 0.15891489 73
0.23660603 1.2460097 0.0099478718 29
0.20953062 1.2871342 0.032448292 29
0.22460368 1.2642398 0.051770512 54
0.23343664 1.2508236 0.070684217 65
0.23715851 1.2451706 0.090106249 100
0.23907831 1.2422545 0.10990598 100
0.23923373 1.2420185 0.13047162 96
0.22386748 1.2653581 0.15891489 73
0.22514403 1.2671893 0.010366729 27
0.21133783 1.2883193 0.032448292 29
0.2230615 1.2703764 0.052293446 53
0.23837435 1.2469403 0.069953002 99
0.23881906 1.2462597 0.090106249 96
0.23965484 1.2449806 0.1102876 99
0.25154248 1.2267866 0.12597258 99
0.22982532 1.2600245 0.15684435 74
0.2290574 1.2649645 0.010296919 42
0.23922795 1.2492791 0.029936166 33
0.21722239 1.2832167 0.053513627 52
0.2432811 1.2430284 0.069221787 67
0.2480064 1.2357409 0.087916173 84
0.24558717 1.2394719 0.10876112 94
0.25525922 1.2245555 0.12507279 92
0.22733366 1.2676228 0.15891489 73
0.22645879 1.2728083 0.010436539 41
0.25171044 1.2335652 0.028889447 34
0.22764087 1.2709713 0.052119136 54
0.24063742 1.2507735 0.07019674 66
0.25177181 1.2334698 0.087290429 85
0.24297836 1.2471355 0.1102876 92
0.25157517 1.2337754 0.1273223 81
0.22802728 1.2703707 0.15943253 73
0.2368255 1.2604513 0.0101573 71
0.2436564 1.2497537 0.029831495 66
0.23904195 1.2569802 0.05055033 84
0.24765924 1.243485 0.068978049 50
0.25764388 1.2278484 0.086038955 72
0.2488721 1.2415856 0.10876112 79
0.25109833 1.2380992 0.12822211 89
0.23497432 1.2633505 0.15684435 74
0.23639879 1.2649199 0.01022711 56
0.24853992 1.2457589 0.029517479 100
0.23434535 1.2681606 0.051596198 54
0.24187639 1.2562752 0.070684217 32
0.2507855 1.2422149 0.08854191 84
0.24841845 1.2459506 0.10952436 85
0.25273412 1.2391397 0.12822211 89
0.23669836 1.2644471 0.15684435 66
0.24451473 1.2558542 0.010017681 87
0.2533918 1.2417358 0.029203463 100
0.23608616 1.2692593 0.051596198 54
0.25097212 1.2455842 0.068978049 50
0.2482298 1.2499456 0.089793384 83
0.25426173 1.2403523 0.10799789 79
0.26163453 1.2286264 0.12507279 100
0.23225641 1.2753503 0.15995017 64
0.24515405 1.2586143 0.010052586 86
0.25926909 1.2359903 0.028784776 100
0.23677617 1.2720425 0.051770512 81
0.25263405 1.2466251 0.068978049 50
0.26036316 1.2342367 0.086664692 71
0.24863094 1.2530414 0.11066922 92
0.26426873 1.2279768 0.12462288 92
0.23197719 1.2797344 0.16098544 64
0.24247795 1.2663691 0.010192205 85
0.25442323 1.2470883 0.029412808 100
0.2436015 1.2645556 0.050898954 83
0.24367821 1.2644317 0.071415432 96
0.25974235 1.2385027 0.087290429 57
0.25635374 1.2439723 0.10837951 72
0.26057729 1.2371551 0.12687239 90
0.2396847 1.2708776 0.15787962 65
0.25049576 1.2572181 0.0099827768 87
0.25713632 1.2464156 0.029308135 100
0.24637309 1.2639248 0.05072464 84
0.24956423 1.2587335 0.070440479 49
0.27068982 1.2243675 0.084474608 59
0.25492558 1.2500119 0.10952436 78
0.26220971 1.2381625 0.12687239 90
0.2495285 1.2587917 0.15373851 68
0.2564474 1.2514831 0.0098431576 88
0.25680503 1.2508965 0.029517479 100
0.24714828 1.2667354 0.050898954 83
0.25445765 1.2547467 0.069709264 33
0.26515889 1.2371945 0.086664692 57
0.26179689 1.2427089 0.10761628 87
0.26494199 1.2375503 0.12642249 99
0.24528813 1.2697865 0.15684435 66
0.25916487 1.2507938 0.0098082526 74
0.26572165 1.2399545 0.028784776 100
0.24166551 1.2797229 0.052119136 81
0.26334363 1.2438858 0.068003096 51
0.27190351 1.229735 0.085100345 58
0.26243258 1.2453918 0.10799789 79
0.27464482 1.2252032 0.12282328 76
0.24903435 1.2675412 0.15580906 67
0.25775787 1.2569499 0.0099129668 87
0.26633605 1.2426565 0.028889447 100
0.24652246 1.275671 0.051596198 82
0.26091352 1.2516918 0.068978049 50
0.27046046 1.2357842 0.086038955 58
0.25702187 1.2581763 0.11066922 78
0.27824104 1.2228198 0.12192347 85
0.24679646 1.2752144 0.15787962 65
0.25127518 1.2717127 0.010192205 85
0.27003124 1.2402116 0.028680105 100
0.25440517 1.2664558 0.05055033 84
0.26665893 1.2458754 0.068003096 51
0.27006686 1.2401518 0.086664692 71
0.2587277 1.259196 0.11066922 85
0.27384156 1.2338121 0.12462288 83
0.26150548 1.2545307 -0.0098431576 87
0.2505385 1.2729499 0.15684435 66
0.26319855 1.2555348 0.0098431576 88
0.2625322 1.2566628 0.029622151 100
0.26120648 1.2589073 0.049678773 86
0.25822577 1.2639533 0.070440479 49
0.26970038 1.2445276 0.087290429 71
0.26243407 1.256829 0.10990598 92
0.27645338 1.2330953 0.12417299 75
0.2601561 1.2606854 0.15270324 68
0.27399424 1.2410053 0.0095290141 76
0.26726207 1.2524939 0.029308135 100
0.26795143 1.2513174 0.048807215 88
0.26296267 1.2598307 0.069709264 83
0.27135852 1.2455032 0.087290429 57
0.27902398 1.232422 0.10418171 82
0.27708629 1.2357287 0.12462288 92
0.25796384 1.2683612 0.15477379 67
0.26449955 1.2609329 0.0099129668 87
0.27287987 1.2465227 0.028889447 100
0.25452492 1.2780849 0.051421888 82
0.26758242 1.2556319 0.068978049 50
0.274923 1.2430093 0.086664692 57
0.26970232 1.2519865 0.10837951 87
0.28255087 1.2298927 0.12282328 85
0.25573337 1.2760069 0.15684435 66
0.27320966 1.2498016 0.0096686333 75
0.27654096 1.244027 0.028680105 100
0.25530469 1.280839 0.051596198 82
0.2692793 1.2566147 0.068978049 50
0.28151122 1.2354113 0.085100345 58
0.26942438 1.2563632 0.10914274 85
0.28707916 1.2257595 0.12147357 77
0.27021194 1.254998 -0.0097733475 88
0.25943214 1.2736843 0.15580906 67
0.27099854 1.257756 0.0098082526 89
0.28026357 1.2415588 0.02847076 100
0.26311454 1.271539 0.05055033 84
0.27303597 1.2541941 0.068490572 50
0.2871421 1.2295336 0.083848871 59
0.2692593 1.2607965 0.10990598 71
0.29165414 1.2216455 0.12012386 77
0.26901275 1.2612276 -0.0098780617 76
0.26319858 1.2713921 0.15477379 67
0.27862376 1.2482915 0.0095988233 91
0.27402627 1.2563944 0.029308135 100
0.26879984 1.2656058 0.049853086 85
0.27178898 1.2603376 0.069221787 100
0.28484848 1.2373207 0.085100345 58
0.27678725 1.2515283 0.10761628 79
0.28650051 1.234409 0.12327318 68
0.27448395 1.2555878 0.14959741 70
0.28029495 1.2492359 0.0095988233 91
0.2776849 1.2538737 0.029098792 100
0.27639452 1.2561665 0.048807215 88
0.28031737 1.2491961 0.067515619 51
0.28648135 1.2382433 0.085100345 58
0.27943262 1.2507682 0.10723466 81
0.28716746 1.2370242 0.12372308 83
0.2704958 1.2666478 0.15270324 68
0.28294411 1.2484283 0.0095639192 91
0.28132254 1.2513334 0.028889447 100
0.26546898 1.2797348 0.051073264 83
0.27812156 1.2570679 0.068490572 50
0.29004306 1.2357106 0.084474608 59
0.28111246 1.2517097 0.10723466 81
0.29259855 1.2311325 0.12192347 85
0.26658159 1.2777417 0.15580906 67
0.28074154 1.2563555 0.0097035384 90
0.28880858 1.2417842 0.028261416 100
0.27014509 1.2754956 0.05055033 84
0.28366932 1.2510672 0.067515619 51
0.28879994 1.2417998 0.085413218 58
0.28279561 1.2526453 0.10723466 81
0.29987302 1.2217988 0.11922406 87
0.27396163 1.2686019 -0.0099478718 86
0.26929137 1.2770376 0.15529142 75
0.2785911 1.2643039 0.0098431576 88
0.2846894 1.2531973 0.028889447 100
0.27670592 1.2677372 0.049678773 86
0.28535017 1.2519939 0.067515619 51
0.29710358 1.230588 0.083223134 60
0.28164726 1.2587378 0.10837951 79
0.29676202 1.23121 0.12147357 77
0.27762866 1.2660567 -0.0098780617 87
0.27571192 1.2695476 0.15270324 68
0.2850998 1.2564672 0.0096686333 90
0.28446737 1.2576287 0.029098792 100
0.28416196 1.2581894 0.048632905 88
0.2851356 1.2564015 0.068003096 51
0.29493412 1.2384074 0.084474608 59
0.28898826 1.2493265 0.1060898 81
0.27744925 1.2705169 -0.0099478718 86
0.28392446 1.2586256 0.14907977 78
0.29250059 1.2468318 0.009459204 77
0.28806919 1.2550378 0.028889447 100
0.28208086 1.2661269 0.049330149 87
0.28872156 1.2538297 0.067515619 51
0.29469347 1.242771 0.085100345 58
0.29252875 1.2467797 0.10532656 75
0.28104198 1.2680506 0.15166797 69
0.29227853 1.2512534 0.0095290141 76
0.29353541 1.2489064 0.02847076 100
0.28287369 1.2688154 0.049504463 86
0.28760061 1.2599887 0.068246834 68
0.29821041 1.2401766 0.084474608 59
0.28956041 1.2563291 0.10723466 73
0.28643015 1.2621742 0.14959741 70
0.29208425 1.2556823 0.0095988233 76
0.29520866 1.2497987 0.02847076 100
0.28181317 1.2750238 0.050027397 85
0.29582977 1.2486291 0.066540658 52
0.29892668 1.2427973 0.084787481 59
0.29218039 1.2555013 0.10685304 73
0.286457 1.266279 -0.0098082526 88
0.28090134 1.2767409 0.15373851 68
0.29098606 1.2618878 0.0097035384 90
0.29750219 1.2495131 0.047412723 90
0.29102772 1.2618086 0.068246834 34
0.29204723 1.2598726 0.10761628 72
0.29191774 1.2601184 -0.0096686333 89
0.29347298 1.257165 0.14752686 71
0.2954812 1.2574711 0.0095988233 91
0.29671571 1.2551067 0.028680105 100
0.29733986 1.2539113 0.067028143 51
0.29830205 1.2520684 0.10570818 73
0.29363015 1.2610162 -0.0096686333 89
0.29875153 1.2512075 0.1454563 81
0.29610503 1.2600224 0.048284281 88
0.29520845 1.2617528 0.068003096 51
0.29315463 1.2657167 0.14959741 70
0.29417542 1.2679945 0.048981529 58
0.29971057 1.2572197 0.10647142 73
0.29312107 1.2700469 0.15063268 70
0.29144979 1.2778716 0.15270324 76
0.29501852 1.2752156 -0.0098780617 100
0.29580021 1.2778466 -0.0099129668 100
