# .PCD v0.7 - Point Cloud Data file format
VERSION 0.7
FIELDS x y z intensity
SIZE 4 4 4 4
TYPE F F F F
COUNT 1 1 1 1
WIDTH 784
HEIGHT 1
VIEWPOINT 0 0 0 1 0 0 0
POINTS 784
DATA ascii
-1.1644349 0.16323619 0.020524031 23
-1.1412592 0.15998729 0.060395695 29
-1.1282297 0.1621784 0.019895744 4
-1.0524796 0.15504129 0.01856936 6
-1.0242496 0.1545375 0.018080693 5
-1.0375378 0.1602485 0.018325027 1
0.083609849 0.0017151237 0.047102362 30
0.057538122 0.0073112249 0.015846785 123
0.052214324 0.0049397349 0.047835063 44
0.049546778 0.0066819787 0.047835063 28
0.041380823 0.00010126829 0.048358422 100
0.040909946 0.0052065849 0.048149079 88
0.039488792 0.0085579157 0.04804441 63
0.038084269 0.0119102 0.047939736 27
0.029957175 0.0053544641 0.048463095 17
0.030413568 0.012298465 0.048149079 17
0.026768804 0.012382209 0.048253752 8
0.021845996 0.010934353 0.048463095 8
0.026208639 0.022503853 0.047835063 9
-1.0466704 1.1345134 0.028587041 3
-1.0038347 1.1247342 0.083528183 5
-1.0388947 1.1327381 0.1425868 6
-1.0317526 1.1369214 0.028342709 10
-0.9967503 1.1288019 0.083214171 15
-1.0162692 1.1333297 0.14066938 21
-0.99932009 1.1351018 0.02778423 22
-1.0071526 1.1369476 0.083842203 78
-1.0208094 1.1401658 0.1411923 71
-0.98442274 1.1372495 0.027539898 37
-1.009747 1.1433105 0.084051549 100
-1.0117569 1.1437917 0.14049506 100
-0.99291259 1.1446954 0.027714422 43
-0.9793877 1.1414108 0.082481466 100
-1.0085728 1.1484984 0.14032075 82
-0.98577064 1.1486428 0.027609708 26
-0.9761427 1.1462691 0.082376793 100
-1.007242 1.1539366 0.14032075 87
-0.98637944 1.1544868 0.027644612 25
-0.98063248 1.1530486 0.082690813 58
-0.99816126 1.1574352 0.13962349 78
-0.97146076 1.1564018 0.027400278 38
-0.98896509 1.1608473 0.083214171 41
-0.98521286 1.1598943 0.13857763 73
-0.95647985 1.1584803 0.027155945 61
-0.97785228 1.1639917 0.082690813 43
-0.9760564 1.1635286 0.13788038 87
-0.96091837 1.1652548 0.027260659 67
-0.970671 1.167806 0.082376793 100
-0.98238355 1.1708701 0.13857763 89
-0.95952946 1.1705265 0.027260659 74
-0.95575994 1.1695263 0.081644088 92
-0.98097497 1.1762166 0.13857763 98
-0.95619124 1.1752737 0.027225753 81
-0.95242745 1.174261 0.081539422 98
-0.96607989 1.1779344 0.13735744 100
-0.95098037 1.1792142 0.027155945 92
-0.95878631 1.1813424 0.081958108 100
-0.95895213 1.1813875 0.13683452 100
-0.93412334 1.1801894 0.026876707 93
-0.94579083 1.1834141 0.081330076 100
-0.9632681 1.1882446 0.13735744 91
-0.94038481 1.1875253 0.027016325 93
-0.93664581 1.1864778 0.08091139 88
-0.96179897 1.1935244 0.13735744 92
-0.95046026 1.196002 0.027225753 77
-0.92557627 1.1889372 0.080388032 84
-0.96031135 1.1987989 0.13735744 99
-0.97025591 1.2067879 0.027609708 53
-0.92425293 1.1935707 0.080388032 50
-0.94938225 1.2007906 0.13648589 100
-0.9418419 1.2042673 0.027121039 39
-0.92468303 1.1992724 0.080492698 24
-0.94786936 1.2060218 0.13648589 84
-0.92689067 1.205513 0.026876707 66
-0.93083841 1.2066771 0.08091139 26
-0.94442719 1.2106842 0.13631158 82
-0.9157812 1.2078042 0.026702182 74
-0.91973656 1.2089856 0.080388032 28
-0.93524355 1.2136172 0.13561434 91
-0.92190021 1.2152339 0.026841801 75
-0.91437179 1.2129567 0.080178685 68
-0.94131416 1.2211064 0.13631158 99
-0.92607313 1.222126 0.026946515 81
-0.90899724 1.2168957 0.079969339 100
-0.92449027 1.2216413 0.1349171 100
-0.91310531 1.2234664 0.026737086 89
-0.92086142 1.2258704 0.080702044 86
-0.91156596 1.2229893 0.13387123 84
-0.89624971 1.2237816 0.026457848 88
-0.91735548 1.2304039 0.080597371 66
-0.91377789 1.2292814 0.13421984 52
-0.90228039 1.2312485 0.026597468 81
-0.90051097 1.2306865 0.07976 72
-0.91786247 1.2361975 0.13474278 45
-0.90066153 1.236315 0.026597468 85
-0.89318973 1.2339133 0.07944598 89
-0.91622621 1.2413183 0.13474278 45
-0.90646583 1.2443588 0.026737086 96
-0.90089327 1.2425439 0.079969339 100
-0.90872234 1.2450938 0.13421984 57
-0.885809 1.243181 0.026388038 99
-0.89923495 1.2476056 0.079969339 100
-0.90137821 1.2483119 0.13369691 77
-0.88423198 1.2479397 0.026388038 99
-0.89195865 1.2505145 0.079655327 100
-0.90923518 1.2562716 0.13456847 85
-0.87876505 1.2516656 0.02631823 93
-0.87891692 1.2517167 0.079027295 100
-0.90186483 1.2594529 0.13404553 78
-0.87707502 1.25665 0.02631823 92
-0.87722677 1.2567017 0.079027295 100
-0.90769058 1.2670902 0.13474278 87
-0.87536758 1.2616284 0.02631823 96
-0.8717429 1.2603781 0.078817949 100
-0.88522798 1.2650293 0.13282534 100
-0.87364286 1.2666008 0.02631823 81
-0.87568003 1.2673115 0.079131968 99
-0.89101619 1.2726611 0.1335226 71
-0.86435741 1.2689064 0.02617861 77
-0.86451775 1.268963 0.07860861 63
-0.89864737 1.281002 0.13439415 40
-0.86081165 1.2729224 0.026143705 83
-0.84592372 1.2676152 0.077666558 25
-0.89882153 1.2864721 0.13456847 36
-0.86092871 1.278522 0.02617861 93
-0.85169393 1.2751937 0.078085244 31
-0.88763803 1.2881484 0.13369691 26
-0.85905546 1.28369 0.02617861 99
-0.85546225 1.28238 0.078399263 78
-0.86701053 1.2865901 0.13195379 16
-0.84608549 1.2842128 0.025969181 100
-0.85375541 1.2870378 0.078399263 100
-0.87463766 1.2947292 0.13282534 11
-0.83687598 1.2860501 0.025829561 100
-0.84641761 1.2896005 0.078085244 99
-0.88035899 1.3022299 0.1335226 1
-0.83890074 1.2920535 0.025899371 100
-0.82973045 1.2886065 0.077247873 44
-0.88977617 1.3111763 0.13456847 1
-0.83688599 1.2973826 0.025899371 89
-0.83146256 1.2953203 0.077457212 53
-0.85416645 1.3039536 0.13143086 7
-0.8481968 1.3069974 0.026143705 74
-0.83157748 1.3006146 0.077561885 57
-0.86168772 1.3121789 0.13230242 43
-0.83139986 1.306087 0.025864467 75
-0.83344084 1.306879 0.077771232 68
-0.83935481 1.3091742 0.130385 90
-0.82589084 1.3092058 0.025794657 90
-0.83537191 1.3129213 0.077980578 61
-0.85239941 1.3195944 0.13177948 100
-0.81832796 1.3120356 0.025689943 100
-0.81851774 1.3121108 0.0771432 82
-0.83555692 1.3188605 0.130385 97
-0.82023638 1.3180554 0.025759751 100
-0.81856698 1.3173877 0.077247873 91
-0.83742899 1.324932 0.13073361 99
-0.81821841 1.3230739 0.025759751 100
-0.81840318 1.3231486 0.077352546 97
-0.82984418 1.3277733 0.13021068 100
-0.80526811 1.3230746 0.025550323 100
-0.81471211 1.3269286 0.077247873 100
-0.82429761 1.3308403 0.12986206 100
-0.80456072 1.322786 0.17963541 21
-0.79593402 1.324754 0.025410704 100
-0.81460637 1.3324502 0.077352546 100
-0.8094371 1.3303195 0.12864187 100
-0.7769286 1.3169205 0.17622307 15
-0.80147201 1.3322868 0.025550323 100
-0.79244941 1.3285329 0.076201156 100
-0.81492966 1.3378859 0.12933913 100
-0.78427154 1.3251305 0.17744176 18
-0.80308896 1.3387862 0.025620133 83
-0.78855211 1.3326755 0.076096483 99
-0.81651253 1.344429 0.12968774 100
-0.77307802 1.3261708 0.17622307 24
-0.79751366 1.3417081 0.025550323 44
-0.78484017 1.3363311 0.075991809 81
-0.80176109 1.3435102 0.12846756 100
-0.76939899 1.3297799 0.17597933 18
-0.78438121 1.3419166 0.025340894 12
-0.808456 1.352235 0.077457212 40
-0.80697519 1.3516003 0.12916481 45
-0.78193504 1.340868 0.17792924 9
-0.52001971 1.2328172 0.020349506 4
-0.81568342 1.3607011 0.077980578 78
-0.82332569 1.3640065 0.13090792 37
-0.78367847 1.3468579 0.17841671 8
-0.36086464 1.1675684 0.017347692 4
-0.80639511 1.3620307 0.077561885 100
-0.81221813 1.3645723 0.13003637 93
-0.76720351 1.3449246 0.17646681 22
-0.25705773 1.1254501 0.015393022 16
-0.80442446 1.3665254 0.077561885 100
-0.82847279 1.3771169 0.13177948 100
-0.78527349 1.3580909 0.17914793 38
-0.25757664 1.1292186 0.015427927 31
-0.80222899 1.3714856 0.077561885 100
-0.80621368 1.3732581 0.12986206 100
-0.78129524 1.362174 0.17890419 33
-0.24178582 1.1253445 0.015148689 46
-0.81115991 1.3808731 0.078189917 100
-0.80057031 1.3761206 0.12951343 100
-0.77208 1.3633344 0.17792924 20
-0.22408569 1.120815 0.014834546 56
-0.80891186 1.3858578 0.078189917 100
-0.81285745 1.387646 0.13090792 100
-0.77712876 1.3714538 0.17890419 17
-0.23564851 1.1292005 0.015078879 58
-0.80322927 1.3886998 0.077980578 100
-0.8108018 1.3921621 0.13090792 100
-0.7769323 1.3766768 0.17914793 19
-0.24522012 1.1371064 0.015288308 44
-0.7955125 1.3911442 0.077666558 100
-0.81213015 1.3988156 0.13125655 100
-0.76568824 1.3773761 0.17792924 13
-0.43607312 1.2293944 0.018988218 22
-0.80057782 1.3992109 0.078085244 100
-0.80631489 1.4018837 0.13090792 100
-0.7563625 1.3786118 0.17695428 7
-0.42722481 1.2294304 0.0188486 21
-0.80560309 1.4073205 0.078503937 100
-0.79688865 1.4032235 0.13021068 100
-0.78476983 1.397526 0.18109785 5
-0.35876745 1.2011259 0.01755712 14
-0.80878359 1.4146168 0.078817949 100
-0.80547065 1.413045 0.13125655 100
-0.77898425 1.4004798 0.18061037 3
-0.22565228 1.141131 0.01500907 42
-0.8030352 1.417395 0.07860861 100
-0.81051975 1.4209762 0.13195379 100
-0.22435206 1.1438363 0.01500907 42
-0.80256575 1.4229823 0.078713275 100
-0.81541616 1.4291861 0.13265105 100
-0.22470838 1.1476831 0.015043974 47
-0.80004853 1.4281709 0.078713275 100
-0.80571145 1.4309318 0.13195379 100
-0.22517973 1.1512676 0.015078879 47
-0.80849618 1.4381685 0.079341307 100
-0.79982036 1.4339013 0.13160518 100
-0.21674526 1.1502821 0.01493926 42
-0.80448371 1.4417822 0.079236634 100
-0.80475098 1.4419149 0.13230242 100
-0.22077823 1.1556405 0.015043974 47
-0.80034429 1.4456127 0.079131968 100
-0.8095246 1.4502058 0.13299966 100
-0.22485125 1.1608964 0.015148689 51
-0.79809648 1.4500868 0.079131968 100
-0.81437689 1.4582999 0.13369691 100
-0.22882873 1.1663195 0.015253403 50
-0.79927438 1.4566 0.079341307 100
-0.811966 1.4630582 0.13369691 100
-0.21142918 1.1608176 0.01493926 36
-0.8004232 1.4631296 0.079550654 100
-0.79713064 1.4614396 0.13247673 100
-0.20650864 1.1616344 0.014869451 43
-0.80509025 1.4715121 0.079969339 100
-0.80001694 1.4688858 0.13299966 100
-0.21393049 1.1690338 0.015043974 52
-0.79365844 1.4718506 0.07944598 100
-0.80274433 1.4765965 0.1335226 100
-0.21076369 1.1707659 0.01500907 42
-0.78413206 1.472813 0.079027295 100
-0.81084603 1.4868858 0.13456847 100
-0.22179335 1.1798515 0.015253403 45
-0.79414195 1.4837904 0.07976 40
-0.79614371 1.4848534 0.13334829 78
-0.21330667 1.178767 0.015113784 46
-0.21018726 1.1803461 0.015078879 47
-0.20875025 1.1829971 0.015078879 47
-0.21081007 1.1875675 0.015148689 40
-0.21809608 1.1950619 0.015323213 44
-0.20089132 1.1889713 0.01500907 42
-0.20290995 1.1935507 0.015078879 35
-0.19968748 1.1951897 0.015043974 35
-0.2138986 1.206604 0.015358117 48
-0.22103322 1.2142595 0.015532642 46
-0.20572102 1.2087812 0.015253403 50
-0.2023052 1.2106692 0.015218498 45
-0.2094503 1.2182436 0.015393022 48
-0.20272535 1.2178245 0.015288308 38
-0.21152705 1.2264869 0.015497737 41
-0.19786924 1.2220342 0.015253403 45
-0.20148993 1.2276319 0.015358117 48
-0.19980758 1.2303832 0.015358117 48
-0.20337868 1.2360231 0.015462833 47
-0.20845258 1.243014 0.015602452 45
-0.18994743 1.2348883 0.015253403 50
-0.18333262 1.2341312 0.015148689 40
-0.19865096 1.2473108 0.015497737 41
-0.2019431 1.2532951 0.015602452 50
-0.2053721 1.2590462 0.015707165 52
-0.19520152 1.2563469 0.015532642 56
-0.18690073 1.2544216 0.015393022 48
-0.19345498 1.2626421 0.015567547 40
-0.20013362 1.2706554 0.015742071 38
-0.19995278 1.2745175 0.015776975 32
-0.18503177 1.2680283 0.015497737 35
-0.18320149 1.2707188 0.015497737 30
-0.19307023 1.28108 0.015742071 23
-0.18963808 1.2825317 0.015707165 33
-0.19121408 1.2872704 0.015776975 32
-0.18277061 1.285382 0.015637357 29
-0.17453021 1.2831858 0.015497737 35
-0.19217539 1.2997795 0.015916595 30
-0.18879074 1.3010706 0.015881689 18
-0.18521988 1.3026016 0.015846785 9
-0.20445156 1.3203573 0.016300548 18
-0.18480039 1.309962 0.015916595 30
-0.18782818 1.3159642 0.016021309 12
-0.19053507 1.3223801 0.016126024 28
-0.1855014 1.3224308 0.016056214 8
-0.15486372 1.3032777 0.015427927 10
-0.17854273 1.3250008 0.015986403 8
-0.18126237 1.3313202 0.016091119 4
-0.16673934 1.3239591 0.015811881 4
0.16056564 1.2548783 0.010855397 13
0.098359555 1.3323301 0.063100755 19
0.14799231 1.2705332 0.12478908 18
0.18025136 1.230368 0.13632034 7
0.13022816 1.2926509 0.17962041 6
0.15968165 1.2592936 0.010925206 39
0.1651392 1.2524521 0.032343622 60
0.15613782 1.263736 0.055256739 49
0.15634242 1.2634795 0.077508904 14
0.14841422 1.2734182 0.10199527 11
0.15087864 1.2703288 0.12440746 60
0.20122397 1.2072171 0.1291219 16
0.14882967 1.2728972 0.17237349 14
0.15394261 1.2700585 0.011134636 100
0.17302585 1.2459642 0.03182026 91
0.15044153 1.2744789 0.056302611 96
0.16669482 1.2539577 0.075802729 30
0.17960897 1.2376524 0.094486415 26
0.15750328 1.2655629 0.122881 100
0.19065306 1.2237083 0.13362093 31
0.15058756 1.2742946 0.17237349 42
0.15939879 1.2667222 0.011029921 100
0.1783933 1.2425673 0.031506244 100
0.15097338 1.2774367 0.056476921 100
0.16347829 1.2615345 0.076777689 29
0.18368575 1.2358369 0.093860678 26
0.16651684 1.2576704 0.12059128 100
0.19103441 1.2264917 0.13407083 46
0.15593272 1.2711301 0.17082056 43
0.16728798 1.2602017 0.010855397 100
0.17389968 1.2517329 0.032029606 91
0.16255581 1.2662629 0.055082429 100
0.16519642 1.2628807 0.076777689 29
0.18288282 1.2402267 0.094486415 39
0.17184594 1.2543635 0.11944643 100
0.18903235 1.2323501 0.13542053 30
0.15055138 1.2816389 0.1739264 35
0.17267668 1.256793 0.010750682 100
0.16946563 1.2609357 0.032552965 59
0.16429043 1.2676123 0.055082429 75
0.1778644 1.2501003 0.074584037 30
0.17726538 1.2508731 0.096363634 25
0.1903775 1.2339568 0.11410378 55
0.18945459 1.2351475 0.13587044 30
0.14997277 1.2860839 0.17496167 28
0.16949999 1.2644463 0.010890301 78
0.18092614 1.2495984 0.031715591 61
0.16116941 1.2752717 0.055779677 49
0.19043833 1.2372377 0.072390392 47
0.17653677 1.2553022 0.096989371 37
0.17284197 1.2601035 0.12020966 12
0.19108045 1.2364032 0.13587044 15
0.14942032 1.290539 0.17599694 48
0.16992745 1.2672942 0.010925206 65
0.17281613 1.2635145 0.032552965 29
0.16163722 1.2781413 0.055953987 48
0.17511383 1.2605082 0.075802729 60
0.18894383 1.2424127 0.094173551 52
0.18877521 1.2426333 0.11563025 13
0.20919594 1.2159145 0.12957181 32
0.16639888 1.2719109 0.16926765 59
0.17408311 1.2654318 0.010855397 52
0.17695561 1.261646 0.032343622 30
0.17545652 1.2636217 0.054210871 51
0.18762746 1.2475812 0.073609084 62
0.20014736 1.2310809 0.091670595 54
0.18330696 1.2532754 0.11791996 13
0.20133108 1.2295208 0.13317102 46
0.17399186 1.265552 0.16667947 67
0.17340845 1.2699354 0.010925206 39
0.16906044 1.2757075 0.033180997 28
0.18557328 1.2537862 0.05299069 52
0.18093607 1.2599423 0.075315252 45
0.20532456 1.2275659 0.090731993 54
0.19917104 1.2357348 0.11334054 13
0.20879978 1.2229525 0.13092151 40
0.18037334 1.2606893 0.16460891 69
0.18234134 1.2616384 0.010715778 66
0.17561251 1.2706362 0.032762308 29
0.18607101 1.2566509 0.053165004 52
0.17789319 1.2675865 0.076290213 100
0.1974597 1.2414218 0.093234941 53
0.2007989 1.2369566 0.11334054 13
0.20338053 1.2335044 0.13362093 31
0.18324536 1.2604295 0.16409127 69
0.18525171 1.2613131 0.010680873 80
0.19641092 1.2462817 0.031087559 31
0.18064618 1.2675167 0.054210871 51
0.20211473 1.2385987 0.071659178 80
0.18851 1.2569242 0.096050762 76
0.20594183 1.2334437 0.11219569 14
0.20964703 1.2284528 0.13182132 31
0.18150488 1.26636 0.16564418 68
0.18450966 1.2657391 0.010750682 79
0.21102959 1.2297683 0.029936166 66
0.17875105 1.2735498 0.054733805 75
0.19660264 1.2493365 0.073121607 78
0.2088823 1.2326808 0.091044858 81
0.21330571 1.226681 0.1102876 14
0.22042054 1.2170308 0.12822211 32
0.18200648 1.2691343 0.16616182 68
0.1815182 1.2734666 0.010890301 91
0.20555899 1.2406189 0.030564198 64
0.18286449 1.2716271 0.054385185 76
0.18889874 1.2633823 0.075071514 90
0.20933276 1.2354628 0.09135773 94
0.20910433 1.2357749 0.11219569 14
0.23003954 1.2071705 0.12507279 16
0.18717393 1.265739 0.16460891 69
0.19259518 1.261745 0.010611063 94
0.20947 1.2385273 0.030354854 65
0.18921545 1.2663951 0.053687938 78
0.20104063 1.2501252 0.072877869 47
0.21320093 1.233394 0.090731993 100
0.21180502 1.2353146 0.11181407 14
0.23836529 1.198771 0.12237337 17
0.19336301 1.2606885 0.16253836 70
0.19907886 1.2565641 0.010471444 82
0.21235785 1.2381524 0.030250182 65
0.19220272 1.2660981 0.053513627 100
0.20280272 1.2514009 0.072877869 94
0.20681301 1.2458405 0.092922069 100
0.21810642 1.2301818 0.1102876 14
0.22967955 1.2141353 0.12642249 8
0.19855401 1.2572919 0.16098544 72
0.20302299 1.2544737 0.010401634 83
0.21391213 1.2392695 0.030250182 98
0.1938498 1.2672819 0.053513627 100
0.21018025 1.2444803 0.071659178 80
0.20954305 1.2453699 0.092609204 93
0.21506172 1.2376643 0.11181407 14
0.24023157 1.2025205 0.12282328 17
0.19454762 1.2663076 0.16357364 69
0.1978507 1.2655222 0.010611063 81
0.21679133 1.2388701 0.030145511 98
0.18874991 1.2783282 0.054559495 100
0.20962173 1.2489587 0.072146654 79
0.22044203 1.2337331 0.090106249 96
0.20767984 1.2516912 0.11486702 20
0.23617458 1.2115953 0.12507279 16
0.19301179 1.2723312 0.16512655 68
0.19949585 1.2666873 0.010611063 94
0.21949956 1.2383406 0.03004084 99
0.20192519 1.2632446 0.05281638 100
0.21579012 1.2435973 0.071171694 65
0.21856478 1.2396653 0.091044858 100
0.20248729 1.2624482 0.11715672 53
0.22977552 1.223779 0.12822211 24
0.20247656 1.2624633 0.16150309 70
0.20803013 1.2580209 0.010401634 97
0.22105446 1.239434 0.03004084 99
0.20584947 1.261133 0.052467756 100
0.21508411 1.2479542 0.071659178 32
0.22579205 1.2326732 0.089480512 97
0.20862877 1.2571666 0.11563025 100
0.22792715 1.2296262 0.12957181 56
0.20854601 1.2572848 0.15943253 73
0.21421883 1.2525864 0.010262015 84
0.21919081 1.2454407 0.030354854 97
0.20520416 1.2655424 0.05281638 100
0.21100205 1.2572095 0.072877869 47
0.21717411 1.2483391 0.092296332 100
0.22145915 1.2421806 0.11181407 84
0.22500104 1.2370901 0.13137141 94
0.2090604 1.2600001 0.15995017 72
0.21144548 1.2603964 0.010401634 83
0.21753147 1.2515808 0.03066887 96
0.2092866 1.2635236 0.052467756 100
0.218429 1.2502807 0.071659178 64
0.22566319 1.2398021 0.090419121 96
0.22542277 1.2401503 0.11105084 91
0.22782233 1.2366745 0.13092151 96
0.2053709 1.2691954 0.16253836 70
0.21307355 1.2615163 0.010401634 97
0.2236473 1.2460911 0.030250182 65
0.20867208 1.2679374 0.05281638 100
0.22675771 1.2415535 0.07019674 66
0.23057351 1.2359871 0.089480512 97
0.21921346 1.2525593 0.11372216 89
0.23598257 1.2280962 0.12822211 97
0.21030501 1.2655551 0.16098544 72
0.20588073 1.2759762 0.010680873 80
0.22876406 1.2423296 0.029936166 66
0.20937893 1.2708325 0.05299069 79
0.22625548 1.2460181 0.070684217 65
0.23561627 1.2322545 0.08854191 100
0.22650474 1.2456516 0.11181407 98
0.22780043 1.2437465 0.13227122 100
0.21321002 1.2651995 0.1604678 72
0.21315593 1.2688283 0.010506349 40
0.22697896 1.2483579 0.030250182 32
0.21438661 1.2670058 0.052467756 53
0.22117034 1.2569598 0.072146654 79
0.23604542 1.2349315 0.088854775 98
0.22368908 1.2532299 0.11334054 100
0.23373547 1.2383523 0.13047162 96
0.22025958 1.2583085 0.15787962 73
0.21507376 1.270118 0.010506349 40
0.2132591 1.2728276 0.031715591 30
0.21408015 1.2716017 0.05281638 53
0.22856548 1.2499719 0.070927955 97
0.23563457 1.2394162 0.089480512 97
0.23865616 1.2349043 0.10876112 94
0.23662049 1.237944 0.13002171 100
0.21891209 1.2643865 0.15943253 73
0.21894845 1.2678955 0.010436539 27
0.2193518 1.2672889 0.031296901 31
0.22015795 1.2660764 0.052119136 54
0.23455533 1.244423 0.069953002 99
0.23391175 1.245391 0.090419121 96
0.23802552 1.2392039 0.10952436 85
0.2435689 1.2308668 0.1277722 97
0.21948373 1.2670904 0.15995017 72
0.21637121 1.2757826 0.010576159 40
0.22117665 1.2684975 0.031296901 31
0.21100777 1.2839135 0.053862248 51
0.23083109 1.2538613 0.071171694 81
0.24544552 1.2317058 0.087603301 99
0.23001817 1.2550937 0.11295892 100
0.24633312 1.2303602 0.1273223 89
0.21918041 1.2715237 0.16098544 72
0.22681463 1.263503 0.010296919 28
0.19000527 1.3197107 0.03443706 27
0.22908694 1.2600331 0.051247578 55
0.23243737 1.254917 0.071171694 97
0.25238937 1.2244503 0.086038955 100
0.23485529 1.2512249 0.11181407 91
0.24359089 1.2378857 0.1291219 96
0.22613722 1.2645373 0.15839726 73
0.23951963 1.2479153 0.0099478718 43
0.22248867 1.2741306 0.031506244 31
0.22762889 1.2662184 0.051770512 54
0.23205391 1.259407 0.071659178 64
0.24544775 1.2387902 0.08854191 84
0.2451776 1.2392061 0.10876112 87
0.24636948 1.2373714 0.128672 97
0.23216176 1.259241 0.1563267 74
0.24110615 1.2489421 0.0099478718 58
0.24364755 1.2450018 0.029622151 33
0.22819629 1.268959 0.051944822 54
0.2379823 1.2537857 0.070684217 65
0.247004 1.2397976 0.08854191 84
0.24247888 1.2468138 0.1102876 92
0.24369615 1.2449265 0.13047162 96
0.22540936 1.2732801 0.1604678 72
0.23838305 1.2567003 0.010087491 71
0.24845523 1.2409689 0.029308135 68
0.22770405 1.2733793 0.052293446 53
0.24922177 1.2397717 0.068490572 67
0.24430299 1.2474542 0.089793384 83
0.24829617 1.2412174 0.10876112 79
0.25367901 1.2328101 0.12687239 90
0.23124677 1.267846 0.15839726 73
0.23570806 1.2644815 0.01022711 70
0.24680457 1.2470231 0.029622151 100
0.23151258 1.2710823 0.051944822 81
0.24652189 1.2474679 0.069465525 49
0.25224569 1.2384624 0.087916173 84
0.24143547 1.2554704 0.11181407 84
0.25521538 1.2337903 0.12687239 99
0.22357297 1.2835739 0.163056 63
0.24178842 1.2588638 0.010087491 86
0.25494605 1.2379941 0.028994121 68
0.23441386 1.2705609 0.051770512 81
0.24192181 1.2586522 0.070927955 48
0.25817874 1.2328666 0.086664692 57
0.23902872 1.2632411 0.11334054 96
0.25899583 1.2315706 0.12597258 90
0.23782101 1.2651566 0.15684435 66
0.25083727 1.2480175 0.0098431576 88
0.25544003 1.2406631 0.029098792 100
0.23818949 1.2682269 0.051421888 82
0.2414377 1.2630366 0.071415432 48
0.25761932 1.2371808 0.087290429 71
0.25524747 1.2409706 0.10799789 72
0.2584604 1.235837 0.12687239 99
0.24356422 1.2596388 0.15477379 67
0.25786451 1.240616 0.0096686333 90
0.25506037 1.2451333 0.029308135 100
0.23791608 1.2727518 0.051770512 81
0.2495285 1.2540449 0.069953002 49
0.25933361 1.2382493 0.087290429 85
0.25594023 1.2437159 0.10837951 94
0.26119751 1.2352467 0.12642249 82
0.24332318 1.2640413 0.15580906 67
0.24692461 1.2620646 0.010087491 71
0.25672069 1.2461599 0.029308135 100
0.23967293 1.2738382 0.051770512 81
0.25746623 1.2449495 0.068490572 50
0.25682607 1.2459888 0.08854191 56
0.26171398 1.238053 0.10685304 73
0.26588923 1.2312741 0.12507279 92
0.23897082 1.2749782 0.15891489 65
0.25177234 1.2580006 0.0099827768 87
0.26046756 1.2437723 0.029098792 100
0.24039459 1.2766185 0.051944822 81
0.25498533 1.252743 0.069465525 49
0.26466981 1.236896 0.086664692 71
0.25208828 1.2574836 0.11105084 84
0.27258199 1.223949 0.12282328 100
0.24275017 1.272764 0.15787962 65
0.25140402 1.2624584 0.010052586 86
0.25798097 1.2516115 0.029517479 100
0.24216491 1.277696 0.051944822 81
0.25564298 1.2554674 0.069709264 49
0.26834968 1.2345109 0.086038955 58
0.25582752 1.2551631 0.1102876 71
0.2691164 1.2332463 0.12507279 83
0.24450701 1.2738333 0.15787962 65
0.25097647 1.2668726 0.010122396 85
0.25854981 1.2542884 0.029622151 100
0.25206897 1.2650573 0.05055033 84
0.25725448 1.2564408 0.069709264 49
0.26887304 1.2371348 0.086351827 58
0.26553658 1.2426789 0.10723466 81
0.27165899 1.2325056 0.12462288 92
0.2561408 1.2582914 0.15270324 68
0.26193887 1.252461 0.0098082526 74
0.26331371 1.2501583 0.029308135 100
0.24971333 1.2729369 0.051247578 82
0.25997189 1.2557553 0.069465525 49
0.26544204 1.2465936 0.087916173 56
0.26718828 1.2436689 0.10723466 81
0.27527314 1.2301279 0.12372308 83
0.25388563 1.2659489 0.15477379 67
0.26362473 1.2534635 0.0098082526 74
0.27313462 1.2374088 0.02847076 100
0.25553235 1.2671251 0.05055033 84
0.26571602 1.249933 0.068490572 50
0.2671074 1.247584 0.087916173 70
0.26384062 1.253099 0.10914274 85
0.27986044 1.2260541 0.12237337 85
0.25561863 1.2669796 0.15477379 67
0.26632717 1.2527361 0.0097733475 89
0.26970845 1.2469821 0.028994121 100
0.25121295 1.2784566 0.051596198 82
0.26638731 1.2526338 0.068734311 84
0.27878416 1.2315377 0.084787481 73
0.26254475 1.2591729 0.1102876 85
0.28046671 1.2286744 0.12282328 85
0.24756774 1.2846597 0.15995017 64
0.25592884 1.2744544 0.010192205 99
0.26433405 1.260036 0.029726824 100
0.25901008 1.2691689 0.05055033 84
0.26307505 1.2621957 0.069953002 49
0.28039688 1.2324816 0.084787481 73
0.26029906 1.2669578 0.11181407 84
0.28501371 1.2245618 0.12147357 77
0.26801398 1.2537234 -0.0097733475 88
0.25714949 1.2723606 0.15580906 67
0.26870313 1.2564359 0.0098082526 89
0.26704618 1.2593012 0.029622151 100
0.26873347 1.2563834 0.049155839 87
0.27473235 1.2460098 0.067515619 51
0.27904624 1.2385499 0.08572609 58
0.27284649 1.2492709 0.10761628 87
0.2856265 1.2271709 0.12192347 85
0.26664159 1.2600008 0.15166797 69
0.2675038 1.2626679 0.0099129668 87
0.27778292 1.2447413 0.028680105 100
0.26754484 1.2625962 0.049678773 86
0.2725291 1.2539039 0.068490572 50
0.27781755 1.2446809 0.086664692 57
0.27460498 1.2502835 0.10761628 87
0.28633451 1.2298274 0.12237337 76
0.26267371 1.2710915 0.15477379 67
0.27614576 1.2514834 0.0096686333 75
0.27746683 1.2491608 0.028889447 100
0.26335585 1.2739704 0.05072464 84
0.27814561 1.2479674 0.067515619 51
0.28435925 1.2370427 0.085100345 58
0.27531251 1.2529485 0.10799789 87
0.28505087 1.2358267 0.12372308 92
0.26633477 1.2687329 0.15373851 68
0.27184668 1.2628379 0.0098780617 88
0.28691071 1.236147 0.028052073 100
0.27188364 1.2627723 0.049504463 86
0.27778071 1.2523237 0.068003096 51
0.28396764 1.2413616 0.08572609 58
0.27691555 1.2538567 0.10799789 72
0.29330188 1.224823 0.12057377 86
0.26988092 1.2663208 -0.0099478718 75
0.26419207 1.2764003 0.15580906 67
0.27161512 1.2672956 0.0099478718 73
0.28658828 1.2405481 0.028261416 100
0.26776612 1.2741714 0.05055033 84
0.27558738 1.2601997 0.068978049 50
0.29140407 1.2319453 0.083848871 59
0.27381122 1.2633724 0.10990598 85
0.29393917 1.2274168 0.12102367 86
0.27454549 1.2620609 -0.0098431576 87
0.26973608 1.2706522 0.15373851 68
0.27917686 1.2577745 0.0097384425 90
0.2785373 1.2589264 0.029308135 100
0.27339628 1.2681857 0.049853086 85
0.27922738 1.2576835 0.068490572 50
0.28822371 1.2414804 0.085413218 58
0.28315914 1.250602 0.10685304 81
0.29553741 1.2283077 0.12102367 86
0.27238199 1.2700126 -0.0099827768 86
0.27711195 1.2614936 0.15063268 70
0.28763324 1.2464552 0.0094941091 92
0.28217244 1.256372 0.029098792 100
0.2818644 1.2569313 0.048632905 88
0.28284642 1.2551479 0.068003096 51
0.28605968 1.2493128 0.086664692 57
0.2876794 1.2463713 0.10570818 81
0.29337874 1.2360214 0.12282328 76
0.27605823 1.2674752 -0.0099129668 87
0.28069296 1.2590586 0.14959741 70
0.2882559 1.2490774 0.0095290141 76
0.2933628 1.2397301 0.028052073 100
0.28730166 1.250824 0.047935657 89
0.28826377 1.249063 0.067028143 51
0.29049191 1.2449849 0.08572609 58
0.28549534 1.2541301 0.10723466 81
0.29959723 1.2283192 0.12057377 77
0.27861127 1.2667303 0.15166797 69
0.27849811 1.2710866 0.0099478718 73
0.28929517 1.2511594 0.028680105 100
0.28708333 1.2552416 0.048284281 88
0.28237218 1.2639365 0.068978049 50
0.2977978 1.2354668 0.083848871 59
0.28812218 1.2533243 0.10685304 73
0.27945074 1.2693284 -0.0099129668 87
0.27666557 1.2744688 0.15373851 68
0.28412127 1.2650316 0.0098082526 74
0.29673067 1.2415545 0.028052073 100
0.28792086 1.2579572 0.048458595 88
0.28982002 1.2544212 0.067515619 51
0.28896645 1.2560105 0.10723466 81
0.28506747 1.2632699 -0.0097733475 88
0.28582907 1.2618519 0.14959741 70
0.29713127 1.244777 0.0093893949 77
0.29086712 1.2565383 0.028889447 100
0.28400615 1.2694203 0.049504463 86
0.29151252 1.2553265 0.067515619 51
0.29527906 1.2482547 0.10532656 67
0.28491083 1.2677217 -0.0098431576 87
0.28663942 1.2644761 0.15011504 78
0.29785621 1.2474251 0.0094242999 93
0.2907016 1.260972 0.029098792 100
0.28947291 1.2632985 0.048807215 88
0.29320821 1.2562258 0.067515619 51
0.29970056 1.2439328 0.10418171 75
0.28926924 1.2636842 0.14959741 70
0.29395816 1.2589312 0.0096337283 90
0.29982945 1.2477195 0.028261416 100
0.2939693 1.2589099 0.048284281 88
0.29862407 1.2500212 0.10532656 75
0.28468126 1.2766461 -0.0099827768 86
0.29189032 1.2628798 0.14907977 78
0.29834634 1.2544539 0.0095290141 76
0.28824449 1.2739007 0.049678773 86
0.29569221 1.2595633 0.10723466 73
0.28912824 1.2721995 -0.0098780617 97
0.28907353 1.2723049 0.15166797 77
0.29546088 1.2642182 0.0097035384 90
0.2963765 1.2624404 -0.0096686333 100
0.29790485 1.2594731 0.14752686 71
0.29900637 1.2615418 0.0096337283 100
0.29813102 1.2632561 0.068003096 51
0.2899124 1.2793512 -0.0099827768 100
0.2998347 1.2641711 0.048458595 59
0.29793257 1.2766758 -0.0098780617 100
0.29701921 1.2785118 0.1521856 77
0.29881829 1.2793461 -0.0099129668 100
0.2997196 1.2820163 -0.0099478718 100
