# .PCD v0.7 - Point Cloud Data file format
VERSION 0.7
FIELDS x y z intensity
SIZE 4 4 4 4
TYPE F F F F
COUNT 1 1 1 1
WIDTH 753
HEIGHT 1
VIEWPOINT 0 0 0 1 0 0 0
POINTS 753
DATA ascii
0.27386394 0.97823316 0.017731644 6
0.28382677 1.0003564 0.018150503 6
0.28714252 0.99940968 0.018150503 6
0.29454169 1.0118413 0.018394837 4
0.28902224 0.98011833 0.01783636 4
0.29759237 0.99634802 0.018150503 9
-1.1040269 0.15221451 0.058406927 26
-1.1820545 0.16717897 0.020838173 25
-1.1062617 0.16040032 0.019511791 5
-1.0325631 0.15302813 0.018220313 6
-1.0003897 0.15183054 0.017661836 3
-1.084792 0.16871023 0.019162742 1
0.059866995 0.012949228 0.015742071 107
0.054553866 0.010566711 0.047521047 38
0.054100215 0.015638649 0.047311705 24
0.041543543 0.0023883581 0.048253752 100
0.03775841 0.0025066137 0.048358422 77
0.036330402 0.005867064 0.048253752 43
0.04150641 0.019240379 0.047521047 29
0.038888872 0.021019936 0.047521047 19
0.028356731 0.011287987 0.048253752 17
0.032535195 0.022964537 0.047625721 9
0.0089530349 0.00045359135 0.049300469 7
-0.3751297 0.92398381 0.016370358 3
-0.31150174 0.91648555 0.015253403 5
-0.34644914 0.9256494 0.015881689 4
-0.31439614 0.92319423 0.015323213 11
-0.32959837 0.9290573 0.015602452 25
-0.3270995 0.93161088 0.015567547 50
-0.30491155 0.93061018 0.015183593 16
-0.33576995 0.9396106 0.015742071 42
-0.31750828 0.93925512 0.015427927 42
-0.32086509 0.94290984 0.015497737 41
-0.308496 0.94357097 0.015288308 38
-0.30008084 0.9448058 0.015148689 46
-0.31120926 0.95022976 0.015358117 37
-0.31051087 0.9535352 0.015358117 37
-0.30986494 0.95653784 0.015358117 37
-0.30139756 0.95781511 0.015218498 39
-0.29488313 0.95947313 0.015113784 46
-0.30013323 0.96345758 0.015218498 39
-1.0196619 1.1271946 0.084365562 3
-1.0333192 1.1303025 0.14206386 6
-0.30529761 0.96777546 0.015323213 44
-0.99310857 1.1268221 0.083004825 9
-1.0242872 1.1340318 0.14136662 17
-0.30456698 0.970909 0.015323213 44
-1.0034559 1.135218 0.083632857 75
-1.0151844 1.1379755 0.14066938 61
-0.28246534 0.96878189 0.01493926 42
-1.0041142 1.1411023 0.08373753 100
-1.0158284 1.1438994 0.14084367 100
-0.2992568 0.97592759 0.015253403 45
-0.98922235 1.1432302 0.083004825 100
-0.99902338 1.1456068 0.13944919 91
-0.2965911 0.97841275 0.015218498 39
-0.98015267 1.1466912 0.082586139 100
-1.0054414 1.1529167 0.14014643 84
-0.28809828 0.97942752 0.015078879 41
-0.97689074 1.1515459 0.082481466 66
-1.0060282 1.1588268 0.14032075 78
-0.30286884 0.9862842 0.015358117 43
-0.98135751 1.1583463 0.082795486 35
-0.99307388 1.1613175 0.13927488 78
-0.28661579 0.98527342 0.015078879 47
-0.98192686 1.1641871 0.082900152 39
-0.97626227 1.1627295 0.13788038 87
-0.28005469 0.98667717 0.014974165 48
-0.97860914 1.1690276 0.082795486 84
-0.9806655 1.1695645 0.13840333 91
-0.2773602 0.98906147 0.01493926 42
-0.95983034 1.1697602 0.081853434 92
-0.9811874 1.1754149 0.13857763 94
-0.29204077 0.99609673 0.015218498 39
-0.94878107 1.1724384 0.081330076 94
-0.97591442 1.179724 0.13822901 100
-0.29317588 0.99955994 0.015253403 45
-0.94929427 1.1781924 0.081434749 100
-0.96486288 1.182431 0.13735744 100
-0.2885142 1.0014377 0.015183593 45
-0.9478603 1.1834233 0.081434749 100
-0.96149343 1.1871862 0.13718314 94
-0.27426118 1.000448 0.01493926 49
-0.95032805 1.1894637 0.081644088 86
-0.95818287 1.1916597 0.13700883 92
-0.28307152 1.0060496 0.015113784 57
-0.93540353 1.1908869 0.08091139 80
-0.95670182 1.1969217 0.13700883 99
-0.2726323 1.0061967 0.01493926 67
-0.92432684 1.1933134 0.080388032 52
-0.95137233 1.2010788 0.1366602 99
-0.28524351 1.0129769 0.015183593 50
-0.92284018 1.1984572 0.080388032 22
-0.95177156 1.2068734 0.13683452 87
-0.280554 1.0147604 0.015113784 51
-0.92899877 1.2058541 0.080806717 24
-0.93494838 1.2076074 0.13544002 84
-0.26628149 1.0136544 0.014869451 50
-0.92938215 1.2115853 0.08091139 28
-0.93532091 1.213358 0.13561434 92
-0.28652573 1.0227213 0.015253403 78
-0.92408592 1.2153335 0.080702044 56
-0.93765706 1.2194334 0.13596296 99
-0.27416515 1.0221299 0.015043974 100
-0.90724331 1.2158021 0.079864666 100
-0.9322688 1.2234579 0.13561434 99
-0.28092068 1.0273719 0.015183593 100
-0.91712528 1.2244318 0.080492698 90
-0.91735452 1.2245028 0.13439415 87
-0.27047682 1.0272791 0.01500907 100
-0.90600127 1.2265623 0.079969339 72
-0.91005582 1.2278336 0.13387123 52
-0.26385576 1.0283266 0.014904355 98
-0.91391701 1.234663 0.080492698 66
-0.90465075 1.2317219 0.1335226 46
-0.27246839 1.034224 0.015078879 52
-0.90467995 1.2373267 0.080074012 80
-0.9030301 1.2367966 0.1335226 46
-0.26583594 1.0352385 0.014974165 54
-0.89164346 1.2386966 0.07944598 100
-0.91654998 1.246794 0.1349171 52
-0.27060372 1.0399594 0.015078879 52
-0.89189583 1.2443501 0.079550654 100
-0.90162843 1.2475519 0.13369691 73
-0.26206696 1.0402961 0.01493926 67
-0.8959164 1.2512727 0.079864666 100
-0.89995271 1.2526162 0.13369691 82
-0.25732827 1.0418528 0.014869451 93
-0.89044195 1.2550422 0.079655327 100
-0.89448279 1.2564029 0.13334829 84
-0.2545293 1.043884 0.014834546 100
-0.8831535 1.2578852 0.079341307 100
-0.90417844 1.2650427 0.13439415 87
-0.26302212 1.049946 0.01500907 100
-0.87011105 1.2589834 0.078713275 100
-0.89678997 1.2681698 0.13387123 99
-0.26770538 1.0547551 0.015113784 74
-0.86462325 1.2626239 0.078503937 99
-0.90445012 1.2764931 0.13474278 78
-0.26293409 1.0562793 0.015043974 64
-0.86666268 1.2688856 0.078713275 68
-0.89139766 1.2775962 0.13369691 38
-0.24680966 1.0538878 0.014764735 57
-0.85918039 1.2720637 0.078399263 27
-0.8895275 1.2828758 0.13369691 33
-0.24581385 1.0566676 0.014764735 57
-0.85929841 1.2776566 0.078503937 23
-0.88960296 1.2885728 0.13387123 28
-0.25049615 1.0613568 0.014869451 50
-0.84822315 1.2789116 0.077980578 61
-0.8841309 1.291981 0.1335226 18
-0.24947429 1.0641493 0.014869451 50
-0.850187 1.2851685 0.078189917 100
-0.86360174 1.2901042 0.13177948 11
-0.24656832 1.066241 0.014834546 56
-0.8465082 1.2893567 0.078085244 100
-0.850573 1.2908684 0.13073361 1
-0.23617023 1.0655019 0.014660021 59
-0.84094769 1.2928228 0.077875905 42
-0.87112623 1.3041662 0.13282534 1
-0.24261141 1.0710849 0.014799641 51
-0.82977885 1.2941288 0.077352546 51
-0.84876508 1.3013411 0.13090792 7
-0.25649065 1.0795827 0.015078879 47
-0.82794088 1.2989419 0.077352546 59
-0.86550242 1.3133605 0.13265105 37
-0.25732404 1.0829782 0.015113784 51
-0.83362812 1.3063962 0.077771232 68
-0.83954293 1.3086891 0.130385 90
-0.24877882 1.0828772 0.014974165 54
-0.82988757 1.3104942 0.077666558 59
-0.84692985 1.3171697 0.13125655 97
-0.23657972 1.0811114 0.014764735 57
-0.82994491 1.3158017 0.077771232 74
-0.8358441 1.318135 0.130385 99
-0.24291676 1.086823 0.014904355 55
-0.81875795 1.31691 0.077247873 91
-0.82467145 1.3192728 0.12951343 95
-0.24175024 1.0897272 0.014904355 55
-0.81674415 1.321923 0.077247873 95
-0.83742851 1.3302758 0.13090792 100
-0.25544208 1.0985308 0.015183593 61
-0.81480926 1.3266904 0.077247873 100
-0.83546442 1.3351154 0.13090792 100
-0.80833334 1.324049 0.18012288 21
-0.24319673 1.0967702 0.014974165 96
-0.80177766 1.3268865 0.076619841 100
-0.80953485 1.3300822 0.12864187 100
-0.77702397 1.3166889 0.17622307 15
-0.22912735 1.0941598 0.014729831 84
-0.80351359 1.3331361 0.07682918 100
-0.81125063 1.3363552 0.1289905 100
-0.76411086 1.3167424 0.17476064 16
-0.24089611 1.1022997 0.014974165 78
-0.79233295 1.3339891 0.076305822 99
-0.81661278 1.3441904 0.12968774 100
-0.78232569 1.3297845 0.17744176 24
-0.2415722 1.1058395 0.01500907 100
-0.78851742 1.3378912 0.076201156 90
-0.81460017 1.3489573 0.12968774 100
-0.75843447 1.325128 0.1745169 18
-0.24590951 1.1109629 0.015113784 100
-0.80121404 1.3488519 0.077038527 42
-0.8015824 1.3490098 0.12864187 50
-0.77656049 1.3382905 0.17719802 15
-0.23737299 1.1105635 0.014974165 72
-0.81201714 1.3591152 0.077771232 68
-0.81235367 1.3592608 0.12986206 31
-0.79643232 1.3523743 0.18012288 5
-0.24912924 1.1186328 0.015218498 45
-0.8156516 1.3657871 0.078085244 100
-0.8159743 1.3659279 0.130385 93
-0.79277653 1.3558075 0.17987914 24
-0.2479074 1.1214201 0.015218498 94
-0.80076879 1.3649154 0.077352546 100
-0.82482594 1.3755108 0.13143086 100
-0.77982336 1.3556905 0.17841671 35
-0.23565143 1.1194661 0.01500907 139
-0.7967543 1.3690505 0.077247873 100
-0.80985457 1.3748775 0.13021068 100
-0.77041274 1.3573334 0.17744176 28
-0.23989958 1.1246636 0.015113784 145
-0.80740923 1.3794744 0.077980578 100
-0.80046445 1.3763562 0.12951343 100
-0.76473266 1.3603127 0.17695428 22
-0.2241469 1.12068 0.014834546 137
-0.80538064 1.3839724 0.077980578 100
-0.79844636 1.3808312 0.12951343 100
-0.78265828 1.3736794 0.17963541 19
-0.22291809 1.1233802 0.014834546 79
-0.81412774 1.3936827 0.07860861 100
-0.79992992 1.3871913 0.12986206 100
-0.78415364 1.3799784 0.18012288 15
-0.21804845 1.1244003 0.014764735 100
-0.80650192 1.3959302 0.07829459 100
-0.81043082 1.3977431 0.13108224 100
-0.75678188 1.3729879 0.17671055 15
-0.49416226 1.2562354 0.020105172 50
-0.79525584 1.3964458 0.077771232 100
-0.81726211 1.4066935 0.13195379 100
-0.76006776 1.3800597 0.17744176 7
-0.80917782 1.4087114 0.026213514 59
-0.80752188 1.4079334 0.07860861 100
-0.8006056 1.4046831 0.1305593 100
-0.77050656 1.3905389 0.17914793 5
-0.79067844 1.4057409 0.025899371 78
-0.81070071 1.4152353 0.078922622 100
-0.80378264 1.4119549 0.13108224 100
-0.79164988 1.4062015 0.18231654 1
-0.78833932 1.4106505 0.025899371 100
-0.81192964 1.4219429 0.079131968 100
-0.79962355 1.4160521 0.13090792 100
-0.78969628 1.4170576 0.025969181 100
-0.80245179 1.4232185 0.078713275 100
-0.80812472 1.4259584 0.13195379 100
-0.79844433 1.4265153 0.02617861 100
-0.79500574 1.4248412 0.078399263 100
-0.81680542 1.4354547 0.13299966 100
-0.80332392 1.4347448 0.02631823 100
-0.79271179 1.4295321 0.078399263 100
-0.80732101 1.4367081 0.13230242 100
-0.78666109 1.4323616 0.026038991 100
-0.80292851 1.4404227 0.079131968 100
-0.80498546 1.441442 0.13230242 100
-0.78791827 1.4388117 0.0261088 99
-0.80772597 1.4487133 0.079550654 100
-0.80263346 1.4461677 0.13230242 100
-0.79628867 1.44888 0.02631823 100
-0.8035652 1.4525492 0.07944598 100
-0.81093901 1.4562676 0.13334829 100
-0.79391068 1.4535754 0.02631823 100
-0.79049319 1.4518371 0.078817949 100
-0.81208688 1.4628205 0.13369691 100
-0.79863328 1.4619136 0.026457848 100
-0.789882 1.4574237 0.078922622 100
-0.80788749 1.4666615 0.1335226 100
-0.79620975 1.4666169 0.026457848 100
-0.80166501 1.4694397 0.07976 100
-0.79836935 1.4677345 0.13282534 100
-0.78667885 1.4676111 0.02631823 96
-0.80806834 1.4787742 0.080283359 100
-0.8065235 1.477968 0.13387123 100
-0.79143685 1.475764 0.026457848 96
-0.79687279 1.4786241 0.07976 100
-0.80945796 1.4852455 0.13439415 100
-0.79956383 1.4860659 0.026667276 39
-0.77851242 1.4748962 0.078817949 42
-0.80519313 1.4890527 0.13421984 82
0.15072167 1.2674905 0.011134636 12
0.13745669 1.2840183 0.03454173 27
0.12349752 1.3014112 0.059614528 21
0.14570937 1.2737358 0.12555231 18
0.18529111 1.2244178 0.13452072 7
0.14492092 1.274718 0.17340876 7
0.15486655 1.2656845 0.011064826 38
0.16406268 1.2541482 0.032448292 59
0.16624558 1.2514098 0.053862248 51
0.14909044 1.2729304 0.078971334 14
0.17075372 1.2457545 0.096363634 12
0.14860579 1.2735384 0.12517071 66
0.1928736 1.2180057 0.13227122 15
0.15502617 1.2654842 0.16978529 14
0.16147763 1.2607208 0.010925206 100
0.16938961 1.2507277 0.032134276 90
0.15176633 1.2729867 0.056128297 97
0.16185042 1.26025 0.076777689 29
0.1674287 1.2532043 0.097615108 24
0.16246444 1.2594745 0.12135452 100
0.18831292 1.2268267 0.13452072 38
0.15187475 1.2728497 0.17185585 29
0.16319293 1.2620741 0.010925206 100
0.17724147 1.2442023 0.031610917 100
0.15598711 1.2712409 0.055779677 100
0.15743017 1.2694051 0.077996381 28
0.17644238 1.2452189 0.095737889 25
0.16538867 1.2592807 0.1209729 100
0.19231838 1.2250223 0.13362093 38
0.14527529 1.2848678 0.17547931 42
0.16605741 1.2617779 0.010890301 100
0.17021245 1.2564558 0.032343622 90
0.15519926 1.2756855 0.056128297 100
0.16519642 1.2628807 0.076777689 29
0.17558908 1.2495691 0.096363634 25
0.17184594 1.2543635 0.11944643 100
0.18903235 1.2323501 0.13542053 30
0.15530673 1.275548 0.17185585 36
0.16794851 1.2632484 0.010890301 91
0.18553644 1.2405415 0.03119223 63
0.16568422 1.2661718 0.054908119 75
0.16222945 1.270632 0.077752642 28
0.17259473 1.25725 0.097615108 24
0.19053948 1.2340823 0.11410378 41
0.18245706 1.2445172 0.13856985 29
0.1525189 1.2831689 0.1739264 35
0.18055975 1.250248 0.010576159 67
0.16761419 1.2670763 0.032866981 29
0.1673317 1.2674435 0.054908119 50
0.18325767 1.2467408 0.073852822 62
0.18143925 1.2491046 0.095737889 38
0.18489808 1.2446084 0.11639348 13
0.18284443 1.247278 0.13901976 22
0.15540072 1.282953 0.17340876 57
0.17018786 1.267493 0.010925206 65
0.16701469 1.2716494 0.033076324 29
0.17157555 1.2656754 0.054559495 50
0.16573393 1.273327 0.077752642 86
0.19038993 1.2410316 0.093860678 39
0.19617081 1.2334596 0.11334054 13
0.20115173 1.2269354 0.13272113 31
0.16666174 1.2721118 0.16926765 66
0.17425606 1.265563 0.010855397 52
0.16868031 1.2729168 0.033076324 29
0.1672025 1.2748657 0.055431053 49
0.18419614 1.2524531 0.074340299 46
0.19314742 1.2406474 0.093547814 52
0.19889578 1.233066 0.11295892 13
0.21444282 1.2125612 0.12822211 32
0.17416486 1.2656832 0.16667947 67
0.17108992 1.273196 0.010995016 38
0.16554445 1.2805605 0.033495013 28
0.18445924 1.2554414 0.053165004 52
0.18699211 1.2520778 0.07409656 61
0.20421618 1.2292041 0.091044858 54
0.20161429 1.2326593 0.1125773 13
0.20887882 1.223012 0.13092151 32
0.17581066 1.2669268 0.16667947 67
0.18234134 1.2616384 0.010715778 66
0.19235829 1.2482436 0.031296901 31
0.18249139 1.2614377 0.053687938 52
0.18859273 1.2532789 0.07409656 61
0.2021918 1.2350941 0.091983467 53
0.19962314 1.2385288 0.11372216 13
0.21271709 1.2210195 0.13002171 32
0.18440232 1.2588824 0.16357364 69
0.19027358 1.2550792 0.010541254 81
0.19666034 1.2464669 0.031087559 31
0.1820935 1.2661097 0.054036561 51
0.19763035 1.2451588 0.072634131 78
0.20288494 1.2380731 0.092296332 66
0.20735395 1.2320468 0.11181407 14
0.20756555 1.2317616 0.13272113 31
0.18176481 1.2665529 0.16564418 68
0.18714091 1.2627101 0.010680873 80
0.20890164 1.2331622 0.030145511 65
0.17547032 1.2785569 0.055256739 74
0.20156229 1.2431278 0.072146654 79
0.20443901 1.2392217 0.092296332 80
0.21005225 1.2315997 0.11143246 14
0.22065464 1.2172031 0.12822211 24
0.17997673 1.2724379 0.16719711 67
0.1959441 1.2542878 0.010471444 82
0.20816296 1.2375746 0.030354854 65
0.18312716 1.2718192 0.054385185 76
0.19032869 1.2619689 0.074827775 100
0.20724484 1.2388303 0.091983467 93
0.20355484 1.2438776 0.11410378 13
0.24982041 1.1805943 0.11742445 17
0.18857369 1.2643694 0.16409127 69
0.19050306 1.2651684 0.010680873 80
0.21323556 1.2338569 0.03004084 66
0.18479329 1.2730331 0.054385185 76
0.19546083 1.2583396 0.07409656 76
0.21344361 1.2335703 0.090731993 100
0.20512819 1.245024 0.11410378 13
0.23744497 1.200511 0.12282328 17
0.18908009 1.2671285 0.16460891 69
0.20158708 1.253442 0.010401634 83
0.20785028 1.2447515 0.03066887 96
0.19004613 1.2694557 0.053862248 100
0.19716761 1.2595743 0.07409656 61
0.21506381 1.2347423 0.090731993 95
0.20908415 1.2430394 0.11334054 13
0.23894963 1.2015995 0.12282328 17
0.19985363 1.2558472 0.1604678 72
0.20319214 1.2545948 0.010401634 97
0.21640071 1.2361385 0.03004084 99
0.19402343 1.2674062 0.053513627 100
0.21034589 1.2445989 0.071659178 64
0.21430752 1.2390633 0.09135773 100
0.21179727 1.2425709 0.11295892 20
0.23471192 1.2105522 0.12507279 16
0.19134799 1.2711446 0.16512655 68
0.20265496 1.2591234 0.010471444 82
0.20886019 1.2503854 0.030878214 63
0.19354174 1.2719564 0.053862248 100
0.20978895 1.2490776 0.072146654 63
0.21488526 1.241901 0.091670595 100
0.20784801 1.2518107 0.11486702 20
0.22955886 1.221238 0.1277722 16
0.20101693 1.26143 0.16150309 70
0.20197406 1.2635411 0.010541254 95
0.22311607 1.2335593 0.029726824 100
0.19520822 1.2731358 0.053862248 100
0.2113795 1.2502031 0.072146654 63
0.21645197 1.2430097 0.091670595 100
0.19813359 1.2689873 0.1186832 58
0.23330307 1.2191129 0.12687239 33
0.19819525 1.2688999 0.16357364 69
0.20369896 1.2647529 0.010541254 95
0.21786442 1.2445151 0.030354854 97
0.19696668 1.2743711 0.053862248 100
0.2085045 1.2578874 0.073121607 78
0.2226361 1.2376978 0.090419121 100
0.20438072 1.2637789 0.11715672 99
0.23263773 1.2234087 0.1277722 56
0.2076934 1.2590461 0.15995017 72
0.20990652 1.2593304 0.010401634 97
0.21716005 1.248894 0.030564198 97
0.21228617 1.2559066 0.051770512 100
0.21012428 1.2590171 0.073121607 93
0.22869834 1.2322925 0.089167647 100
0.21946552 1.2455769 0.1125773 96
0.22190914 1.2420609 0.13272113 94
0.21372715 1.2538332 0.15787962 81
0.2163277 1.2540469 0.010262015 98
0.21900132 1.2501683 0.030564198 97
0.20284647 1.2736037 0.053513627 100
0.22101769 1.2472434 0.071171694 81
0.21702212 1.2530396 0.092922069 100
0.22797957 1.237144 0.1102876 92
0.22593617 1.2401083 0.13182132 94
0.21120167 1.2614831 0.15995017 72
0.21567574 1.2584511 0.010331824 84
0.23526073 1.2298373 0.029203463 68
0.20901978 1.2681756 0.05281638 100
0.22708699 1.2417792 0.07019674 66
0.22978315 1.2378401 0.089793384 97
0.223986 1.2463098 0.11219569 100
0.22749689 1.2411803 0.13182132 94
0.21065104 1.2657923 0.16098544 72
0.21176425 1.2678857 0.010506349 81
0.23574543 1.2325852 0.029308135 68
0.20516279 1.2776031 0.053687938 78
0.23096678 1.2396194 0.069709264 83
0.23141819 1.238955 0.089793384 100
0.22896031 1.242573 0.11105084 84
0.23352388 1.2358553 0.13002171 96
0.21238375 1.2669737 0.16098544 72
0.20894429 1.275636 0.010645968 40
0.23169687 1.2419038 0.029831495 33
0.2191034 1.2605743 0.051770512 54
0.21365499 1.268652 0.073852822 100
0.23076582 1.2432842 0.090419121 100
0.22613782 1.2501454 0.1125773 96
0.23507047 1.2369022 0.13002171 96
0.21511391 1.266489 0.1604678 72
0.21978304 1.2636449 0.010366729 41
0.22684827 1.253083 0.030459527 32
0.22542062 1.2552172 0.051073264 55
0.22550568 1.25509 0.071659178 80
0.23258543 1.2445064 0.090419121 100
0.23671648 1.2383308 0.10952436 92
0.24119958 1.231629 0.12822211 97
0.22131923 1.2613484 0.15839726 73
0.22142184 1.2647371 0.010366729 41
0.21740225 1.2707894 0.031506244 31
0.21931547 1.2679088 0.052293446 53
0.23041081 1.2512026 0.070927955 48
0.23525357 1.2439109 0.090106249 100
0.24261591 1.2328255 0.10799789 87
0.23410705 1.2456372 0.13182132 94
0.22829437 1.2543893 0.15580906 75
0.21874878 1.2725596 0.010506349 40
0.21695405 1.2752826 0.031715591 30
0.22544143 1.2624059 0.051596198 54
0.23755479 1.2440281 0.069709264 83
0.23256126 1.251604 0.09135773 94
0.24207243 1.237174 0.10876112 87
0.24971122 1.2255849 0.12597258 99
0.21616602 1.2764782 0.16253836 70
0.22479698 1.2669623 0.010366729 41
0.21863145 1.2763842 0.031715591 30
0.2216213 1.2718153 0.052467756 53
0.23912844 1.2450615 0.069709264 83
0.24605817 1.2344718 0.087916173 84
0.23717329 1.2480493 0.11105084 98
0.2522907 1.2249475 0.12552269 90
0.22207862 1.2711164 0.1604678 72
0.23097593 1.2614417 0.01022711 42
0.23136461 1.260843 0.03066887 32
0.235396 1.2546328 0.05055033 56
0.22682044 1.2678431 0.072877869 100
0.246687 1.2372396 0.088229038 98
0.24213448 1.2442526 0.10990598 85
0.24865481 1.2342082 0.1277722 97
0.22917691 1.2642131 0.15787962 73
0.23477384 1.2591352 0.0101573 42
0.25355074 1.2299992 0.028680105 69
0.23160836 1.2640471 0.051421888 55
0.23815119 1.2538947 0.070684217 65
0.2514483 1.2332616 0.087290429 85
0.24477234 1.2436206 0.10952436 85
0.25019583 1.2352049 0.1277722 81
0.23605004 1.2571549 0.15529142 75
0.24518541 1.2468086 0.0098780617 73
0.2487841 1.2411793 0.029308135 68
0.23234814 1.2668895 0.051596198 54
0.2431345 1.2500168 0.069953002 49
0.25102028 1.2376814 0.087916173 84
0.24862522 1.2414279 0.10876112 79
0.25190291 1.2363007 0.1277722 89
0.23263496 1.2664407 0.15787962 65
0.24248227 1.2545704 0.010017681 72
0.24820787 1.2455482 0.029517479 100
0.23613277 1.2645756 0.051247578 82
0.24685529 1.2476796 0.069465525 49
0.25045589 1.2420059 0.08854191 70
0.24177447 1.2556857 0.11181407 98
0.25553924 1.2339959 0.12687239 74
0.23428297 1.2674904 0.15787962 65
0.23786861 1.2658482 0.01022711 70
0.24995285 1.2466512 0.029517479 100
0.23051777 1.2775257 0.052467756 80
0.2464931 1.2521474 0.069953002 49
0.25639725 1.2364137 0.087290429 71
0.25401548 1.2401974 0.10799789 87
0.26243258 1.2268261 0.12462288 92
0.22993356 1.2784536 0.16098544 64
0.24375331 1.2600971 0.010087491 71
0.24730161 1.2544187 0.029936166 99
0.23853737 1.2684444 0.051421888 82
0.24809361 1.2531512 0.069953002 49
0.26527309 1.2256583 0.085100345 58
0.24621305 1.2561607 0.11143246 91
0.26704708 1.2228193 0.12327318 93
0.24390611 1.2598526 0.15477379 67
0.24449822 1.262916 0.010122396 85
0.25118345 1.2521296 0.029726824 100
0.24351519 1.264502 0.050898954 83
0.24986649 1.2542545 0.069953002 49
0.26382315 1.2317359 0.086038955 58
0.25523674 1.2455897 0.10876112 72
0.26460221 1.230479 0.12507279 92
0.24570358 1.2609712 0.15477379 67
0.25242135 1.2537072 0.0099129668 87
0.25278389 1.2531179 0.029726824 100
0.2441127 1.2672126 0.051073264 83
0.25147399 1.2552471 0.069953002 49
0.26328576 1.2360474 0.086664692 57
0.25578678 1.2482368 0.10914274 85
0.26102522 1.2397218 0.1273223 89
0.24530885 1.2652684 0.15580906 67
0.24890232 1.2632772 0.010087491 71
0.26279685 1.2405143 0.028889447 100
0.24896434 1.2631756 0.05055033 84
0.25730664 1.2495087 0.068978049 50
0.26285592 1.2404175 0.087290429 57
0.25745791 1.2492609 0.10914274 78
0.26875848 1.2307476 0.12462288 83
0.24301344 1.2729247 0.15787962 65
0.25261211 1.2608523 0.010017681 72
0.26125389 1.2465887 0.029203463 100
0.24027732 1.2812116 0.052293446 80
0.26404148 1.2419877 0.067759357 51
0.26748824 1.2362987 0.086351827 58
0.25396225 1.258624 0.11105084 98
0.27634668 1.2216774 0.12192347 93
0.24668497 1.2706354 0.15684435 66
0.25338325 1.2636532 0.010052586 86
0.26403129 1.2459319 0.029098792 100
0.24831003 1.2720964 0.051247578 100
0.25657174 1.2583466 0.069953002 49
0.26614702 1.2424107 0.087290429 71
0.26283321 1.2479258 0.10837951 65
0.27398929 1.2293589 0.12372308 83
0.25648174 1.2584964 0.15270324 68
0.26116729 1.2543292 0.0098431576 88
0.26356515 1.2503083 0.029308135 100
0.25609961 1.2628269 0.050201707 85
0.26022628 1.2559071 0.069465525 49
0.26771516 1.2433493 0.087290429 57
0.26341408 1.2505617 0.10876112 87
0.2755141 1.2302717 0.12372308 83
0.25612432 1.2627854 0.15373851 68
0.26701608 1.2484996 0.0097035384 90
0.26634419 1.2496358 0.029203463 100
0.25486529 1.2690456 0.05072464 84
0.26605114 1.2501314 0.068490572 50
0.27447972 1.2358794 0.08572609 58
0.26617673 1.2499189 0.10837951 79
0.27224296 1.2396615 0.12597258 90
0.25399888 1.2705106 0.15580906 67
0.26961663 1.2477108 0.0096686333 75
0.26995823 1.2471288 0.028994121 100
0.25349623 1.2751764 0.051247578 100
0.26965451 1.2476463 0.068003096 51
0.27502623 1.238494 0.086038955 58
0.26578221 1.2542439 0.10914274 78
0.28267974 1.2254542 0.12192347 85
0.25566024 1.2714894 0.15580906 67
0.27338117 1.2452787 0.0095988233 76
0.27572751 1.2412473 0.028575432 100
0.25434759 1.2779818 0.051421888 82
0.26541582 1.2589645 0.069465525 49
0.27972615 1.2343769 0.085100345 58
0.26558384 1.2586758 0.10990598 92
0.28827187 1.2196939 0.12012386 86
0.26432821 1.2608333 -0.0099129668 97
0.25944379 1.2692256 0.15477379 67
0.26095667 1.270436 0.010087491 71
0.273296 1.2490723 0.028994121 100
0.26699519 1.2599812 0.049504463 100
0.26604602 1.2616246 0.069709264 49
0.2871955 1.2250073 0.083223134 60
0.27506131 1.2460159 0.10685304 66
0.28684056 1.2256218 0.12147357 77
0.26395714 1.2652411 -0.0099827768 86
0.26303333 1.2668406 0.15373851 68
0.27372459 1.2524041 0.0097035384 90
0.27505377 1.2500832 0.028994121 100
0.26681262 1.264473 0.049853086 85
0.2727825 1.2540491 0.068490572 50
0.28297469 1.2362525 0.085100345 58
0.27290511 1.253835 0.10837951 87
0.28560686 1.2316564 0.12282328 85
0.26677641 1.2645363 0.15270324 68
0.2753258 1.2533176 0.0097035384 90
0.27664727 1.2509923 0.028994121 100
0.2674695 1.2671416 0.050027397 85
0.2792933 1.2463363 0.067271881 51
0.28159425 1.2422876 0.086038955 58
0.28227133 1.2410963 0.10532656 90
0.2852135 1.2359192 0.12372308 83
0.26742151 1.267226 -0.0099827768 86
0.26841792 1.2654728 0.15270324 68
0.28004408 1.2490946 0.0095988233 76
0.27645111 1.255471 0.029203463 100
0.26733738 1.2716453 0.05037602 84
0.27811751 1.2525136 0.068003096 51
0.27750874 1.253594 0.087916173 70
0.28110847 1.2472056 0.10647142 81
0.29074952 1.2300955 0.12192347 85
0.27213252 1.2631353 0.15166797 69
0.27675492 1.2587142 0.0097733475 89
0.28780937 1.2389426 0.028156744 100
0.27289167 1.2656238 0.049678773 86
0.28165656 1.2499473 0.067515619 51
0.28875396 1.2372532 0.084787481 59
0.28173435 1.2498082 0.10685304 81
0.29703173 1.222448 0.11967396 87
0.27285141 1.2656958 -0.0099129668 87
0.26622722 1.2775435 0.15580906 67
0.28145638 1.2544655 0.0096686333 75
0.28372014 1.2503816 0.028784776 100
0.27277824 1.2701213 0.050027397 85
0.28341746 1.2509277 0.067515619 51
0.29046831 1.2382076 0.084787481 59
0.27968749 1.2576567 0.10837951 79
0.2939679 1.2318941 0.12192347 93
0.27854797 1.2597125 -0.0097733475 88
0.27932832 1.2583046 0.14959741 70
0.2859554 1.2500968 0.0095639192 91
0.28916457 1.2442617 0.028366089 100
0.28307953 1.2553259 0.048458595 88
0.28118724 1.2587665 0.068490572 50
0.28821456 1.2459891 0.086038955 58
0.28698274 1.2482289 0.1060898 81
0.29831833 1.227618 0.12057377 77
0.27439141 1.2711229 -0.0099827768 86
0.28281102 1.2558141 0.14856213 71
0.2905055 1.245749 0.009459204 77
0.28508338 1.2556897 0.028994121 100
0.28572932 1.2545055 0.048284281 88
0.282895 1.2597018 0.068490572 50
0.29839078 1.2312924 0.083223134 60
0.28865367 1.2491441 0.1060898 81
0.29618466 1.235337 0.12237337 76
0.27988318 1.2652236 0.15115032 77
0.28922942 1.251883 0.0095639192 91
0.29239881 1.2460263 0.028366089 100
0.27880326 1.2711496 0.049853086 85
0.2920785 1.246618 0.066540658 52
0.29616126 1.2390735 0.084474608 59
0.28930965 1.2517347 0.10647142 81
0.28060746 1.2678157 0.15166797 69
0.28919172 1.2564054 0.0096337283 90
0.28856567 1.257573 0.028994121 100
0.28355405 1.2669196 0.049330149 87
0.2910963 1.2528534 0.067271881 51
0.29208902 1.251002 0.1060898 81
0.27974215 1.2740288 -0.0099827768 86
0.28617251 1.2620362 0.14959741 70
0.28517148 1.2678604 0.0098431576 88
0.29581174 1.2478573 0.028366089 100
0.28707471 1.2642825 0.048981529 87
0.28803769 1.2624722 0.068490572 50
0.29552948 1.2483879 0.10532656 75
0.28611058 1.2660949 -0.0098082526 99
0.28417662 1.2697307 0.15166797 69
0.29072854 1.2617521 0.0097035384 90
0.29570189 1.2523193 0.028575432 100
0.29446346 1.2546682 0.047935657 89
0.29539937 1.2528931 0.067028143 51
0.29636896 1.251054 0.10570818 73
0.29501989 1.2536128 0.14649157 72
0.298848 1.2502053 0.009459204 77
0.29915398 1.2496203 0.028366089 100
0.29514873 1.2572784 0.048109971 89
0.29516211 1.2572528 0.067515619 51
0.28856716 1.2698624 0.15115032 77
0.29723701 1.2576293 0.028784776 100
0.29877019 1.2546715 0.047761347 90
0.29306811 1.2656718 0.14959741 70
0.29763472 1.260839 0.0096337283 100
0.29491264 1.2661333 0.048807215 58
0.29947764 1.2572546 0.067271881 69
0.28849104 1.2786231 -0.0099827768 100
0.29471323 1.2665212 0.14959741 78
0.29926378 1.2616732 0.0096337283 100
0.29927471 1.2616518 0.048284281 59
0.29811645 1.263923 0.14856213 79
0.29457775 1.2749929 -0.0098780617 100
0.2999267 1.2691672 0.14959741 78
