# .PCD v0.7 - Point Cloud Data file format
VERSION 0.7
FIELDS x y z intensity
SIZE 4 4 4 4
TYPE F F F F
COUNT 1 1 1 1
WIDTH 773
HEIGHT 1
VIEWPOINT 0 0 0 1 0 0 0
POINTS 773
DATA ascii
-1.1305219 0.1500406 0.059767663 23
-1.1763744 0.16449124 0.020733459 23
-1.1195568 0.15654649 0.059244301 30
-1.1203405 0.16084477 0.019756123 5
-1.0367061 0.15234798 0.018290121 6
-1.0163938 0.15298939 0.017941074 5
-1.025763 0.15788002 0.018115599 1
-0.38915914 1.1623998 0.02139665 1
-0.37021708 1.1181237 0.020558935 1
-0.37213367 1.1385444 0.020907983 1
-0.34726009 1.0751379 0.019721219 1
-0.35566449 1.1144441 0.020419316 1
-0.35177219 1.1156789 0.020419316 1
-0.33836105 1.0863523 0.019860838 1
-0.33691889 1.0951719 0.020000458 1
-0.33561191 1.1039362 0.020140078 1
-0.32715666 1.0897789 0.019860838 1
-0.32429612 1.0948054 0.019930648 1
-0.32384005 1.1074467 0.020140078 1
-0.31109965 1.0778301 0.019581599 1
-0.31390944 1.1019877 0.020000458 1
-0.30177727 1.07217 0.019441981 1
-0.30231339 1.0886312 0.019721219 1
-0.29005811 1.0588216 0.019162742 1
-0.29157639 1.0791323 0.019511791 1
-0.27872267 1.0453138 0.018883504 1
-0.27710596 1.0540164 0.019023122 2
-0.26923004 1.0395383 0.018743884 2
-0.26658896 1.0443468 0.018813694 2
-0.2648932 1.0530282 0.018953314 2
-0.25688627 1.0364777 0.01863917 3
-0.24982916 1.0217398 0.018359931 6
-0.24766563 1.0284381 0.018464645 7
-0.24297245 1.0254472 0.018394837 7
-0.24093439 1.0320894 0.018499551 6
-0.23285232 1.0134349 0.018150503 6
-0.22595975 0.9985984 0.017871264 6
0.056186616 0.0058035851 0.015881689 129
0.051947296 0.0051135421 0.047835063 43
0.048184693 0.0051867962 0.047939736 27
0.044416606 0.0052770972 0.04804441 100
0.038294375 0.0021492243 0.048358422 77
0.034503818 0.0022819638 0.048463095 51
0.032946289 0.0057402849 0.048358422 25
0.044905782 0.029004037 0.046997689 21
0.028886557 0.010924041 0.048253752 8
0.021695495 0.0061771274 0.048672438 8
0.019032478 0.0080259442 0.048672438 8
0.018671095 0.013153315 0.048463095 8
-0.73057312 0.65413475 0.022443796 12
-0.73535508 0.66296935 0.022513604 124
-0.73369163 0.6671676 0.0224787 131
-0.72207958 0.67256546 0.022269271 132
-0.73238391 0.67627764 0.022443796 100
-0.75065702 0.67950541 0.022757938 100
-0.74698931 0.6845361 0.022688128 126
-0.73530477 0.68981111 0.0224787 130
-0.72161621 0.6953429 0.022234365 120
-1.0377545 1.1286895 0.085307606 3
-1.041657 1.1295712 0.14276111 4
-1.0365427 1.1339496 0.028412517 7
-0.99956912 1.125468 0.083318844 5
-1.0346301 1.1335108 0.14223817 6
-1.0333149 1.1390316 0.028377613 10
-1.0080445 1.1331416 0.083842203 39
-1.0139475 1.1345176 0.14049506 42
-0.98920733 1.1344205 0.027609708 31
-0.99510616 1.1358172 0.083214171 91
-1.0146046 1.1404335 0.14066938 86
-0.98209304 1.1383886 0.027504992 40
-1.0054712 1.1440099 0.083842203 100
-1.0074904 1.1444954 0.14014643 86
-0.97885519 1.1432601 0.027470088 37
-0.97699255 1.1428053 0.082376793 100
-1.0081091 1.1504023 0.14032075 87
-0.99695271 1.1534052 0.027819136 23
-0.97180468 1.1471723 0.082167454 98
-1.0009701 1.1544008 0.13979781 86
-0.97621208 1.1539243 0.027470088 25
-0.98403722 1.1558928 0.082900152 41
-0.99961895 1.1598125 0.13979781 73
-0.96904999 1.1577657 0.027365373 44
-0.98074561 1.1607512 0.082795486 33
-0.98087436 1.1607841 0.13822901 82
-0.96187967 1.1615617 0.027260659 63
-0.98323935 1.1670936 0.083004825 69
-0.98142976 1.166625 0.13840333 91
-0.96630591 1.1683612 0.027365373 67
-0.96252674 1.1673683 0.081958108 98
-0.9858169 1.1734871 0.13892625 94
-0.96104151 1.172622 0.027295563 78
-0.95534068 1.1711029 0.081644088 94
-0.97477299 1.1762807 0.1380547 99
-0.95962685 1.177894 0.027295563 81
-0.9520033 1.1758341 0.081539422 98
-0.96565193 1.1795219 0.13735744 100
-0.94662207 1.179991 0.027086135 92
-0.94672495 1.1800191 0.081330076 100
-0.95652682 1.1827043 0.1366602 100
-0.93747467 1.1830724 0.026946515 93
-0.94913346 1.1863101 0.081539422 98
-0.96275598 1.190093 0.13735744 92
-0.93994671 1.1890857 0.027016325 93
-0.94005412 1.189116 0.081120729 86
-0.95560068 1.1934888 0.13683452 98
-0.95193642 1.1981213 0.027260659 70
-0.92321604 1.1899346 0.080283359 76
-0.95986146 1.2003803 0.13735744 100
-0.97156566 1.209465 0.027644612 46
-0.93133539 1.1978456 0.080806717 36
-0.94877928 1.2028837 0.13648589 98
-0.93355721 1.2041036 0.026981421 52
-0.92791599 1.2024529 0.080702044 26
-0.94534689 1.2075534 0.13631158 84
-0.91861218 1.2053015 0.026737086 75
-0.92448252 1.2070415 0.080597371 28
-0.93807966 1.2110717 0.13578865 87
-0.91899902 1.2110002 0.026771991 75
-0.91529626 1.2098887 0.080178685 34
-0.93653101 1.2162635 0.13578865 94
-0.9231903 1.2178702 0.026876707 81
-0.90801913 1.213258 0.079864666 93
-0.93305796 1.2208701 0.13561434 99
-0.9177956 1.2218333 0.026806897 85
-0.91028076 1.21952 0.080074012 98
-0.92385823 1.2236996 0.1349171 99
-0.9047547 1.2233841 0.026597468 83
-0.91060954 1.2252089 0.080178685 84
-0.91655904 1.2270631 0.13439415 66
-0.89934915 1.2272562 0.026527658 85
-0.91663057 1.2327082 0.080597371 66
-0.91115457 1.2309806 0.13404553 47
-0.89774424 1.2323126 0.026527658 83
-0.90549344 1.2347871 0.080074012 76
-0.91523045 1.2378964 0.13456847 43
-0.8999272 1.2385932 0.026597468 88
-0.89816076 1.2380223 0.07976 97
-0.90790075 1.2411702 0.13404553 45
-0.89836532 1.2433988 0.026597468 100
-0.89090544 1.2409605 0.07944598 100
-0.91201168 1.247859 0.13456847 64
-0.89290696 1.2471958 0.026527658 100
-0.89114898 1.2466145 0.079550654 100
-0.90276819 1.2504572 0.13387123 80
-0.87985426 1.2484225 0.02631823 99
-0.8989467 1.2548108 0.080074012 100
-0.90486103 1.2567897 0.13421984 84
-0.87438732 1.2521285 0.02624842 96
-0.88400286 1.2553831 0.079341307 100
-0.9012658 1.2612264 0.13404553 77
-0.87647945 1.258393 0.02631823 93
-0.87852067 1.2590919 0.079131968 100
-0.90142721 1.2669346 0.13421984 94
-0.87854511 1.2646781 0.026388038 89
-0.87491733 1.2634219 0.079027295 100
-0.88650483 1.2674344 0.13299966 91
-0.86548585 1.265696 0.02617861 81
-0.87318629 1.2683928 0.079027295 89
-0.89792258 1.2770553 0.13421984 52
-0.85620683 1.267964 0.026038991 81
-0.86390716 1.2706907 0.07860861 51
-0.89614385 1.2821064 0.13421984 36
-0.85822541 1.2742176 0.0261088 92
-0.85274893 1.2722569 0.078085244 17
-0.89809901 1.2884945 0.13456847 38
-0.86021739 1.2804916 0.02617861 96
-0.85286528 1.2778301 0.078189917 51
-0.87567264 1.2860863 0.13265105 22
-0.86218268 1.2867854 0.02624842 99
-0.85671085 1.2847831 0.078503937 89
-0.86450726 1.2876362 0.13177948 15
-0.84536618 1.2861617 0.025969181 100
-0.85490543 1.2896903 0.078503937 100
-0.86082321 1.2918793 0.13160518 5
-0.82866138 1.2851861 0.025689943 100
-0.83820707 1.2887533 0.077666558 72
-0.87214917 1.3014369 0.13282534 1
-0.83807904 1.2942345 0.025899371 100
-0.83638781 1.2935958 0.077666558 46
-0.8646937 1.304286 0.13230242 3
-0.83810884 1.2997897 0.025934275 75
-0.83268577 1.2977198 0.077561885 53
-0.85351306 1.3056688 0.13143086 15
-0.84371406 1.3075101 0.026073895 71
-0.83828908 1.3054178 0.077980578 68
-0.84605783 1.308414 0.13090792 56
-0.82878679 1.3072894 0.025829561 81
-0.82710689 1.3066347 0.077457212 68
-0.84788281 1.3147306 0.13125655 100
-0.82318157 1.3106337 0.025759751 96
-0.83265895 1.3143651 0.077875905 68
-0.83670336 1.3159574 0.130385 99
-0.81756979 1.3139457 0.025689943 100
-0.81775945 1.3140211 0.0771432 89
-0.83108658 1.3193219 0.13003637 99
-0.81937379 1.3202071 0.025759751 100
-0.81770545 1.3195367 0.077247873 95
-0.84210175 1.329339 0.13125655 100
-0.81744486 1.3249838 0.025759751 100
-0.81762952 1.3250587 0.077352546 97
-0.83091015 1.3304487 0.130385 100
-0.78722578 1.3127192 0.17719802 15
-0.80809814 1.3267198 0.025620133 100
-0.81568366 1.3298292 0.077352546 97
-0.80682331 1.3261971 0.12829325 100
-0.80001718 1.3234072 0.17914793 15
-0.79875618 1.3283973 0.025480513 100
-0.81187576 1.3338289 0.077247873 97
-0.81591874 1.3355027 0.12933913 100
-0.78157014 1.3212821 0.17695428 18
-0.79679877 1.333102 0.025480513 100
-0.79147249 1.330875 0.076201156 100
-0.81393641 1.3402672 0.12933913 100
-0.75949174 1.3175037 0.17427316 16
-0.80219382 1.3409109 0.025620133 100
-0.78950649 1.3355542 0.076201156 100
-0.81927949 1.3481247 0.13003637 100
-0.7850042 1.3336532 0.17792924 24
-0.80387181 1.347196 0.025689943 88
-0.78568691 1.3394432 0.076096483 63
-0.80625647 1.3482126 0.1289905 97
-0.77937633 1.3367529 0.17744176 16
-0.81674796 1.3577665 0.025969181 55
-0.82242197 1.3602066 0.07829459 53
-0.80260295 1.3516834 0.12881619 24
-0.80129629 1.3511215 0.18061037 5
-0.79634541 1.3545697 0.025620133 99
-0.80936128 1.3602209 0.077666558 100
-0.8279776 1.368304 0.13143086 71
-0.79561788 1.3542538 0.18012288 14
-0.79612809 1.3600686 0.025655037 100
-0.80546349 1.3641605 0.077561885 100
-0.82223111 1.3715106 0.13108224 100
-0.78084356 1.3533685 0.17841671 35
-0.79406017 1.3647637 0.025655037 100
-0.80338126 1.3688884 0.077561885 100
-0.81101328 1.3722657 0.13021068 100
-0.76064616 1.3499775 0.17597933 30
-0.80293077 1.3743453 0.025864467 100
-0.80857688 1.3768673 0.077980578 100
-0.80526441 1.3753877 0.12986206 100
-0.77492601 1.3618357 0.17817298 22
-0.78805226 1.3733106 0.025620133 100
-0.81191248 1.3840687 0.07829459 100
-0.7995103 1.3784769 0.12951343 100
-0.77647132 1.3680888 0.17866045 19
-0.78219217 1.3765534 0.025550323 100
-0.81147033 1.389884 0.078399263 100
-0.80089766 1.3850701 0.12986206 100
-0.77427036 1.3729465 0.17866045 15
-0.79278606 1.3870448 0.025794657 100
-0.80385381 1.3921306 0.078085244 100
-0.80960482 1.3947735 0.13090792 100
-0.76133496 1.3725922 0.17719802 15
-0.79788035 1.3950934 0.025934275 100
-0.79805011 1.3951721 0.077875905 100
-0.80741566 1.3995155 0.13090792 100
-0.77543133 1.3846824 0.17939167 10
-0.79750139 1.4006423 0.025969181 100
-0.8049044 1.4041069 0.078399263 100
-0.80520993 1.4042499 0.13090792 100
-0.77867132 1.3918297 0.18012288 5
-0.78997761 1.4025464 0.025864467 100
-0.80821258 1.4111543 0.078713275 100
-0.7958923 1.4053384 0.13021068 100
-0.79634839 1.4055537 0.18280402 3
-0.78776151 1.4072199 0.025864467 100
-0.80776936 1.4167503 0.078817949 100
-0.80086142 1.4134598 0.13090792 100
-0.77978438 1.4034202 0.18085411 1
-0.79645592 1.4168482 0.026073895 100
-0.80021638 1.4186547 0.078503937 100
-0.80590373 1.421387 0.13160518 100
-0.79958814 1.4241608 0.02617861 100
-0.79434937 1.4216216 0.07829459 100
-0.81437904 1.4313302 0.13265105 100
-0.80077392 1.4308605 0.02624842 100
-0.79912823 1.4300554 0.078713275 100
-0.8083666 1.4345752 0.13230242 100
-0.79487258 1.4338014 0.02617861 100
-0.80756193 1.4400647 0.079341307 100
-0.80246526 1.4375491 0.13195379 100
-0.78538698 1.4349266 0.026038991 100
-0.80879039 1.4465798 0.079550654 100
-0.80012685 1.442266 0.13195379 100
-0.79020566 1.4431741 0.02617861 100
-0.79928142 1.4477329 0.079131968 100
-0.80845445 1.4523404 0.13299966 100
-0.79866964 1.4530357 0.026388038 100
-0.79702657 1.4522035 0.079131968 100
-0.81329399 1.4604423 0.13369691 100
-0.79983884 1.4595587 0.026457848 100
-0.80175143 1.4605358 0.079550654 100
-0.80377847 1.4615712 0.13299966 100
-0.79398912 1.4621999 0.026388038 100
-0.81010777 1.4705014 0.080178685 100
-0.79616386 1.46332 0.13247673 100
-0.78446656 1.4631999 0.02624842 100
-0.8058818 1.4743242 0.080074012 100
-0.80611211 1.4744438 0.13369691 100
-0.78900152 1.4717995 0.026388038 100
-0.79267722 1.473726 0.07944598 100
-0.81234449 1.4840341 0.13456847 100
-0.79007941 1.4783382 0.026457848 88
-0.78138369 1.4737418 0.078922622 100
-0.80808228 1.4878541 0.13439415 100
-0.79338592 1.4857954 0.13317397 37
0.13092127 1.2895555 0.12975012 5
0.16499311 1.2507391 0.010750682 26
0.15547416 1.262625 0.033076324 29
0.15145427 1.2676444 0.055779677 24
0.16226631 1.254144 0.098240845 12
0.15482777 1.263432 0.122881 24
0.20160338 1.2050257 0.128672 8
0.14061925 1.2811735 0.17547931 7
0.15920612 1.2614713 0.010960111 90
0.17211276 1.2452396 0.03182026 61
0.1531938 1.2690325 0.055779677 49
0.16947284 1.2485596 0.075071514 15
0.15781149 1.2632252 0.099805191 24
0.15899637 1.2617351 0.12211776 87
0.18250555 1.2321694 0.13632034 30
0.1544295 1.2674785 0.17030293 21
0.15968499 1.2644019 0.010995016 100
0.17377394 1.2465558 0.03182026 100
0.14753076 1.2797973 0.056825545 100
0.16130528 1.2623496 0.077021427 29
0.1656557 1.2568389 0.098240845 24
0.15828219 1.2661788 0.122881 100
0.1865361 1.2303903 0.13542053 45
0.15018314 1.2764376 0.17289113 35
0.1564787 1.2720568 0.011134636 100
0.17420763 1.249438 0.031924933 100
0.15422913 1.2749267 0.056128297 100
0.16792464 1.2574539 0.076046467 29
0.17710629 1.2457399 0.095737889 25
0.16607222 1.2598174 0.1209729 100
0.18934754 1.2301224 0.13497064 38
0.1507616 1.2793506 0.17340876 42
0.16928658 1.2592241 0.010820492 100
0.16852379 1.2602042 0.032552965 88
0.16455942 1.2652986 0.054908119 100
0.1659711 1.2634845 0.076777689 29
0.18119556 1.2439208 0.095112152 25
0.18587026 1.2379137 0.11524864 100
0.18257818 1.2421441 0.13811995 30
0.152542 1.2807412 0.17340876 42
0.17457959 1.2557373 0.010715778 66
0.17015147 1.2614665 0.032552965 59
0.16742241 1.2649975 0.054733805 50
0.18339086 1.2443368 0.073609084 46
0.1706892 1.2607708 0.098240845 36
0.17301691 1.2577591 0.11982805 19
0.18533757 1.2418181 0.13767004 22
0.14596823 1.2927561 0.17703223 34
0.18114677 1.2506989 0.010576159 67
0.16579005 1.2707121 0.033076324 29
0.16308817 1.2742333 0.055605363 49
0.18384039 1.2471886 0.073852822 46
0.18924007 1.2401515 0.093860678 52
0.18069756 1.2512844 0.11791996 13
0.19054571 1.2384499 0.13632034 30
0.15837976 1.2803694 0.17237349 57
0.17070904 1.2678906 0.010925206 52
0.15785769 1.2847604 0.033913698 27
0.16726536 1.2724111 0.055256739 49
0.18671125 1.2468846 0.073609084 77
0.19208047 1.2398366 0.093547814 52
0.18713865 1.2463236 0.11639348 13
0.19690675 1.2335012 0.13452072 46
0.16601709 1.2740496 0.16978529 66
0.17727426 1.2628318 0.010785587 39
0.1668855 1.2765682 0.03328567 28
0.16781959 1.275333 0.055431053 49
0.19316781 1.2418168 0.072634131 63
0.19610581 1.237932 0.092922069 66
0.1947248 1.239758 0.1144854 13
0.19852683 1.2347308 0.13452072 46
0.17710134 1.2630605 0.16564418 68
0.17908308 1.2641946 0.010785587 39
0.16874474 1.2779689 0.03328567 28
0.17804626 1.265576 0.054210871 51
0.19013304 1.249472 0.073609084 62
0.20138058 1.2344863 0.091983467 53
0.20116293 1.2347763 0.11295892 13
0.20842105 1.2251059 0.13137141 31
0.178911 1.2644238 0.16564418 68
0.18081039 1.2654862 0.010785587 65
0.17529353 1.2728904 0.032866981 29
0.17025501 1.2796526 0.055605363 49
0.19892529 1.2411745 0.072146654 79
0.19946328 1.2404524 0.092922069 53
0.20747951 1.2296939 0.11143246 14
0.21234041 1.22317 0.13047162 32
0.18525612 1.2595197 0.16357364 69
0.18364498 1.2651004 0.010750682 92
0.20785162 1.2323869 0.030145511 65
0.18616861 1.2616899 0.053513627 78
0.2052128 1.2359531 0.071171694 81
0.20102528 1.2416122 0.092922069 66
0.20667022 1.2339835 0.11219569 14
0.22079998 1.2148883 0.1277722 32
0.18228501 1.2669383 0.16564418 68
0.19366235 1.2550949 0.010506349 68
0.21301496 1.2287495 0.029831495 66
0.17727146 1.2774084 0.055082429 75
0.20214057 1.2435532 0.072146654 95
0.206182 1.2380515 0.091983467 100
0.21177873 1.2304325 0.11105084 14
0.22120127 1.2176052 0.12822211 24
0.18059084 1.2728896 0.16719711 67
0.19182318 1.261183 0.010611063 94
0.21226481 1.2331506 0.03004084 66
0.18491444 1.2706573 0.054210871 100
0.20145649 1.2479725 0.072634131 78
0.21712896 1.2264801 0.089480512 100
0.20297733 1.2458869 0.1144854 13
0.2330994 1.2045791 0.12417299 16
0.19373089 1.2585669 0.16202073 70
0.19588506 1.2591906 0.010541254 95
0.2033433 1.2488874 0.030982886 63
0.19717884 1.2574034 0.05264207 79
0.20312706 1.2491862 0.072634131 78
0.20598304 1.2452408 0.092922069 100
0.20924538 1.2407341 0.11295892 13
0.22776219 1.2151541 0.12687239 16
0.19770405 1.2566777 0.16098544 72
0.20226243 1.2539281 0.010401634 83
0.20967898 1.2436068 0.030564198 97
0.1953944 1.2634859 0.053165004 100
0.2071186 1.24717 0.072146654 63
0.21456033 1.2368137 0.091044858 100
0.22120139 1.2275717 0.10952436 14
0.25888446 1.1751301 0.11517494 9
0.19602308 1.262611 0.16253836 70
0.19922304 1.2615896 0.010541254 95
0.20777109 1.2496102 0.030878214 95
0.1900892 1.2743901 0.054210871 100
0.20870283 1.2483044 0.072146654 79
0.21381539 1.2411394 0.091670595 100
0.20789605 1.2494351 0.1144854 20
0.2307997 1.2173371 0.12687239 16
0.19878069 1.2622095 0.16202073 70
0.20094115 1.2628111 0.010541254 95
0.21983707 1.2361333 0.029936166 66
0.18954885 1.2788951 0.054559495 100
0.21496403 1.2430131 0.071171694 97
0.22002912 1.2358621 0.090419121 82
0.20730215 1.2538304 0.11524864 33
0.23123676 1.2200389 0.1273223 16
0.19380131 1.2728913 0.16512655 68
0.20027646 1.2672372 0.010611063 81
0.21678862 1.2437602 0.030354854 97
0.1935308 1.2768283 0.054210871 100
0.21653444 1.2441216 0.071171694 48
0.22271219 1.2353381 0.090106249 96
0.19309628 1.277446 0.12059128 76
0.22936761 1.2258754 0.128672 40
0.20213917 1.2645888 0.16202073 70
0.21125653 1.2553968 0.010331824 98
0.2208133 1.2417026 0.030145511 65
0.20451257 1.2650604 0.05281638 100
0.21600235 1.2485964 0.071659178 80
0.22328946 1.2381544 0.090419121 96
0.20619404 1.262651 0.1167751 100
0.22881016 1.2302437 0.12957181 80
0.21058774 1.2563552 0.15891489 73
0.22197968 1.2433684 0.010052586 86
0.21669146 1.2509998 0.03066887 96
0.20615616 1.2662034 0.05281638 100
0.21646062 1.251333 0.071902916 48
0.21696794 1.2506008 0.092609204 93
0.22572088 1.2379694 0.11066922 92
0.22034872 1.2457221 0.13362093 85
0.21440303 1.2543023 0.15787962 73
0.21456835 1.2576914 0.010331824 98
0.22289985 1.2455779 0.030250182 98
0.21014848 1.2641175 0.052467756 100
0.22151762 1.2475876 0.071171694 65
0.21976703 1.2501328 0.092296332 100
0.22401869 1.2439512 0.11181407 100
0.23084602 1.2340249 0.13002171 96
0.20514792 1.2713878 0.163056 70
0.21618742 1.258801 0.010331824 84
0.22785783 1.241712 0.029936166 66
0.1983054 1.2849855 0.054559495 100
0.22198367 1.2503135 0.071415432 64
0.23027325 1.2381752 0.089793384 83
0.22448498 1.2466509 0.11219569 100
0.23348555 1.2334714 0.12957181 96
0.2068125 1.2725286 0.163056 70
0.21245974 1.2683575 0.010506349 40
0.22295126 1.2528675 0.030564198 64
0.21704486 1.2615879 0.051944822 81
0.22049072 1.2565002 0.072146654 63
0.23761207 1.2312217 0.088229038 98
0.21971181 1.2576503 0.1144854 100
0.23854592 1.2298429 0.12822211 97
0.21957809 1.2578477 0.15787962 73
0.21634603 1.2661552 0.010436539 41
0.22789794 1.2489772 0.030250182 32
0.21867687 1.2626892 0.051944822 54
0.22432134 1.2542957 0.071659178 80
0.23583627 1.2371726 0.089167647 100
0.2311908 1.2440805 0.11105084 100
0.23572269 1.2373415 0.13002171 96
0.2222757 1.2573376 0.15736198 74
0.22252035 1.2606639 0.010296919 42
0.22513685 1.2567436 0.03066887 32
0.21708056 1.2688143 0.052467756 53
0.22821781 1.2521274 0.071171694 65
0.23417911 1.2431955 0.090106249 96
0.23720708 1.2386587 0.10952436 92
0.23194686 1.2465401 0.13227122 100
0.21861663 1.2665129 0.15995017 72
0.23077673 1.2517455 0.010087491 43
0.22454625 1.261148 0.030878214 31
0.21213326 1.2798808 0.053513627 52
0.23749396 1.2416084 0.069465525 99
0.22920313 1.2541202 0.091983467 93
0.23442513 1.2462397 0.11105084 98
0.24321675 1.232972 0.12822211 97
0.21813077 1.2708298 0.16098544 72
0.22696653 1.2612108 0.010262015 28
0.21089888 1.2856436 0.032343622 30
0.21500987 1.2793922 0.053339314 52
0.23805135 1.244355 0.069709264 83
0.2417489 1.2387323 0.088854775 98
0.23824692 1.2440577 0.1102876 85
0.24697623 1.2307837 0.1273223 97
0.23795405 1.2445029 -0.0099129668 10
0.22200394 1.268757 0.15995017 72
0.21657193 1.2806979 0.010645968 40
0.21697816 1.2800758 0.031924933 30
0.2232362 1.2704905 0.052293446 53
0.22877386 1.2620087 0.072146654 79
0.23898533 1.2463683 0.090106249 96
0.23767409 1.2483766 0.11105084 84
0.2463752 1.2350495 0.12822211 89
0.22788417 1.2633715 0.15787962 73
0.23166242 1.2618867 0.01022711 42
0.22770965 1.2679944 0.031087559 31
0.22849545 1.2667803 0.051770512 54
0.23937982 1.249962 0.07019674 82
0.25055948 1.2326875 0.087290429 85
0.24173027 1.2463301 0.1102876 92
0.24612689 1.2395366 0.1291219 96
0.22986728 1.2646606 0.15787962 81
0.24194255 1.2494806 0.0099478718 43
0.25419331 1.2304127 0.028680105 69
0.2344524 1.2611387 0.051073264 55
0.23131606 1.2660203 0.072390392 95
0.2478244 1.2403257 0.08854191 84
0.25073999 1.2357876 0.10761628 87
0.2424188 1.2487392 0.13137141 94
0.22942093 1.26897 0.15891489 73
0.23501793 1.2640421 0.01022711 56
0.25687596 1.2297583 0.028575432 70
0.22974214 1.2723172 0.052119136 54
0.23945248 1.2570868 0.070927955 97
0.249468 1.2413776 0.08854191 84
0.25342312 1.2351741 0.10723466 81
0.25561571 1.231735 0.12642249 99
0.2290875 1.2733439 0.15995017 72
0.2387968 1.2617046 0.0101573 71
0.25092533 1.2425413 0.029308135 100
0.23354068 1.2700093 0.051770512 81
0.24743912 1.2480496 0.069465525 49
0.25525847 1.2356949 0.087290429 71
0.2402682 1.2593797 0.1125773 96
0.25610632 1.2343553 0.12687239 99
0.23179156 1.272773 0.15943253 65
0.23945156 1.2644813 0.010192205 85
0.25257662 1.2435825 0.029308135 100
0.23316869 1.2744853 0.052119136 81
0.24910969 1.2491028 0.069465525 49
0.25688586 1.2367209 0.087290429 85
0.25241977 1.2438322 0.10876112 79
0.25980186 1.2320778 0.12597258 99
0.2407406 1.2624288 0.15580906 67
0.24955621 1.2519329 0.0099129668 87
0.2520355 1.2479559 0.029517479 100
0.24959987 1.2518628 0.049678773 86
0.24439904 1.2602053 0.070927955 48
0.26052523 1.2343378 0.086664692 71
0.24776095 1.2548126 0.11105084 98
0.26339766 1.2297302 0.12507279 92
0.24237522 1.2634516 0.15580906 67
0.25140893 1.2530829 0.0099129668 87
0.24862242 1.2575911 0.03004084 100
0.23888189 1.27335 0.051770512 81
0.24941462 1.2563094 0.07019674 33
0.26127172 1.2371261 0.086977564 57
0.25994688 1.2392695 0.10723466 81
0.26209125 1.2358003 0.12642249 90
0.23614657 1.2777755 0.15995017 64
0.25614971 1.2489569 0.0098082526 74
0.25024098 1.2585878 0.03004084 100
0.24263659 1.2709825 0.051421888 82
0.25414324 1.2522274 0.069465525 49
0.25765726 1.2464998 0.08854191 84
0.2512379 1.2569629 0.11105084 98
0.26873288 1.2284472 0.12417299 100
0.24187315 1.2722268 0.15787962 65
0.25374925 1.256864 0.0099478718 73
0.26137766 1.2443273 0.029098792 100
0.23722509 1.2840201 0.05264207 79
0.25488079 1.2550044 0.069709264 33
0.26351303 1.240818 0.087290429 71
0.26323006 1.2412831 0.10723466 73
0.27142805 1.2278103 0.12372308 92
0.25686768 1.251739 -0.0098431576 87
0.24371597 1.2733529 0.15787962 65
0.24812874 1.2698258 0.010192205 85
0.26501727 1.2418625 0.028889447 100
0.24614155 1.2731161 0.051421888 100
0.25546449 1.2576796 0.069953002 49
0.27324575 1.2282381 0.084787481 59
0.25768968 1.2539952 0.10990598 78
0.2739552 1.2270634 0.12327318 85
0.25536537 1.2578437 -0.0099478718 86
0.24738428 1.2710584 0.15684435 66
0.26109725 1.2519574 0.0098082526 74
0.25631487 1.2599356 0.029936166 99
0.25293347 1.2655766 0.05055033 84
0.25606269 1.2603562 0.07019674 49
0.27070439 1.2359304 0.086038955 72
0.26131508 1.2515941 0.10914274 78
0.27346855 1.2313192 0.12417299 83
0.25699347 1.2588035 0.15270324 68
0.2576707 1.2615566 0.0099827768 87
0.26211038 1.2540911 0.029517479 100
0.25262836 1.2700354 0.050898954 83
0.26487881 1.249436 0.068490572 50
0.27031308 1.2402983 0.086664692 71
0.26701191 1.2458491 0.10761628 87
0.27308837 1.2356315 0.12507279 100
0.25475168 1.2664649 0.15477379 67
0.26243672 1.2574072 0.0098780617 88
0.26989126 1.244772 0.028889447 100
0.25336322 1.2727864 0.051073264 83
0.2705889 1.2435895 0.067515619 51
0.26794136 1.248077 0.087916173 56
0.26468423 1.2535977 0.10914274 78
0.27570564 1.2349169 0.12462288 83
0.25844976 1.2641649 0.15373851 76
0.26312971 1.2601337 0.0099129668 87
0.26953247 1.2491944 0.029098792 100
0.25813931 1.2686602 0.05055033 84
0.26622736 1.2548413 0.068978049 50
0.27759445 1.23542 0.085413218 73
0.26637405 1.2545907 0.10914274 78
0.2861895 1.220735 0.12057377 77
0.2611095 1.2635854 -0.0099827768 86
0.25236982 1.2785177 0.15787962 65
0.26283419 1.2645909 0.0099827768 87
0.27321261 1.246716 0.028889447 100
0.25588012 1.2765679 0.051247578 82
0.26393452 1.2626958 0.069953002 49
0.27922073 1.2363681 0.085413218 58
0.26609576 1.2589735 0.10990598 78
0.28776446 1.221653 0.12057377 77
0.26283419 1.2645909 -0.0099827768 86
0.25996673 1.2695296 0.15477379 67
0.26855454 1.2586589 0.0098431576 88
0.2728847 1.2511407 0.029098792 100
0.26958281 1.2568736 0.049155839 87
0.26961908 1.2568105 0.068978049 50
0.28380799 1.2321751 0.084474608 59
0.27172369 1.2531564 0.10837951 87
0.28253439 1.2343864 0.12372308 83
0.2645624 1.2655902 -0.0099827768 86
0.26074803 1.272213 0.15529142 75
0.28018177 1.2422752 0.0094941091 92
0.26862127 1.2625102 0.029726824 100
0.27029568 1.2595794 0.049330149 87
0.27328956 1.2543391 0.068490572 50
0.27954343 1.2433926 0.086351827 58
0.27438584 1.2524202 0.10799789 87
0.28029025 1.2420855 0.12552269 90
0.26921111 1.2614777 0.15166797 69
0.27887422 1.2484336 0.0095988233 76
0.27821985 1.2495883 0.028889447 100
0.26611248 1.2709532 0.05037602 84
0.28476903 1.2380315 0.066053182 52
0.28119752 1.2443337 0.086351827 58
0.28381503 1.2397149 0.10494494 75
0.29346925 1.2226789 0.12012386 77
0.26521361 1.2725394 0.15477379 67
0.27475241 1.2598842 0.0098082526 74
0.28584945 1.2401338 0.028261416 100
0.26892641 1.2702534 0.050201707 85
0.27676246 1.2563068 0.068490572 50
0.28293785 1.2453158 0.086351827 58
0.27976835 1.2509569 0.10723466 73
0.2951301 1.2236161 0.12012386 86
0.26516482 1.2769482 0.15580906 67
0.27257037 1.2678291 0.0099478718 87
0.28554764 1.2445422 0.02847076 100
0.28425264 1.246866 0.047761347 90
0.28425962 1.2468535 0.067028143 51
0.29132983 1.2341665 0.084161744 59
0.27953744 1.2553271 0.10799789 79
0.29671508 1.224503 0.12012386 86
0.27743754 1.2590952 -0.0097733475 88
0.27257863 1.2678143 0.15270324 68
0.28389916 1.2512465 0.0095988233 76
0.28518981 1.2489123 0.028680105 100
0.27330211 1.2704113 0.050027397 85
0.28007895 1.2581553 0.068490572 50
0.29000288 1.2402078 0.085100345 58
0.28399834 1.251067 0.10685304 81
0.29633769 1.2287512 0.12102367 77
0.27325511 1.2704964 -0.0099827768 96
0.27983981 1.2585878 0.14959741 70
0.28942674 1.245159 0.009459204 77
0.29070455 1.2428288 0.028261416 100
0.28079864 1.2608924 0.048981529 87
0.2894206 1.2451701 0.066540658 52
0.29069597 1.2428446 0.085413218 58
0.29134321 1.2416642 0.10456333 82
0.29419249 1.2364686 0.12282328 85
0.27968913 1.2629156 0.15063268 70
0.28639457 1.2548952 0.0096337283 90
0.29053146 1.2472855 0.02847076 100
0.27403522 1.2776299 0.05055033 84
0.29306018 1.2426339 0.066053182 52
0.29243076 1.2437918 0.085413218 58
0.28744757 1.2529582 0.10685304 73
0.27684364 1.2724638 -0.0099827768 86
0.2814976 1.263903 0.15063268 70
0.2871398 1.2575725 0.0096686333 90
0.29978144 1.2341239 0.027633386 100
0.28431824 1.2628062 0.048981529 87
0.2890594 1.254012 0.067515619 51
0.28820336 1.2555999 0.10723466 81
0.28429297 1.2628531 -0.0097733475 88
0.27772272 1.2750401 0.15373851 68
0.28121322 1.2725482 0.0099478718 73
0.2937862 1.2490406 0.02847076 100
0.28877291 1.2584139 0.048458595 88
0.28879341 1.2583755 0.068003096 51
0.29845661 1.2403083 0.084474608 59
0.2898151 1.2564653 0.10723466 81
0.28404257 1.2672582 -0.0098431576 87
0.28668791 1.2623122 0.14959741 78
0.29233858 1.2558173 0.0095988233 76
0.29545993 1.2499321 0.02847076 100
0.29514703 1.250522 0.047587037 90
0.28491911 1.2698066 0.069465525 49
0.29335451 1.2539017 0.10647142 81
0.28390604 1.2717168 -0.0099129668 87
0.29021832 1.259815 0.14856213 79
0.2978428 1.2496783 0.009459204 77
0.295362 1.2543975 0.028680105 100
0.2913475 1.2620343 0.048632905 88
0.29229483 1.2602322 0.068003096 51
0.29201531 1.2607639 0.14856213 71
0.29489729 1.2594218 0.0096337283 90
0.28846207 1.2717681 0.049504463 57
0.28565446 1.2771546 -0.0099827768 96
0.28658658 1.2753663 0.15270324 68
0.29468489 1.2638178 0.0097035384 90
0.28921238 1.2744024 0.049678773 86
0.28826389 1.276237 0.15270324 68
0.29276142 1.2718241 0.0098431576 88
0.29826206 1.2610934 0.067759357 68
0.2936736 1.2700446 -0.0098082526 100
0.29352066 1.2744569 -0.0098780617 100
0.29967353 1.2712007 0.15011504 78
0.29540309 1.2842336 0.050201707 56
0.29890579 1.2771589 -0.0098780617 100
0.29891562 1.2816226 -0.0099478718 100
