# .PCD v0.7 - Point Cloud Data file format
VERSION 0.7
FIELDS x y z intensity
SIZE 4 4 4 4
TYPE F F F F
COUNT 1 1 1 1
WIDTH 759
HEIGHT 1
VIEWPOINT 0 0 0 1 0 0 0
POINTS 759
DATA ascii
-1.1822 0.16614738 0.020838173 22
-1.1253806 0.15816194 0.059558317 29
-1.1598994 0.16673078 0.02045422 34
-1.060393 0.15620703 0.01870898 6
-1.0242496 0.1545375 0.018080693 5
-1.0454428 0.16146944 0.018464645 1
-0.45789281 1.2143414 0.022653224 1
-0.44919151 1.2175869 0.022653224 1
-0.37947828 1.1361176 0.020907983 1
-0.36046469 1.0918618 0.020070268 1
-0.36637929 1.1235945 0.020628745 1
-0.35877523 1.1134466 0.020419316 1
-0.35629487 1.118441 0.020489125 1
-0.33738059 1.0719914 0.019616505 3
-0.33976382 1.0921986 0.019965554 5
-0.33771124 1.0991125 0.020070268 4
-0.33677578 1.1098523 0.020244792 3
-0.3415091 1.1397544 0.020768363 2
-0.32712448 1.1064808 0.020140078 1
-0.3355855 1.1498475 0.020907983 1
0.056505591 0.0045399666 0.047730394 66
0.058056831 0.013052464 0.047311705 45
0.044601917 0.0038145781 0.016021309 8
0.043018162 0.0014135838 0.048253752 100
0.045998573 0.011416852 0.047730394 100
0.040020525 0.0082017183 0.04804441 72
0.039730251 0.013209045 0.047835063 37
0.036828101 0.015173912 0.047835063 18
0.024172366 0.0020480752 0.048777111 16
0.020360827 0.0022442341 0.048881784 7
0.042888403 0.040090263 0.046579 11
0.017304957 0.0092326403 0.048672438 8
0.010181129 0.0044742823 0.049091127 7
-0.84595054 0.64222151 0.024468273 37
-0.83043092 0.64825678 0.024189034 61
-0.83883816 0.65264362 0.024328655 31
-0.82726091 0.65822041 0.024119226 42
-0.81968647 0.6638869 0.023979606 43
-0.84595567 0.66650754 0.024433369 34
-0.82637817 0.67303002 0.02408432 30
-0.8386634 0.67679125 0.024293751 27
-0.86294383 0.68036234 0.024712607 15
-0.91912395 0.68168861 0.025689943 9
-0.96537262 0.68474686 0.026492752 13
-0.98761278 0.68860978 0.026876707 12
-1.005863 0.69308895 0.027190849 4
-1.0260851 0.69732773 0.027539898 2
-1.0427079 1.1339012 0.028517231 5
-1.0212967 1.1290092 0.084470235 5
-1.0252349 1.129909 0.14136662 6
-1.0180533 1.134032 0.028098375 10
-0.99668771 1.129072 0.083214171 16
-1.0239689 1.1354054 0.14136662 32
-0.9895882 1.1328084 0.027609708 27
-0.99548846 1.1341989 0.083214171 88
-1.0208094 1.1401658 0.1411923 81
-0.98423034 1.1380529 0.027539898 38
-0.98818749 1.1390022 0.082900152 100
-1.0212481 1.1469333 0.14136662 95
-0.99271613 1.1455032 0.027714422 41
-0.98113364 1.142684 0.082586139 100
-0.99675912 1.1464872 0.13927488 89
-0.98175555 1.1482201 0.027539898 23
-0.98958451 1.1501532 0.083109498 100
-0.99743646 1.152092 0.13944919 91
-0.9727338 1.1513543 0.027400278 27
-0.9883154 1.1552566 0.083109498 52
-0.99616092 1.1572214 0.13944919 84
-0.96938783 1.15644 0.027365373 39
-0.97915047 1.1589229 0.082690813 35
-0.99859303 1.163868 0.13979781 74
-0.96422523 1.1604776 0.027295563 61
-0.97205037 1.1624955 0.082376793 60
-0.99149066 1.1675086 0.13927488 89
-0.97439092 1.1690634 0.027504992 62
-0.97060162 1.1680715 0.082376793 100
-0.98038608 1.170633 0.13840333 91
-0.95373112 1.168988 0.027155945 81
-0.96155125 1.1710629 0.081958108 92
-0.9713462 1.1736618 0.13770607 99
-0.94439429 1.1729387 0.027016325 89
-0.95414394 1.1755676 0.081644088 100
-0.96394247 1.1782095 0.13718314 100
-0.94304997 1.1778921 0.027016325 92
-0.94123083 1.1773951 0.081016064 100
-0.96642441 1.1842779 0.13753176 98
-0.94932562 1.1852362 0.027155945 93
-0.94172448 1.1831311 0.081120729 100
-0.96880919 1.1906322 0.13788038 89
-0.94794041 1.1902058 0.027155945 96
-0.94226938 1.1886151 0.081225403 86
-0.95014101 1.1908232 0.13631158 99
-0.94446689 1.1951461 0.027121039 72
-0.94072503 1.1940817 0.081225403 76
-0.95050484 1.1968639 0.13648589 100
-0.95265657 1.2028673 0.027295563 55
-0.94314891 1.2001284 0.081434749 44
-0.9471665 1.2012858 0.13631158 100
-0.94353408 1.2056082 0.027155945 45
-0.918706 1.1983669 0.080178685 22
-0.95146614 1.2079217 0.13683452 87
-0.93057424 1.2071609 0.026946515 68
-0.91536182 1.2026694 0.080074012 28
-0.95573825 1.214591 0.13735744 84
-0.92704624 1.2120113 0.026911611 75
-0.91759306 1.2091825 0.080283359 32
-0.93310231 1.2138237 0.13544002 94
-0.91600317 1.2140088 0.026737086 78
-0.91995162 1.2152046 0.080492698 78
-0.92208821 1.2158518 0.13456847 100
-0.90863079 1.2176189 0.026632372 83
-0.92403811 1.222347 0.080806717 100
-0.93187243 1.2247512 0.13561434 99
-0.90904826 1.2230465 0.026667276 88
-0.90727061 1.2224946 0.079969339 86
-0.92464799 1.2278904 0.13509139 77
-0.91119307 1.2295911 0.026737086 88
-0.90560228 1.2278327 0.079969339 70
-0.92295986 1.2332921 0.13509139 52
-0.9172017 1.2371154 0.026876707 81
-0.90780157 1.2341226 0.080178685 70
-0.91184121 1.2354088 0.13421984 42
-0.90025395 1.2375808 0.026597468 83
-0.90609068 1.2394626 0.080178685 84
-0.90443677 1.2389294 0.13369691 45
-0.88340443 1.2376783 0.02631823 99
-0.89874679 1.242684 0.079864666 100
-0.9160499 1.2483294 0.1349171 59
-0.88944167 1.2449353 0.026457848 100
-0.89337808 1.2462339 0.079655327 100
-0.90877944 1.2513156 0.13439415 78
-0.88777512 1.249957 0.026457848 100
-0.88602346 1.2493722 0.079341307 100
-0.90709049 1.2564048 0.13439415 82
-0.88238627 1.2534432 0.026388038 96
-0.89199537 1.2566863 0.07976 100
-0.89225513 1.2567739 0.13317397 84
-0.87312013 1.2558558 0.02624842 93
-0.88461727 1.259781 0.07944598 100
-0.8905471 1.2618054 0.13317397 95
-0.86376959 1.2584565 0.0261088 89
-0.88092476 1.2643836 0.079341307 100
-0.88873488 1.267082 0.13317397 99
-0.87338263 1.2673461 0.02631823 81
-0.86787754 1.2654226 0.078713275 93
-0.90956157 1.2799876 0.13526571 61
-0.87549669 1.2733953 0.026388038 79
-0.85304385 1.2654663 0.077980578 59
-0.89846891 1.2815076 0.13439415 36
-0.86808115 1.2763507 0.026283324 88
-0.8494249 1.2696893 0.077875905 23
-0.89479822 1.2858906 0.13421984 36
-0.85313874 1.2765446 0.026038991 99
-0.86833662 1.2820312 0.079027295 42
-0.87424845 1.2841654 0.13247673 24
-0.84009105 1.277326 0.025829561 93
-0.86278826 1.2856095 0.078817949 82
-0.87057346 1.2884507 0.13230242 15
-0.84581608 1.2849437 0.025969181 100
-0.8553583 1.2884641 0.078503937 100
-0.87436277 1.2954751 0.13282534 11
-0.84401006 1.2898128 0.025969181 100
-0.82921201 1.2842948 0.0771432 89
-0.87251979 1.3004439 0.13282534 1
-0.83844465 1.2932653 0.025899371 100
-0.82927734 1.2898104 0.077247873 46
-0.84828693 1.2969747 0.13073361 1
-0.83660966 1.2981087 0.025899371 85
-0.84238619 1.3003087 0.078085244 51
-0.83899134 1.2990158 0.13003637 11
-0.82542652 1.2993543 0.025724847 71
-0.84425455 1.3066006 0.07829459 59
-0.85573059 1.3110173 0.13177948 48
-0.82729787 1.3056018 0.025794657 74
-0.83306569 1.3078449 0.077771232 72
-0.86126119 1.3188095 0.13247673 100
-0.83109814 1.312359 0.025899371 96
-0.81826109 1.307318 0.077038527 67
-0.8445974 1.3176601 0.13108224 99
-0.82919651 1.3171766 0.025899371 100
-0.81823367 1.3128273 0.0771432 76
-0.83156532 1.3181164 0.13003637 99
-0.81242877 1.3160362 0.025620133 100
-0.82745403 1.3220581 0.077771232 95
-0.82779425 1.3221945 0.12986206 100
-0.80680722 1.3192879 0.025550323 100
-0.83107251 1.3291113 0.078085244 97
-0.83324558 1.3299911 0.1305593 100
-0.81228536 1.3270481 0.025689943 100
-0.81802028 1.3293931 0.077457212 97
-0.82206148 1.3310456 0.12968774 100
-0.79315001 1.3192235 0.17817298 21
-0.81043059 1.3315625 0.025689943 100
-0.79215771 1.3240198 0.076096483 100
-0.8238768 1.3371129 0.13003637 100
-0.7711373 1.3153429 0.17549185 16
-0.80846208 1.3363079 0.025689943 100
-0.79943305 1.3325438 0.076619841 100
-0.80717689 1.3357722 0.12864187 100
-0.80770308 1.3359914 0.18061037 21
-0.79920405 1.3377074 0.025550323 100
-0.79571933 1.3362411 0.076515168 100
-0.8089661 1.341815 0.1289905 100
-0.78386205 1.3312519 0.1776855 22
-0.79333383 1.3413185 0.025480513 96
-0.79904896 1.3437492 0.07682918 74
-0.80309361 1.3454692 0.12864187 99
-0.76708323 1.3301542 0.17573559 16
-0.81348282 1.3552347 0.025899371 59
-0.81365699 1.3553095 0.077771232 40
-0.81765562 1.3570257 0.13021068 35
-0.75792187 1.3313868 0.17476064 5
-0.81316334 1.3610237 0.025934275 90
-0.79867548 1.3547422 0.077038527 94
-0.8301186 1.3683749 0.13160518 45
-0.78499585 1.3488111 0.17866045 12
-0.80753189 1.3639379 0.025864467 100
-0.81502694 1.3672169 0.078085244 100
-0.82265073 1.3705525 0.13108224 100
-0.79398102 1.3580091 0.18012288 26
-0.79437143 1.3640599 0.025655037 100
-0.81282884 1.372216 0.078085244 100
-0.81132847 1.3715529 0.13021068 100
-0.79544824 1.3645358 0.18061037 29
-0.78508848 1.3652575 0.025515418 100
-0.81447273 1.3783586 0.07829459 100
-0.80204731 1.3728187 0.12951343 100
-0.79346937 1.3689942 0.18061037 40
-0.79029673 1.3731968 0.025655037 100
-0.80141288 1.3781998 0.077666558 100
-0.80720228 1.3808053 0.13021068 100
-0.75335568 1.3565717 0.17549185 18
-0.80103463 1.3834252 0.025899371 100
-0.79757005 1.3818521 0.077561885 100
-0.81605428 1.3902447 0.13125655 100
-0.75863343 1.3641734 0.17646681 16
-0.80423051 1.3908731 0.026004085 100
-0.80621177 1.3917813 0.078189917 100
-0.80290502 1.3902653 0.13021068 100
-0.76907831 1.3747568 0.17817298 14
-0.79671925 1.3928422 0.025899371 100
-0.80776793 1.3979521 0.078399263 100
-0.80084068 1.3947483 0.13021068 100
-0.76706558 1.3791277 0.17817298 10
-0.78899175 1.3952358 0.025794657 100
-0.81269604 1.4063044 0.078817949 100
-0.80576295 1.4030671 0.13090792 100
-0.76302546 1.383111 0.17792924 9
-0.79414731 1.4030809 0.025934275 100
-0.80515784 1.4082668 0.078503937 100
-0.80726105 1.4092574 0.13125655 100
-0.75020987 1.3823868 0.17646681 3
-0.79542977 1.4097205 0.026004085 100
-0.80100554 1.4123716 0.078399263 100
-0.81210643 1.4176499 0.13195379 100
-0.75512773 1.3905578 0.17744176 3
-0.80051333 1.4176373 0.026143705 100
-0.80607158 1.4203027 0.078817949 100
-0.80276519 1.4187171 0.13125655 100
-0.79655808 1.4212415 0.0261088 100
-0.80750364 1.4265351 0.079027295 100
-0.79343206 1.4197297 0.1305593 100
-0.78720182 1.4221969 0.025969181 100
-0.80890924 1.4327843 0.079236634 100
-0.80201453 1.4294215 0.13160518 100
-0.7918635 1.4308605 0.0261088 100
-0.79918736 1.4344676 0.078817949 100
-0.80662209 1.4381292 0.13230242 100
-0.79324657 1.4370856 0.02617861 100
-0.79697651 1.4389379 0.078817949 100
-0.81867462 1.4497137 0.13369691 100
-0.80163711 1.4471445 0.026388038 100
-0.80177611 1.4472141 0.079236634 100
-0.80560559 1.4491327 0.13265105 100
-0.79581445 1.4498198 0.02631823 100
-0.80308837 1.4534941 0.07944598 100
-0.80690283 1.455421 0.13299966 100
-0.78975052 1.4529315 0.02624842 100
-0.80947119 1.4629841 0.079969339 100
-0.8079316 1.4621992 0.13334829 100
-0.79091531 1.4594327 0.02631823 100
-0.8017152 1.4649855 0.079655327 100
-0.80727905 1.4678462 0.1335226 100
-0.7920509 1.4659503 0.026388038 100
-0.79573494 1.4678607 0.07944598 100
-0.81721586 1.4790001 0.13474278 100
-0.80024534 1.4761913 0.026597468 100
-0.80037004 1.4762566 0.079864666 100
-0.80943614 1.4809982 0.13421984 100
-0.78715962 1.4753026 0.026388038 93
-0.79966313 1.4818977 0.079969339 100
-0.80165917 1.4829506 0.13369691 99
-0.7952823 1.4856005 0.026597468 27
-0.8024599 1.4894185 0.080283359 22
-0.80092126 1.4886 0.13387123 54
0.12334123 1.2985752 0.13203983 5
0.1610736 1.2552859 0.010855397 13
0.13781562 1.2843063 0.03454173 27
0.098948658 1.3328028 0.063100755 19
0.14360556 1.2770817 0.12631555 17
0.18195236 1.2292342 0.13587044 7
0.15252224 1.2659559 0.17030293 7
0.15280902 1.2691586 0.011134636 37
0.16697252 1.2513591 0.032238949 60
0.15177906 1.270453 0.055953987 48
0.16436172 1.2546401 0.076046467 14
0.17362899 1.2429937 0.095737889 12
0.14904535 1.2738886 0.12517071 78
0.19083792 1.2213669 0.13317102 15
0.15064725 1.2718754 0.17185585 14
0.15942615 1.2641975 0.010995016 100
0.16609403 1.2557606 0.032448292 100
0.15961775 1.2639551 0.055082429 100
0.15366235 1.2714906 0.078483857 28
0.16785052 1.253538 0.097615108 37
0.16289175 1.2598125 0.12135452 100
0.18387842 1.2332578 0.13632034 38
0.15950081 1.2641031 0.16875002 36
0.16856021 1.2561187 0.010785587 100
0.16532615 1.2602402 0.032657638 100
0.15150496 1.2778543 0.056476921 100
0.16031697 1.2666241 0.077508904 14
0.18173492 1.2393284 0.094486415 26
0.17429936 1.2488045 0.11830158 100
0.18068582 1.2406654 0.13811995 45
0.15526518 1.2730622 0.1713382 43
0.17025942 1.2574471 0.010785587 100
0.17808667 1.2473998 0.031715591 92
0.15817791 1.2729553 0.055779677 98
0.1852321 1.2382277 0.072877869 31
0.16880757 1.2593107 0.098240845 24
0.18321222 1.2408205 0.11601187 100
0.18951672 1.2327279 0.13542053 30
0.14752567 1.286629 0.17547931 42
0.1707398 1.2603515 0.010820492 78
0.16997996 1.2613339 0.032552965 59
0.16724965 1.264864 0.054733805 75
0.1759384 1.2536302 0.075071514 30
0.17535207 1.2543882 0.096989371 25
0.18245566 1.2452039 0.1167751 26
0.19590312 1.2278174 0.13362093 23
0.14578575 1.2926149 0.17703223 27
0.16392854 1.2727747 0.011064826 51
0.1802122 1.2515687 0.03182026 61
0.16897938 1.266197 0.054733805 50
0.17641985 1.2565074 0.075315252 45
0.18306059 1.2478592 0.095425025 51
0.1793339 1.2527125 0.11830158 13
0.18800849 1.2414157 0.13722014 30
0.15349534 1.2863617 0.17444403 56
0.17053527 1.2677581 0.010925206 52
0.1794737 1.2560333 0.032029606 30
0.16950583 1.2691085 0.054908119 50
0.18173084 1.2530725 0.074584037 76
0.20269492 1.2255731 0.090731993 40
0.18935293 1.2430743 0.11563025 13
0.2038337 1.2240794 0.13182132 31
0.17403966 1.2631613 0.16616182 61
0.18434298 1.2531346 0.010576159 54
0.16670871 1.2764344 0.03328567 28
0.16884559 1.2736109 0.055256739 49
0.19060716 1.2448579 0.073121607 62
0.18998191 1.245684 0.094486415 52
0.20166963 1.2302413 0.11219569 14
0.19836462 1.2346082 0.13452072 38
0.17226586 1.2690918 0.16771474 67
0.17642194 1.2671977 0.010855397 39
0.17807683 1.2649952 0.032448292 29
0.1729995 1.2717526 0.054908119 50
0.19703671 1.2397614 0.072146654 63
0.18808475 1.2516756 0.095425025 51
0.20917493 1.2236066 0.1102876 14
0.21169463 1.220253 0.13002171 40
0.17401034 1.2704073 0.16771474 67
0.18277052 1.261959 0.010715778 66
0.17963374 1.2661612 0.032448292 29
0.17934495 1.266548 0.054210871 51
0.19613934 1.2440494 0.072634131 78
0.20141616 1.2369804 0.092296332 53
0.20120654 1.2372612 0.11334054 13
0.21544221 1.2181903 0.1291219 32
0.17905107 1.2669418 0.16616182 68
0.17615589 1.2744844 0.010960111 90
0.18969187 1.2562182 0.031715591 61
0.18226671 1.2662381 0.054036561 51
0.18479541 1.2628257 0.075315252 100
0.20540056 1.2350202 0.091670595 81
0.20400861 1.2368984 0.11295892 13
0.21352798 1.2240525 0.13047162 32
0.18308836 1.2651293 0.16512655 68
0.18976888 1.2596784 0.010611063 81
0.20559362 1.238167 0.030459527 65
0.18872371 1.2610991 0.053339314 78
0.19710478 1.2497063 0.073121607 78
0.20819643 1.2346289 0.09135773 94
0.21145737 1.2301962 0.11105084 14
0.21857929 1.220515 0.1291219 24
0.19855615 1.2477335 0.15891489 73
0.19383904 1.2577031 0.010541254 81
0.20251831 1.2458183 0.030878214 63
0.19044018 1.2623572 0.053339314 78
0.1940985 1.2573477 0.07409656 92
0.20516038 1.2422004 0.092609204 93
0.2107501 1.2345462 0.11181407 14
0.24084112 1.1933415 0.12102367 17
0.18769327 1.2661186 0.16460891 69
0.19328213 1.2622435 0.010611063 81
0.20778054 1.2422369 0.030564198 97
0.18640152 1.2717383 0.054210871 100
0.20986527 1.2393601 0.071171694 81
0.20921168 1.240262 0.091983467 93
0.21015099 1.2389659 0.1125773 13
0.23324671 1.2070955 0.12462288 8
0.19178128 1.2643147 0.16357364 69
0.19500256 1.2634858 0.010611063 94
0.21642905 1.2337005 0.029936166 66
0.18815514 1.2730044 0.054210871 100
0.21382415 1.2373216 0.070684217 81
0.20739463 1.2462595 0.092922069 100
0.20949709 1.2433367 0.11334054 13
0.24387836 1.1955429 0.12102367 17
0.18899637 1.271835 0.16564418 68
0.19664097 1.2646602 0.010611063 81
0.2144857 1.2396798 0.030250182 98
0.19677386 1.2644742 0.053165004 100
0.19691366 1.2642785 0.074584037 76
0.2112723 1.2441782 0.092296332 100
0.20992744 1.2460608 0.11372216 20
0.23509648 1.2108271 0.12507279 16
0.19740009 1.2635976 0.16253836 70
0.1983698 1.2658907 0.010611063 94
0.2103509 1.2489942 0.030773543 96
0.19850206 1.2657042 0.053165004 100
0.1963447 1.2687466 0.075071514 90
0.22092783 1.2340779 0.090106249 100
0.21386245 1.2440419 0.11295892 27
0.22761956 1.2246408 0.128672 16
0.20471239 1.256946 0.15995017 72
0.20700878 1.2573036 0.010401634 83
0.20857626 1.2550766 0.031087559 94
0.19106033 1.2799623 0.054559495 100
0.21179867 1.2504984 0.072146654 79
0.21800187 1.2416853 0.09135773 100
0.20195919 1.2644778 0.11753834 72
0.23481676 1.2177956 0.12642249 33
0.20641425 1.2581483 0.15995017 72
0.20871189 1.258498 0.010401634 97
0.21827862 1.2448046 0.030354854 97
0.19968909 1.2714126 0.053513627 100
0.21802559 1.2451669 0.071171694 65
0.21512502 1.2493186 0.092609204 100
0.20481175 1.2640803 0.11715672 100
0.22968531 1.228478 0.1291219 72
0.20590749 1.262512 0.16098544 72
0.21033368 1.259627 0.010401634 97
0.21757811 1.2491841 0.030564198 97
0.20135376 1.2725714 0.053513627 100
0.21507713 1.2527893 0.072146654 63
0.22572401 1.2374419 0.090106249 96
0.21988067 1.2458651 0.1125773 89
0.22898588 1.2327399 0.13002171 96
0.20313802 1.2699995 0.163056 70
0.20750856 1.2673976 0.010541254 95
0.22265089 1.2454066 0.030250182 98
0.20537007 1.2705034 0.053165004 100
0.21676442 1.2539555 0.072146654 63
0.23183882 1.2320631 0.088854775 100
0.21374989 1.2583334 0.11524864 100
0.23391864 1.2290425 0.128672 97
0.20817226 1.2664338 0.16150309 78
0.21601683 1.2586844 0.010331824 84
0.23220098 1.2350037 0.029517479 100
0.21161604 1.2651236 0.052467756 100
0.22517627 1.2452823 0.070684217 81
0.22899526 1.2396944 0.090106249 100
0.23096517 1.236812 0.10990598 85
0.2289255 1.2397964 0.13137141 94
0.20990723 1.267624 0.16150309 70
0.22109234 1.2548826 0.01022711 56
0.22597781 1.2476803 0.030250182 65
0.21670178 1.2613553 0.051944822 100
0.22237989 1.2529845 0.071659178 80
0.22952786 1.2424468 0.090419121 100
0.22929031 1.2427969 0.11105084 91
0.2250976 1.2489779 0.13362093 100
0.21489972 1.2640119 0.15995017 72
0.2160863 1.2659805 0.010436539 41
0.21983933 1.2604059 0.030982886 31
0.20840475 1.2773904 0.053513627 52
0.23293671 1.2409517 0.069709264 83
0.2267662 1.2501171 0.091670595 100
0.22655696 1.2504278 0.1125773 100
0.23656633 1.2355604 0.12957181 96
0.21446842 1.2683836 0.16098544 72
0.21337572 1.2737938 0.010576159 40
0.23930705 1.2349849 0.029308135 34
0.21349868 1.2736099 0.05299069 52
0.23127401 1.2470071 0.070440479 98
0.24051616 1.2331753 0.088229038 98
0.23259884 1.2450244 0.11105084 91
0.23927602 1.2350314 0.1291219 96
0.21406358 1.2727643 0.16202073 70
0.21513635 1.2749658 0.010576159 40
0.20781761 1.2860022 0.032448292 29
0.22076428 1.266479 0.052119136 54
0.22964972 1.25308 0.071171694 65
0.24104309 1.2358991 0.08854191 98
0.23100385 1.2510381 0.11219569 91
0.24197817 1.234489 0.128672 97
0.21902362 1.2691039 0.1604678 72
0.21690103 1.2761316 0.010576159 40
0.21401289 1.2805201 0.032029606 30
0.22578529 1.2626324 0.051596198 54
0.23461187 1.2492206 0.070440479 98
0.24592918 1.2320244 0.087603301 99
0.23916075 1.2423089 0.10990598 92
0.24145877 1.2388171 0.12957181 96
0.22607803 1.2621875 0.15787962 73
0.23389435 1.2537969 0.010087491 28
0.21133783 1.2883193 0.032448292 29
0.22524109 1.2670406 0.051944822 54
0.24163178 1.2419548 0.069221787 100
0.23881906 1.2462597 0.090106249 96
0.24180254 1.2416935 0.10952436 92
0.24408105 1.2382063 0.1291219 96
0.2255986 1.2664934 0.15891489 73
0.23123327 1.2616087 0.01022711 42
0.24574766 1.2392244 0.029308135 34
0.22047427 1.2782016 0.05299069 52
0.24760106 1.236366 0.068246834 68
0.24585697 1.2390558 0.08854191 84
0.24131471 1.246061 0.1102876 85
0.24889791 1.2343659 0.1277722 97
0.22628263 1.2692437 0.15943253 73
0.23186916 1.2644001 0.010262015 84
0.24738741 1.2402835 0.029308135 68
0.23410961 1.2609183 0.051073264 55
0.24063742 1.2507735 0.07019674 66
0.24749613 1.2401146 0.08854191 84
0.24297836 1.2471355 0.1102876 92
0.24841166 1.2386918 0.128672 97
0.23116338 1.265497 0.15787962 73
0.23467308 1.2638222 0.01022711 42
0.24043173 1.2548038 0.030145511 65
0.23475289 1.2636971 0.051247578 55
0.24124917 1.2535236 0.070440479 65
0.25551766 1.2311783 0.086664692 71
0.2488721 1.2415856 0.10876112 79
0.25424466 1.2331718 0.12687239 90
0.23705369 1.2600939 0.15580906 67
0.24701846 1.2479755 0.0098780617 88
0.24738759 1.2473931 0.029622151 100
0.2353251 1.2664226 0.051421888 82
0.24179152 1.2562214 0.070684217 81
0.25704861 1.2321522 0.086664692 71
0.24833539 1.245898 0.10952436 99
0.25578222 1.2341501 0.12687239 99
0.23868063 1.261129 0.15580906 67
0.24549463 1.2541082 0.0099827768 87
0.24692905 1.2518278 0.029831495 99
0.23918146 1.264145 0.051073264 83
0.25300297 1.2421713 0.068490572 50
0.25656009 1.2365162 0.087290429 71
0.25627023 1.236977 0.10723466 73
0.25221634 1.243422 0.1291219 96
0.23422539 1.2720244 0.15891489 65
0.24832952 1.2535245 0.0099478718 87
0.2571547 1.2393793 0.028994121 100
0.24204931 1.2635906 0.050898954 83
0.25473556 1.2432568 0.068490572 50
0.26036316 1.2342367 0.086664692 57
0.24759173 1.2547071 0.11105084 98
0.26014262 1.2345902 0.12642249 99
0.23402235 1.2764564 0.15995017 64
0.24686149 1.2596754 0.010052586 86
0.25669235 1.243795 0.029203463 100
0.24167672 1.2680507 0.051247578 82
0.25847909 1.2409089 0.068003096 51
0.2599059 1.2386041 0.087290429 57
0.25755259 1.2424054 0.10799789 72
0.26484334 1.2306284 0.12507279 100
0.23782584 1.274271 0.15891489 65
0.24647936 1.2641383 0.010122396 85
0.2541666 1.2516234 0.029622151 100
0.24550271 1.2657285 0.050898954 83
0.24973485 1.2588384 0.070440479 49
0.26154339 1.2396138 0.087290429 57
0.24995542 1.2584794 0.11143246 77
0.26747292 1.2299604 0.12462288 92
0.24565467 1.265481 0.15580906 67
0.25340945 1.256657 0.0099478718 87
0.25792837 1.2492422 0.029412808 100
0.25138244 1.2599829 0.050201707 85
0.25040999 1.2615786 0.070684217 81
0.26729646 1.2338706 0.086038955 58
0.25779259 1.249465 0.10914274 85
0.26908022 1.2309438 0.12462288 92
0.2493968 1.2632411 0.15477379 67
0.26529276 1.240478 0.0095988233 91
0.25840136 1.2518661 0.029517479 100
0.24776566 1.2694416 0.051073264 83
0.25503901 1.2574224 0.069953002 49
0.26568702 1.2398266 0.086977564 57
0.25930029 1.2503806 0.10914274 92
0.27153862 1.2301569 0.12417299 83
0.2489475 1.2674886 0.15580906 67
0.25664356 1.2586133 0.0099478718 87
0.26008517 1.2528811 0.029517479 100
0.24540862 1.2773262 0.051770512 81
0.25878584 1.2550452 0.069465525 49
0.26631194 1.2425097 0.087290429 57
0.26401061 1.2463429 0.10799789 79
0.27615583 1.2261138 0.12282328 85
0.2506859 1.2685364 0.15580906 67
0.26244426 1.2527623 0.0098082526 89
0.26381668 1.2504582 0.029308135 100
0.24412262 1.2835215 0.052293446 80
0.26251245 1.2526479 0.068978049 50
0.27200657 1.2367086 0.086038955 87
0.25964701 1.2574584 0.1102876 85
0.27974415 1.2237184 0.12192347 93
0.24451903 1.282856 0.15995017 64
0.2539579 1.2709789 0.0101573 85
0.27260813 1.2394179 0.028575432 100
0.25098506 1.2760097 0.051421888 82
0.26217917 1.2570664 0.069465525 49
0.27765721 1.2308736 0.084787481 59
0.26934063 1.2449474 0.10723466 73
0.28232098 1.2229813 0.12147357 77
0.25810486 1.2639612 0.15373851 68
0.27306575 1.2427789 0.0095639192 76
0.2663368 1.2542665 0.029412808 100
0.26300034 1.2599624 0.049678773 86
0.26304814 1.2598808 0.069709264 83
0.27743202 1.2353249 0.085413218 58
0.26620489 1.2544917 0.10914274 78
0.28012243 1.2307318 0.12327318 93
0.26195651 1.2617445 0.15270324 68
0.27170369 1.2489297 0.0096686333 90
0.27605659 1.2414386 0.028575432 100
0.26271036 1.2644067 0.050027397 100
0.26775193 1.2557304 0.068978049 50
0.27310318 1.2465212 0.087290429 71
0.27184331 1.2486894 0.10761628 79
0.28075325 1.233356 0.12372308 83
0.26561597 1.2594063 0.15166797 69
0.27337715 1.2498982 0.0096686333 90
0.27570903 1.2458528 0.028784776 100
0.25747299 1.2774895 0.051247578 100
0.26944917 1.2567127 0.068978049 50
0.27871421 1.2406392 0.086038955 72
0.27351594 1.2496574 0.10761628 87
0.28431869 1.2309163 0.12282328 85
0.25960797 1.2737856 0.15580906 67
0.26909849 1.2612767 0.0098780617 88
0.27737173 1.2468073 0.028784776 100
0.25430146 1.2871556 0.052119136 100
0.27312049 1.2542424 0.068490572 50
0.28428078 1.2347239 0.084787481 59
0.26934496 1.2608457 0.10990598 92
0.28786379 1.2284575 0.12192347 85
0.26712173 1.2647338 0.15270324 68
0.26884204 1.265733 0.0099478718 87
0.28297904 1.2408069 0.028366089 100
0.27281803 1.2587227 0.049155839 87
0.27383319 1.2569327 0.068734311 50
0.28980267 1.2287756 0.083536007 60
0.27396566 1.2566991 0.10876112 79
0.29138848 1.2259796 0.12102367 86
0.27476117 1.2552965 -0.0097384425 88
0.26694432 1.2690791 0.15373851 68
0.27743727 1.2545115 0.0097035384 75
0.2787486 1.2521805 0.028994121 100
0.27647939 1.2562143 0.048807215 88
0.28234756 1.2457829 0.067028143 51
0.28365752 1.2434542 0.086038955 58
0.27951655 1.2508154 0.10723466 81
0.28915989 1.2336732 0.12282328 85
0.27247685 1.2633293 0.15166797 69
0.28205326 1.2502213 0.0095988233 91
0.27654073 1.2601008 0.029412808 100
0.27526587 1.2623857 0.049330149 87
0.27820656 1.2571154 0.068490572 50
0.29108682 1.234031 0.084161744 59
0.28215316 1.2500422 0.10685304 88
0.29078001 1.2345809 0.12282328 85
0.2713767 1.269356 0.15322088 76
0.28663594 1.2459047 0.0094941091 76
0.28792387 1.2435772 0.028366089 100
0.2769863 1.2633417 0.049330149 87
0.28375328 1.2511137 0.067515619 51
0.29079524 1.2383887 0.084787481 59
0.28002802 1.2578453 0.10837951 94
0.29712117 1.2269576 0.12057377 86
0.27405688 1.2686353 0.15270324 76
0.28436577 1.2537868 0.0096337283 75
0.28949574 1.2444438 0.028366089 100
0.26615775 1.2869482 0.051596198 82
0.28535017 1.2519939 0.067515619 51
0.29520211 1.234051 0.083848871 59
0.28826159 1.2466915 0.10570818 73
0.27762866 1.2660567 -0.0098780617 87
0.27199277 1.2763211 0.15477379 67
0.2803182 1.2652483 0.0098431576 73
0.28924313 1.2488583 0.028575432 100
0.2774922 1.270438 0.049853086 85
0.2851356 1.2564015 0.068003096 51
0.2958788 1.2366724 0.084161744 59
0.28053823 1.2648442 0.10952436 78
0.29837349 1.2320912 0.12147357 77
0.27936187 1.2670045 -0.0098780617 87
0.28300059 1.2603222 0.14959741 70
0.29060021 1.2503508 0.0095290141 92
0.28522211 1.2603099 0.029203463 100
0.28776112 1.2556082 0.048284281 88
0.28683507 1.257323 0.068003096 51
0.29750934 1.2375567 0.084161744 59
0.29159588 1.2485071 0.10570818 81
0.2810984 1.2679461 -0.0098780617 87
0.28654966 1.2578516 0.14856213 71
0.29322258 1.2494905 0.0094941091 92
0.29259253 1.2506671 0.028575432 100
0.28475487 1.2653027 0.049155839 87
0.28947487 1.2564888 0.067759357 85
0.29697508 1.2424834 0.10418171 75
0.29792568 1.2407082 0.12327318 76
0.28460616 1.2655803 0.15063268 70
0.29114637 1.2574484 0.0096337283 90
0.29427195 1.2515626 0.028575432 100
0.28835431 1.2627062 0.048807215 58
0.29769182 1.2451227 0.066053182 52
0.29614729 1.2480311 0.08572609 58
0.29954666 1.2416298 0.1038001 76
0.28361949 1.2716223 0.1521856 77
0.29284945 1.2583491 0.0096337283 90
0.29781562 1.2489179 0.028366089 100
0.28729087 1.2689052 0.049330149 87
0.2947914 1.2546611 0.10647142 73
0.28446412 1.2742734 -0.0099478718 86
0.28987259 1.2640023 0.14959741 70
0.29169279 1.2645165 0.0097384425 75
0.29848045 1.2515218 0.02847076 100
0.29909369 1.2503479 0.047412723 90
0.29640001 1.2555047 0.10647142 73
0.28891531 1.2698338 -0.0098431576 97
0.29061776 1.2665746 0.15011504 78
0.29985803 1.2529854 0.0094941091 92
0.29465169 1.263038 0.029098792 100
0.29894596 1.2547464 0.067028143 51
0.29066163 1.2707422 -0.0098431576 97
0.29679489 1.2588998 0.14752686 79
0.29889822 1.2592211 0.048109971 59
0.28884619 1.2788055 -0.0099827768 100
0.29505992 1.2666993 0.14959741 70
0.29428229 1.2725246 0.049330149 58
0.29329073 1.2744732 0.15166797 77
0.29244286 1.2805405 0.15322088 76
0.29866084 1.2725698 -0.0098082526 100
0.29864028 1.2770274 -0.0098780617 100
