# .PCD v0.7 - Point Cloud Data file format
VERSION 0.7
FIELDS x y z intensity
SIZE 4 4 4 4
TYPE F F F F
COUNT 1 1 1 1
WIDTH 750
HEIGHT 1
VIEWPOINT 0 0 0 1 0 0 0
POINTS 750
DATA ascii
-1.1427071 0.15978357 0.020140078 4
-1.1057106 0.1546104 0.0585116 29
-1.1322452 0.16235223 0.019965554 5
-1.0683613 0.15699983 0.0188486 6
-1.0163938 0.15298939 0.017941074 5
-1.0375936 0.15988633 0.018325027 1
-0.48552102 1.2465825 0.023351319 1
-0.466782 1.2109523 0.022653224 1
-0.45236707 1.186496 0.022164555 2
-0.44398749 1.176842 0.021955127 2
-0.44288114 1.185801 0.022094747 2
-0.4636912 1.2548662 0.023351319 1
0.061231822 0.010998487 0.047311705 66
0.05532378 0.0076829791 0.047625721 50
0.04720062 0.0010562539 0.048149079 31
0.043082654 0.0061606169 0.04804441 100
0.047080636 0.017896414 0.047416378 79
0.037762463 0.0097181797 0.04804441 36
0.034362137 0.021702349 0.047625721 9
0.029475212 0.020225525 0.047835063 9
0.019992828 0.012227118 0.048463095 8
-0.99550229 0.65514934 0.027051231 20
-0.98191196 0.66126609 0.026806897 22
-0.97431952 0.6674186 0.026667276 16
-0.98862058 0.67158043 0.026911611 23
-1.0009475 0.67649841 0.027121039 24
-1.0092347 0.68118721 0.027260659 27
-1.0155404 0.68658346 0.027365373 27
-1.0098169 0.69207478 0.027260659 17
-1.0340626 0.69668287 0.027679516 10
-1.0522778 0.70116371 0.02799366 7
-1.0725007 0.70625174 0.028342709 8
-1.0886905 0.71105748 0.028621947 10
-1.0968714 0.71623087 0.028761566 12
-1.1170375 0.7213971 0.029110614 18
-1.1291914 0.72690862 0.029320043 18
-1.1613188 0.73206121 0.029878519 20
-1.1674387 0.73792303 0.029983234 11
-1.0505695 1.1354035 0.028656852 3
-1.0233064 1.1291795 0.084574908 5
-1.0175281 1.1278603 0.14066938 6
-1.012336 1.13213 0.02799366 8
-1.0007043 1.1294339 0.083423518 15
-1.0182736 1.1335063 0.14084367 24
-0.98764175 1.1323498 0.027574802 22
-0.99743241 1.134657 0.083318844 84
-1.0285664 1.1419938 0.14188954 78
-0.99421114 1.1393073 0.027714422 38
-0.99038726 1.1383928 0.083004825 100
-1.0253863 1.1467631 0.14171524 95
-0.98902613 1.1437516 0.027644612 42
-0.98715109 1.1432962 0.082900152 100
-1.0047004 1.1475581 0.13997212 82
-0.98583668 1.1483748 0.027609708 25
-0.98396546 1.1479137 0.082795486 100
-0.9937672 1.1503285 0.13910057 92
-0.96691436 1.1498969 0.027295563 27
-0.98444051 1.1542861 0.082900152 60
-0.99036282 1.1557693 0.13892625 85
-0.97146076 1.1564018 0.027400278 37
-0.97541445 1.1574059 0.082481466 38
-0.99679941 1.162837 0.13962349 73
-0.97390705 1.1629744 0.027470088 53
-0.97205037 1.1624955 0.082376793 52
-0.98570281 1.1660161 0.13875194 89
-0.9687261 1.1670141 0.027400278 67
-0.97653741 1.1690561 0.082690813 99
-0.97667068 1.1690909 0.1380547 92
-0.94793266 1.1674495 0.027051231 75
-0.9654122 1.1720873 0.082167454 92
-0.96749467 1.1726398 0.13735744 99
-0.94467527 1.1718954 0.027016325 81
-0.96214181 1.1765919 0.082062781 98
-0.96422702 1.1771525 0.13718314 100
-0.94705063 1.1784235 0.027086135 92
-0.94908041 1.1789773 0.081434749 100
-0.96272463 1.1826997 0.13718314 100
-0.94954282 1.1844511 0.027155945 96
-0.9380905 1.1812859 0.08091139 100
-0.96710891 1.1893061 0.13770607 92
-0.94423586 1.1886041 0.027086135 93
-0.93856901 1.1870165 0.081016064 88
-0.95220631 1.190837 0.13648589 98
-0.93899196 1.1924652 0.027016325 79
-0.93525654 1.1914053 0.08091139 80
-0.94696909 1.1947285 0.13613728 100
-0.95088583 1.2017899 0.027260659 59
-0.93754083 1.1979506 0.081120729 50
-0.95114642 1.2018648 0.1366602 100
-0.93792623 1.2034092 0.027051231 42
-0.92269057 1.1989713 0.080388032 22
-0.95544475 1.2085121 0.13718314 85
-0.93057424 1.2071609 0.026946515 68
-0.91919285 1.2038004 0.080283359 26
-0.95191664 1.2134626 0.13700883 82
-0.9272005 1.2114958 0.026911611 74
-0.91774625 1.2086701 0.080283359 30
-0.93707508 1.214447 0.13578865 94
-0.91799456 1.2143322 0.026771991 75
-0.92576414 1.2166839 0.080806717 74
-0.92216593 1.2155948 0.13456847 100
-0.90312892 1.2150981 0.026527658 81
-0.92809409 1.2227452 0.081016064 100
-0.92449027 1.2216413 0.1349171 100
-0.912947 1.2239771 0.026737086 92
-0.91116458 1.2234241 0.080178685 88
-0.92282504 1.2270424 0.1349171 84
-0.91143352 1.2288259 0.026737086 88
-0.90203077 1.2258739 0.07976 74
-0.92890495 1.2343112 0.13561434 56
-0.91363448 1.2351358 0.026806897 88
-0.90614098 1.2327545 0.080074012 72
-0.91208464 1.2346432 0.13421984 43
-0.90066153 1.236315 0.026597468 85
-0.9064998 1.2381918 0.080178685 84
-0.89725822 1.2352211 0.13299966 48
-0.88364917 1.2369276 0.02631823 93
-0.91038865 1.2456365 0.080492698 100
-0.91630012 1.2475618 0.1349171 59
-0.88969022 1.2441815 0.026457848 100
-0.89173013 1.2448534 0.079550654 100
-0.91281599 1.2517983 0.13474278 77
-0.88794261 1.249455 0.026457848 100
-0.88619059 1.2488708 0.079341307 100
-0.91104037 1.2571566 0.13474278 82
-0.89013451 1.2554984 0.026527658 96
-0.88459474 1.2536309 0.079341307 100
-0.89431292 1.256907 0.13334829 80
-0.8733744 1.2551106 0.02624842 96
-0.88865453 1.2603184 0.079655327 100
-0.89834791 1.263622 0.13387123 89
-0.86797661 1.2585254 0.02617861 96
-0.88702065 1.2650864 0.079655327 100
-0.88540071 1.2645283 0.13282534 100
-0.87355608 1.2668493 0.02631823 85
-0.86993605 1.2655858 0.078817949 99
-0.90221506 1.2768519 0.13456847 64
-0.87001485 1.270902 0.026283324 75
-0.8513332 1.2643121 0.077875905 63
-0.90992087 1.2849786 0.13544002 38
-0.87193614 1.2774475 0.026353134 83
-0.85139316 1.2701163 0.077980578 25
-0.88738233 1.2829598 0.1335226 41
-0.85707778 1.2774115 0.0261088 96
-0.87227291 1.282891 0.079236634 34
-0.8669309 1.2809647 0.13177948 28
-0.8476941 1.2798243 0.025969181 100
-0.86287814 1.285363 0.078817949 82
-0.86504859 1.2861546 0.13177948 16
-0.84599572 1.2844565 0.025969181 99
-0.84991711 1.2859015 0.078189917 100
-0.89137143 1.3011785 0.13439415 12
-0.84044367 1.2879303 0.025899371 100
-0.836878 1.286602 0.077561885 99
-0.89884382 1.3096838 0.13526571 1
-0.84246165 1.2939467 0.025969181 100
-0.82954925 1.2890881 0.077247873 46
-0.87093967 1.3046622 0.13282534 1
-0.83679396 1.2976246 0.025899371 89
-0.8369711 1.2976921 0.077771232 51
-0.83545154 1.2971139 0.12968774 9
-0.82570356 1.2986341 0.025724847 70
-0.84267098 1.3051541 0.078189917 59
-0.86159307 1.3124251 0.13230242 46
-0.8312127 1.3065692 0.025864467 74
-0.83511502 1.3080852 0.077875905 72
-0.85773832 1.3168738 0.1321281 100
-0.83687204 1.3140677 0.026004085 90
-0.8184486 1.3068402 0.077038527 60
-0.85406226 1.3208115 0.13195379 100
-0.82938737 1.3166952 0.025899371 100
-0.83142036 1.3175008 0.077875905 80
-0.82990438 1.3169 0.12986206 95
-0.81642753 1.3168087 0.025689943 100
-0.82588857 1.3205948 0.077666558 91
-0.82253391 1.3192523 0.12933913 97
-0.80329126 1.3173147 0.025480513 100
-0.82756442 1.3271315 0.077875905 95
-0.82605273 1.3265202 0.12986206 100
-0.80877727 1.3250601 0.025620133 100
-0.81451768 1.327405 0.077247873 100
-0.8351683 1.3358408 0.13090792 100
-0.78599089 1.3157518 0.17719802 24
-0.81052858 1.3313251 0.025689943 100
-0.79594702 1.325309 0.076305822 100
-0.82581753 1.3376329 0.13021068 100
-0.77673751 1.3173836 0.17622307 16
-0.80856091 1.3360708 0.025689943 100
-0.79584402 1.330772 0.076410495 100
-0.80727559 1.3355353 0.12864187 100
-0.7821483 1.3250655 0.17719802 16
-0.79183131 1.3346052 0.025410704 100
-0.79387838 1.3354665 0.076410495 100
-0.79794747 1.3371787 0.12794463 100
-0.7856918 1.3320218 0.17792924 20
-0.78617138 1.3377216 0.025340894 93
-0.79924911 1.3432782 0.07682918 83
-0.80146068 1.3442178 0.12846756 100
-0.76179761 1.3273655 0.17500438 16
-0.81001133 1.3531826 0.025829561 61
-0.80468315 1.3508978 0.077247873 40
-0.81236702 1.3541927 0.12968774 45
-0.77271312 1.3371888 0.17671055 11
-0.81530768 1.3611042 0.025969181 86
-0.80081433 1.3548295 0.0771432 78
-0.82494658 1.3652775 0.13108224 39
-0.78712052 1.3489008 0.17890419 7
-0.80417782 1.3616257 0.025794657 100
-0.8061884 1.3625041 0.077561885 100
-0.80653328 1.3626548 0.12951343 97
-0.79610783 1.3580999 0.18036664 28
-0.80210441 1.3663491 0.025794657 100
-0.81324893 1.3712645 0.078085244 100
-0.81903988 1.3738185 0.13090792 100
-0.7940467 1.3627952 0.18036664 31
-0.79260296 1.368046 0.025655037 100
-0.81650943 1.378695 0.078399263 100
-0.80589765 1.3739681 0.12986206 100
-0.77010506 1.3580247 0.17744176 35
-0.79415482 1.3743691 0.025724847 100
-0.80526835 1.379366 0.077875905 100
-0.80378109 1.3786974 0.12986206 100
-0.76261288 1.3601871 0.17671055 24
-0.79942757 1.3821275 0.025864467 100
-0.79596466 1.3805566 0.077457212 100
-0.8126418 1.3881217 0.13090792 100
-0.77330309 1.3702769 0.17841671 22
-0.80637366 1.3909963 0.026038991 100
-0.80472106 1.3902397 0.078085244 100
-0.80685276 1.3912157 0.1305593 100
-0.77119964 1.3748925 0.17841671 15
-0.79501277 1.391768 0.025864467 100
-0.80606455 1.3968771 0.07829459 100
-0.7973327 1.3928405 0.12986206 100
-0.77257746 1.3813968 0.17890419 10
-0.78739768 1.393923 0.025759751 100
-0.8092981 1.40414 0.07860861 100
-0.80598384 1.4025939 0.13090792 100
-0.75964159 1.3809742 0.17744176 9
-0.79074949 1.4009087 0.025864467 100
-0.80899483 1.4094944 0.078713275 100
-0.81108969 1.4104803 0.13160518 100
-0.74862748 1.3810877 0.17622307 5
-0.79576463 1.409016 0.026004085 100
-0.7995376 1.4108076 0.07829459 100
-0.81244534 1.4169366 0.13195379 100
-0.7697981 1.3966862 0.17939167 3
-0.80073935 1.4171659 0.026143705 100
-0.79909366 1.4163773 0.078399263 100
-0.79939801 1.4165232 0.13090792 100
-0.78947026 1.4175253 0.025969181 100
-0.80941635 1.4271675 0.079131968 100
-0.80072051 1.4229639 0.13125655 100
-0.78720182 1.4221969 0.025969181 100
-0.81070441 1.4336598 0.079341307 100
-0.80559605 1.4311683 0.13195379 100
-0.79209405 1.4303921 0.0261088 100
-0.8012113 1.4348783 0.078922622 100
-0.81400603 1.4411741 0.13299966 100
-0.79359573 1.4363823 0.02617861 100
-0.79732651 1.4382327 0.078817949 100
-0.80832082 1.4436854 0.13265105 100
-0.80199152 1.4464366 0.026388038 100
-0.79677194 1.4438252 0.078922622 100
-0.80596095 1.4484228 0.13265105 100
-0.79248124 1.4475479 0.02624842 100
-0.80510992 1.4539216 0.079550654 100
-0.80358464 1.4531518 0.13265105 100
-0.79010791 1.45223 0.02624842 100
-0.80983382 1.4622722 0.079969339 100
-0.80474275 1.4596803 0.13299966 100
-0.78771836 1.4569037 0.02624842 100
-0.79319543 1.4597161 0.079131968 100
-0.80764431 1.4671354 0.1335226 100
-0.79951793 1.4689261 0.026527658 100
-0.79077965 1.4644005 0.079131968 100
-0.81581765 1.4773679 0.13456847 100
-0.79694718 1.4738677 0.026527658 100
-0.79884642 1.4748601 0.07976 100
-0.80438679 1.4777553 0.13369691 100
-0.79094392 1.4767004 0.026457848 96
-0.7946108 1.4786329 0.079655327 100
-0.80543321 1.4843365 0.13404553 100
-0.7937662 1.4841924 0.026562562 35
-0.7921291 1.4833221 0.079655327 31
-0.79941279 1.4871933 0.13369691 66
0.13796055 1.2800994 0.12746041 5
0.16590869 1.2489102 0.010715778 13
0.13763613 1.2841623 0.03454173 27
0.12368307 1.3015599 0.059614528 21
0.16192842 1.2538731 0.098240845 12
0.15079847 1.2677506 0.12402584 18
0.1988613 1.2078228 0.12957181 8
0.1257585 1.2989721 0.18169098 6
0.15503961 1.2658224 0.011064826 38
0.17294258 1.2433474 0.031715591 61
0.15772399 1.2624525 0.055082429 50
0.1591607 1.2606488 0.077021427 14
0.16353512 1.2551574 0.098240845 12
0.14755836 1.2752142 0.12555231 72
0.19424421 1.216606 0.13182132 15
0.15640283 1.264111 0.16926765 14
0.16173461 1.2609242 0.010925206 100
0.16964138 1.2509269 0.032134276 90
0.15573755 1.2685069 0.055605363 98
0.16826418 1.2526681 0.07555899 15
0.17503405 1.2441084 0.095737889 25
0.16515651 1.2565975 0.12059128 100
0.18129903 1.2361869 0.13722014 45
0.1509397 1.2745733 0.17237349 42
0.16715556 1.2575582 0.010820492 100
0.17255592 1.2506808 0.032029606 100
0.15378866 1.2745812 0.056128297 100
0.16382152 1.2618041 0.076777689 29
0.17669126 1.2454144 0.095737889 25
0.17413226 1.2486733 0.11830158 100
0.18653911 1.232873 0.13587044 38
0.15508959 1.2729244 0.1713382 43
0.16517133 1.2636229 0.010925206 100
0.17300811 1.2535706 0.032134276 100
0.1531024 1.2791038 0.056476921 100
0.17530465 1.2506248 0.074827775 30
0.17835304 1.2467146 0.095737889 25
0.17821959 1.2468858 0.11753834 100
0.18336445 1.2402864 0.13767004 37
0.14853314 1.2849648 0.17496167 35
0.16322482 1.2697072 0.011029921 76
0.16980845 1.2612013 0.032552965 59
0.15854043 1.2757593 0.055953987 73
0.17333952 1.2566392 0.07555899 30
0.17276484 1.2573817 0.097615108 24
0.18589482 1.240418 0.11563025 40
0.19455054 1.2292349 0.13407083 23
0.14323846 1.2955292 0.17806751 33
0.16009772 1.2773967 0.01116954 75
0.17882714 1.2530233 0.031924933 30
0.16273624 1.2739631 0.055605363 49
0.18350732 1.2469327 0.073852822 46
0.19252282 1.2352005 0.092922069 53
0.17438045 1.2588099 0.11982805 12
0.18665656 1.2428346 0.13767004 22
0.15566933 1.2831595 0.17340876 57
0.17998013 1.2548422 0.010645968 53
0.16104373 1.2796549 0.033599682 28
0.17166206 1.2657415 0.054559495 50
0.18629524 1.2465675 0.073609084 62
0.18208319 1.2520865 0.096050762 51
0.19863385 1.2304 0.1125773 13
0.19768468 1.2316437 0.13407083 31
0.17143744 1.2660358 0.16719711 60
0.18650532 1.2497554 0.010506349 54
0.16764975 1.2746418 0.033180997 28
0.16376913 1.2797635 0.055953987 48
0.19155738 1.2430874 0.072877869 47
0.18734702 1.2486444 0.095112152 51
0.20379993 1.2269292 0.11143246 14
0.20165196 1.2297642 0.13317102 46
0.1696713 1.2719736 0.16875002 81
0.18337396 1.2574136 0.010645968 53
0.1694136 1.2759733 0.033180997 28
0.17992282 1.2620018 0.053862248 51
0.19440424 1.2427493 0.072634131 78
0.19376975 1.2435929 0.093860678 52
0.19595584 1.2406865 0.1144854 13
0.21028748 1.2216332 0.13047162 32
0.17026454 1.274842 0.16926765 73
0.17789879 1.268304 0.010855397 65
0.1855222 1.258095 0.031924933 30
0.17925829 1.2664833 0.054210871 51
0.1913057 1.25035 0.073609084 77
0.19424316 1.2464162 0.094173551 52
0.19760099 1.2419195 0.1144854 13
0.20953411 1.2259392 0.13137141 31
0.17087322 1.2777123 0.16978529 66
0.1855948 1.2615676 0.010680873 93
0.19674352 1.2465285 0.031087559 63
0.18692619 1.2597717 0.053339314 52
0.19298461 1.2515991 0.073609084 77
0.2053194 1.23496 0.091670595 67
0.20275795 1.2384152 0.11334054 13
0.2169303 1.2192973 0.1291219 32
0.18415242 1.2635133 0.16460891 69
0.18494239 1.2660578 0.010750682 92
0.19249001 1.2558017 0.031610917 61
0.18745708 1.2626407 0.053513627 78
0.19702107 1.2496448 0.073121607 78
0.20928618 1.2329783 0.091044858 81
0.20323148 1.2412057 0.11372216 13
0.21272543 1.2283049 0.13137141 23
0.1938926 1.2538959 0.16098544 72
0.19366881 1.2575786 0.010541254 81
0.20588765 1.2408593 0.030564198 64
0.18791714 1.2654488 0.053687938 78
0.19041455 1.2620316 0.074827775 100
0.21082336 1.2341056 0.091044858 95
0.20479596 1.2423531 0.11372216 13
0.22344577 1.2168339 0.1277722 16
0.18979985 1.2628727 0.16357364 69
0.19067591 1.265294 0.010680873 93
0.20401484 1.2469075 0.030878214 63
0.18847883 1.2683225 0.053862248 100
0.21311662 1.2343616 0.070440479 98
0.20316559 1.2480781 0.093547814 100
0.20759976 1.241966 0.11334054 13
0.22615185 1.2163937 0.1273223 16
0.19152251 1.264127 0.16357364 69
0.19240701 1.2665452 0.010680873 93
0.22202221 1.2254223 0.029412808 67
0.19022048 1.2695813 0.053862248 100
0.20661908 1.2468107 0.072146654 79
0.21060848 1.241271 0.091983467 93
0.20695469 1.2463446 0.11410378 13
0.25048858 1.1858945 0.11832426 17
0.18760473 1.2732136 0.16616182 68
0.1918166 1.271044 0.010750682 92
0.21432179 1.2395626 0.030250182 65
0.1942839 1.2675925 0.053513627 100
0.20135891 1.2576957 0.073609084 62
0.21914834 1.232811 0.090106249 96
0.20861953 1.2475392 0.11410378 13
0.23040944 1.2170584 0.12687239 16
0.19498086 1.2666175 0.16357364 69
0.20282573 1.2592447 0.010471444 96
0.21133956 1.2472467 0.03066887 96
0.20063508 1.2623317 0.05281638 100
0.20765862 1.252434 0.072634131 78
0.22076586 1.233963 0.090106249 96
0.21028852 1.2487279 0.11410378 20
0.22520536 1.2277069 0.12957181 16
0.20677841 1.2536745 0.15891489 73
0.21374801 1.2473748 0.010192205 99
0.22105855 1.2369961 0.029936166 99
0.20006108 1.266806 0.053165004 100
0.21277413 1.2487574 0.071902916 48
0.21783724 1.2415693 0.09135773 100
0.20404774 1.2611462 0.1167751 66
0.22343841 1.2336173 0.13092151 32
0.20846885 1.2548696 0.15891489 73
0.21083307 1.255101 0.010331824 84
0.21925735 1.243052 0.030250182 98
0.19494751 1.2778218 0.054210871 100
0.22240961 1.2385434 0.07019674 66
0.21722153 1.2459638 0.091983467 100
0.20913911 1.2575238 0.11563025 100
0.23175856 1.2251719 0.12822211 65
0.20130774 1.2687248 0.163056 70
0.20568779 1.266139 0.010541254 95
0.21749446 1.2491262 0.030564198 97
0.1967223 1.279058 0.054210871 100
0.21725646 1.2494692 0.071659178 80
0.22338995 1.240631 0.090731993 100
0.21643963 1.2506461 0.11372216 100
0.23001617 1.2310829 0.12957181 88
0.2052536 1.2667648 0.16202073 78
0.20742175 1.2673379 0.010541254 81
0.23049879 1.2338358 0.029517479 100
0.20302227 1.2737248 0.053513627 100
0.20541915 1.2702452 0.074584037 91
0.22503474 1.2417682 0.090731993 100
0.21255097 1.2598915 0.11563025 100
0.22720575 1.2386165 0.13137141 94
0.21356502 1.2584194 0.15891489 73
0.21367431 1.2619276 0.010401634 83
0.22648364 1.243192 0.03004084 66
0.20928067 1.2683541 0.05281638 100
0.21837112 1.2550578 0.072146654 63
0.23225793 1.2347462 0.089167647 100
0.21758717 1.2562045 0.1144854 100
0.23214304 1.2349143 0.13002171 96
0.21745262 1.2564013 0.15787962 73
0.22549906 1.2482064 0.010087491 57
0.22028705 1.2558872 0.030773543 64
0.21325979 1.266243 0.052467756 80
0.23121271 1.2397864 0.069709264 99
0.22833622 1.2440255 0.090731993 100
0.23031017 1.2411165 0.11066922 100
0.22939092 1.2424711 0.13182132 94
0.21698299 1.2607563 0.15891489 73
0.22270206 1.2559706 0.01022711 42
0.21640664 1.265318 0.031296901 31
0.21054214 1.2740257 0.053165004 52
0.23063672 1.2441893 0.07019674 82
0.22668239 1.2500606 0.091670595 100
0.22866651 1.2471147 0.11181407 98
0.23430789 1.2387383 0.13047162 96
0.21438146 1.2683251 0.16098544 80
0.22423041 1.2569964 0.01022711 42
0.22684827 1.253083 0.030459527 32
0.2165584 1.2684654 0.052467756 53
0.22660938 1.2534401 0.071415432 64
0.23478207 1.2412226 0.089793384 97
0.22907543 1.2497536 0.11219569 100
0.24119958 1.231629 0.12822211 100
0.21272627 1.2741941 0.16253836 70
0.21929613 1.2681265 0.010436539 41
0.21748966 1.2708476 0.031506244 31
0.21830037 1.2696264 0.052467756 53
0.22829887 1.254566 0.071415432 96
0.23861405 1.2390287 0.089167647 100
0.22966614 1.2525065 0.1125773 96
0.23850146 1.2391982 0.13002171 96
0.22624189 1.2576643 0.15684435 74
0.22323734 1.2659382 0.010366729 27
0.21044901 1.2853475 0.032343622 30
0.22552738 1.2624625 0.051596198 54
0.23108447 1.2540283 0.071171694 81
0.24133998 1.2384632 0.088854775 100
0.23891351 1.242146 0.10990598 85
0.23692465 1.2451645 0.13137141 94
0.22475749 1.263631 0.15839726 73
0.23372549 1.2536865 0.010087491 28
0.19038913 1.3199619 0.03443706 27
0.22942913 1.260257 0.051247578 55
0.24146706 1.2418472 0.069221787 83
0.24513924 1.2362312 0.088229038 98
0.23841462 1.2465153 0.11066922 100
0.24178463 1.2413615 0.13002171 96
0.22965428 1.2599127 0.15684435 74
0.23332396 1.2581978 0.0101573 42
0.23370978 1.2576029 0.030459527 32
0.22580686 1.2697864 0.052119136 54
0.24751967 1.2363132 0.068246834 68
0.2425501 1.2439744 0.089480512 97
0.24230003 1.24436 0.10990598 85
0.24881685 1.2343135 0.1277722 97
0.22409287 1.2724288 0.1604678 72
0.23719475 1.2559373 0.010087491 43
0.25703481 1.2251161 0.028366089 35
0.22971025 1.2675643 0.051770512 54
0.23947906 1.2523887 0.070440479 49
0.24955249 1.2367398 0.087916173 84
0.24395773 1.2454312 0.10990598 85
0.25465861 1.2288076 0.12597258 90
0.23212257 1.2638168 0.15736198 74
0.23889288 1.2570262 0.010087491 57
0.24249747 1.2513834 0.029936166 66
0.22823134 1.2737164 0.052293446 80
0.24009615 1.2551426 0.070684217 98
0.25543717 1.2311268 0.086664692 71
0.24667603 1.2448421 0.10952436 85
0.25731102 1.2281934 0.12552269 82
0.23176828 1.2681795 0.15839726 73
0.24915966 1.2445976 0.0098082526 89
0.245249 1.250767 0.029831495 66
0.23425838 1.2681055 0.051596198 82
0.24710545 1.2478383 0.069465525 49
0.25493342 1.2354891 0.087290429 71
0.25253978 1.2392652 0.10799789 79
0.25369558 1.2374419 0.1277722 97
0.23868063 1.261129 0.15580906 67
0.24639097 1.2523096 0.0099478718 73
0.25208086 1.2432708 0.029308135 100
0.23476338 1.270781 0.051770512 81
0.25072315 1.2454276 0.068978049 50
0.25429258 1.2397572 0.087916173 70
0.24983197 1.2468433 0.10952436 85
0.25412738 1.2400197 0.12822211 97
0.23816678 1.2653744 0.15684435 74
0.25019515 1.2499745 0.0098780617 73
0.25585088 1.2409198 0.029098792 100
0.24284643 1.2617395 0.05072464 84
0.25238451 1.2464694 0.068978049 50
0.25384113 1.2441374 0.08854191 70
0.25981888 1.2345673 0.10647142 81
0.26196417 1.2311327 0.12552269 99
0.23785096 1.2697369 0.15787962 65
0.24458426 1.2629693 0.010122396 85
0.2554751 1.2453904 0.029308135 100
0.24570012 1.2611682 0.05055033 84
0.24681461 1.2593694 0.070684217 81
0.25974235 1.2385027 0.087290429 57
0.24704805 1.2589926 0.11181407 98
0.26468256 1.2305288 0.12507279 92
0.23561499 1.2774465 0.15995017 64
0.2463069 1.2640324 0.010122396 85
0.26550385 1.2328038 0.02847076 100
0.25576359 1.2486488 0.049155839 87
0.25372252 1.2519691 0.069465525 49
0.26344845 1.2361474 0.086664692 57
0.26109439 1.2399769 0.10723466 73
0.26731238 1.2298617 0.12462288 100
0.23941159 1.2752492 0.15891489 65
0.25636336 1.2514318 0.0098431576 88
0.25776112 1.2491401 0.029412808 100
0.24706158 1.2666826 0.050898954 83
0.25333938 1.2563899 0.069953002 49
0.26302016 1.2405177 0.087290429 57
0.2525138 1.2577434 0.11105084 84
0.26384568 1.2391642 0.12687239 82
0.25123653 1.2598376 0.15373851 68
0.26011628 1.2490323 0.0097733475 89
0.25633329 1.2552836 0.029726824 100
0.25086021 1.2643279 0.05055033 84
0.25195581 1.2625175 0.070684217 81
0.26670972 1.2381365 0.086664692 71
0.26641533 1.238623 0.10647142 81
0.26548511 1.2401602 0.12687239 90
0.24594697 1.2724469 0.15736198 74
0.25561425 1.2603278 0.0099827768 87
0.26316938 1.247744 0.029203463 100
0.251562 1.2670772 0.05072464 84
0.26287305 1.2482375 0.068490572 50
0.26427835 1.2458969 0.087916173 56
0.26097891 1.2513924 0.10914274 78
0.27515274 1.2277845 0.12327318 93
0.2506859 1.2685364 0.15580906 67
0.25835094 1.2596344 0.0099478718 73
0.267905 1.2435945 0.028889447 100
0.25431854 1.2664042 0.05055033 84
0.26454416 1.2492368 0.068490572 50
0.27200657 1.2367086 0.086038955 58
0.26266104 1.2523984 0.10914274 85
0.27974415 1.2237184 0.12192347 85
0.2484735 1.2762171 0.15787962 65
0.25895858 1.2623203 0.0099827768 87
0.27354261 1.2376502 0.02847076 100
0.25393847 1.2708122 0.050898954 83
0.25906357 1.2621427 0.07019674 99
0.28159779 1.2240242 0.083536007 60
0.25626966 1.2668688 0.11219569 91
0.27827513 1.2296448 0.12327318 85
0.25605243 1.2672362 0.15477379 67
0.26978341 1.2478087 0.0096686333 90
0.26507288 1.2558408 0.029517479 100
0.2657676 1.2546562 0.049155839 87
0.25676635 1.2700045 0.071171694 65
0.27918702 1.2317742 0.084787481 59
0.27091715 1.2458755 0.10723466 73
0.27889541 1.2322714 0.12372308 83
0.25778991 1.2682593 0.15477379 67
0.26952597 1.2522898 0.0097384425 75
0.2648474 1.2603348 0.029726824 100
0.25652814 1.2746403 0.051073264 83
0.26957828 1.2521999 0.068490572 50
0.27591604 1.2413018 0.086351827 58
0.27266321 1.2468952 0.10723466 88
0.27765253 1.2383157 0.12507279 100
0.25961807 1.2693269 0.15477379 67
0.27221042 1.2515337 0.0097035384 90
0.28252912 1.2336469 0.028052073 100
0.25928706 1.2739358 0.050898954 100
0.27027124 1.2548952 0.068734311 67
0.27460158 1.2473888 0.087290429 71
0.28021577 1.237657 0.10494494 75
0.28805295 1.2240715 0.12102367 86
0.25943214 1.2736843 0.15580906 67
0.2718218 1.2559232 0.0097733475 89
0.28208354 1.2379979 0.028261416 100
0.2570003 1.2818134 0.051596198 82
0.27286699 1.2540975 0.068490572 50
0.28207466 1.2380134 0.085413218 58
0.27298954 1.2538834 0.10837951 87
0.28859198 1.2266289 0.12147357 77
0.25726485 1.2813513 0.15787962 65
0.26956996 1.2638469 0.0099129668 87
0.28371879 1.2389302 0.028261416 100
0.26764306 1.2672402 0.050027397 85
0.27259806 1.2585143 0.068978049 50
0.28175911 1.2423813 0.086038955 58
0.27274144 1.2582617 0.10914274 78
0.29114977 1.225844 0.12102367 86
0.27351967 1.2568913 -0.0097733475 88
0.27240661 1.2588514 0.15063268 70
0.2801277 1.2491417 0.0095988233 76
0.28143665 1.2468177 0.028680105 100
0.27133599 1.2647508 0.049678773 86
0.27430499 1.2594795 0.068978049 50
0.28728735 1.2364302 0.084787481 59
0.27733788 1.2540948 0.10799789 87
0.29369888 1.2250469 0.12057377 77
0.27129552 1.2648227 -0.0099129668 87
0.2741147 1.2598174 0.15063268 78
0.28765345 1.2396064 0.0093893949 77
0.27725822 1.258214 0.029308135 100
0.27792323 1.2570237 0.048807215 88
0.2837604 1.2465749 0.067028143 51
0.28506348 1.2442424 0.086038955 58
0.28860429 1.2379043 0.10418171 75
0.28958637 1.2361463 0.12327318 85
0.27394181 1.2641505 0.15166797 69
0.28735596 1.2440175 0.009459204 77
0.27509212 1.2661512 0.029726824 100
0.27189991 1.2719125 0.050201707 85
0.29312229 1.2336104 0.065078229 53
0.28863525 1.2417086 0.085413218 58
0.28453013 1.2491175 0.10647142 81
0.29688191 1.2268251 0.12057377 86
0.2700507 1.27525 0.15477379 67
0.28034469 1.260704 0.0097733475 89
0.28836825 1.2461032 0.02847076 100
0.26693684 1.2851028 0.051421888 82
0.29091808 1.2414632 0.066053182 52
0.29218611 1.2391557 0.084787481 73
0.28431317 1.2534823 0.10723466 81
0.27367681 1.2728379 0.15373851 68
0.27918839 1.26691 0.0098780617 73
0.29003176 1.2470136 0.02847076 100
0.28303814 1.2598461 0.048807215 88
0.28781566 1.2510798 0.067271881 51
0.29288003 1.2417873 0.085100345 58
0.28130502 1.2630262 0.10914274 85
0.29727966 1.2337145 0.12192347 85
0.27918839 1.26691 -0.0098780617 87
0.28282946 1.260229 0.14959741 78
0.29043257 1.2502602 0.0095290141 92
0.28979915 1.2514322 0.028680105 100
0.29043359 1.2502584 0.047761347 90
0.28855267 1.2537385 0.067515619 51
0.29640692 1.2392063 0.084474608 59
0.29142886 1.2484169 0.10570818 73
0.283777 1.2625747 -0.0097733475 88
0.28454229 1.2611586 0.14959741 70
0.29399988 1.2476383 0.009459204 93
0.28959426 1.2558582 0.028889447 100
0.28928798 1.2564297 0.048284281 88
0.29024285 1.2546482 0.067515619 51
0.29804629 1.2400887 0.084474608 59
0.29959247 1.2372038 0.10303686 83
0.28443319 1.2654877 0.15063268 78
0.2966072 1.2467632 0.0094242999 77
0.29316652 1.253237 0.028680105 100
0.2891174 1.2608554 0.048632905 88
0.297526 1.2450346 0.066053182 52
0.2966179 1.2467432 0.10494494 82
0.28253776 1.2732352 0.15270324 68
0.29547599 1.2529521 0.0095290141 92
0.28711674 1.2688135 0.049330149 87
0.29363263 1.2564498 0.067515619 51
0.29462224 1.254572 0.10647142 81
0.28615275 1.2706426 -0.0098780617 87
0.28249463 1.2775838 0.15373851 68
0.29253262 1.2626991 0.0097035384 75
0.29654637 1.2550182 0.028680105 100
0.29439607 1.2591331 0.048284281 88
0.29900971 1.2503042 0.066540658 52
0.29267821 1.2624204 0.10799789 72
0.28975421 1.268016 -0.0098082526 88
0.29232055 1.2631049 0.14907977 78
0.29968947 1.252898 0.0094941091 76
0.29146847 1.2687579 0.068978049 50
0.28772607 1.2759776 -0.0099478718 96
0.29395714 1.2639568 0.14907977 78
0.2877135 1.2803543 0.050201707 56
0.29593316 1.2643605 0.068246834 85
0.29479989 1.2665657 0.14959741 78
0.29574487 1.2692192 0.15011504 78
0.29574758 1.2735527 0.15115032 77
0.29842487 1.2723839 0.049155839 58
0.2948162 1.2795902 -0.0099478718 100
0.29926288 1.2795651 -0.0099129668 100
