# .PCD v0.7 - Point Cloud Data file format
VERSION 0.7
FIELDS x y z intensity
SIZE 4 4 4 4
TYPE F F F F
COUNT 1 1 1 1
WIDTH 745
HEIGHT 1
VIEWPOINT 0 0 0 1 0 0 0
POINTS 745
DATA ascii
-1.1106972 0.14760676 0.058720943 22
-1.1056837 0.15480338 0.0585116 28
-1.138155 0.16340238 0.020070268 5
-1.0485768 0.15409242 0.018499551 6
-1.0163938 0.15298939 0.017941074 5
-1.0573573 0.16293178 0.018674076 1
-0.58691007 1.3779902 0.026143705 1
-0.54323816 1.2879057 0.024398465 1
-0.5248661 1.2565805 0.023770178 2
-0.52506232 1.2694923 0.023979606 4
-0.52245551 1.2770513 0.02408432 6
-0.50748456 1.2529193 0.023595653 7
-0.50757343 1.2658193 0.023805082 6
-0.50979161 1.2843111 0.024119226 2
-0.54820549 1.3938404 0.026143705 1
0.058104187 0.0011395812 0.047835063 65
0.04693222 0.0012318492 0.048149079 33
0.051947951 0.014664412 0.047416378 100
0.039501131 0.0013464093 0.048358422 100
0.035576224 0.001562953 0.048463095 68
0.030224144 0.0051729679 0.048463095 17
0.043484092 0.029975116 0.046997689 21
0.033970356 0.021972418 0.047625721 9
0.031492651 0.02368778 0.047625721 9
-1.0934486 0.6830076 0.028726662 10
-1.083756 0.68923849 0.028552137 20
-1.0960133 0.69439131 0.028761566 10
-1.0942693 0.70022219 0.028726662 26
-1.0965011 0.7058844 0.028761566 27
-1.0987031 0.71127355 0.02879647 41
-1.1228821 0.71625847 0.029215328 16
-1.1210523 0.72186381 0.029180424 21
-1.1272073 0.72754538 0.029285138 15
-1.1333427 0.73326933 0.029389853 23
-1.1474564 0.73888898 0.029634187 15
-1.1655498 0.74454743 0.02994833 15
-1.1896231 0.75026375 0.030367186 12
-1.1937165 0.76208717 0.030436996 11
-1.0446575 1.1343466 0.028552137 3
-1.0174024 1.1281195 0.084260888 5
-1.0252349 1.129909 0.14136662 6
-1.0238969 1.1353886 0.028203089 10
-1.0005786 1.1299752 0.083423518 16
-1.0356135 1.1381087 0.14241248 32
-1.0012026 1.1358312 0.027819136 26
-0.9993127 1.1353855 0.083423518 84
-1.0207448 1.14044 0.1411923 81
-0.98234993 1.137319 0.027504992 37
-1.0037899 1.1424583 0.08373753 100
-0.99612635 1.1406213 0.13910057 94
-0.98105842 1.1426656 0.027504992 42
-1.0005395 1.1474074 0.083632857 100
-0.99869496 1.1469585 0.13944919 91
-0.98175555 1.1482201 0.027539898 25
-0.98376733 1.1487169 0.082795486 99
-0.99550217 1.1516144 0.13927488 94
-0.97848624 1.1530786 0.027504992 23
-0.97662407 1.1526117 0.082481466 56
-1.0038238 1.1594287 0.14014643 78
-0.97520179 1.1579187 0.027470088 35
-0.97915047 1.1589229 0.082690813 35
-0.9928003 1.1623946 0.13927488 78
-0.96028453 1.1597426 0.027225753 61
-0.98938698 1.1672528 0.083318844 54
-0.9779169 1.1642928 0.1380547 89
-0.94924241 1.1624799 0.027051231 67
-0.98219448 1.1711063 0.083004825 100
-0.97653121 1.1696239 0.1380547 91
-0.95366138 1.1692504 0.027155945 78
-0.94989902 1.1682514 0.081330076 92
-0.97897834 1.1759725 0.13840333 99
-0.95604962 1.1757994 0.027225753 81
-0.95035774 1.1742657 0.081434749 96
-0.97363251 1.1805371 0.1380547 100
-0.95848197 1.182108 0.027295563 92
-0.95471746 1.1810796 0.081748761 100
-0.96450239 1.1837528 0.13735744 99
-0.94561583 1.1836467 0.027086135 93
-0.94379359 1.1831428 0.081225403 100
-0.95551389 1.1863842 0.1366602 92
-0.94031185 1.1877854 0.027016325 93
-0.95003492 1.190511 0.081644088 86
-0.95213288 1.1910992 0.13648589 98
-0.93684715 1.192698 0.026981421 74
-0.93695682 1.1927291 0.081016064 78
-0.95249575 1.1971468 0.1366602 100
-0.96034282 1.2050815 0.027435184 51
-0.93163365 1.1968113 0.080806717 42
-0.95099562 1.2023889 0.1366602 100
-0.9454537 1.2061682 0.027190849 42
-0.93021017 1.2017221 0.080806717 22
-0.94764084 1.2068061 0.13648589 87
-0.93049794 1.2074194 0.026946515 68
-0.92677873 1.2063205 0.080702044 26
-0.93846399 1.2097731 0.13578865 85
-0.91555172 1.2085716 0.026702182 75
-0.92907351 1.212618 0.08091139 28
-0.93310231 1.2138237 0.13544002 94
-0.91975313 1.2154245 0.026806897 78
-0.91987389 1.2154611 0.080492698 78
-0.92582387 1.2172644 0.1349171 99
-0.91444439 1.2191234 0.026737086 83
-0.9069317 1.2168193 0.079864666 100
-0.93576139 1.225661 0.13596296 99
-0.91668719 1.2254184 0.026806897 85
-0.90536314 1.2219023 0.079864666 91
-0.91703695 1.225527 0.13439415 78
-0.90356284 1.2271912 0.026597468 88
-0.91322333 1.2302296 0.080388032 68
-0.91345686 1.2303032 0.13421984 57
-0.89814717 1.2310489 0.026527658 81
-0.9116078 1.2353345 0.080388032 72
-0.90804416 1.2341999 0.13387123 42
-0.89272231 1.2348745 0.026457848 79
-0.89856857 1.2367584 0.07976 91
-0.91020769 1.2405087 0.13421984 43
-0.90059668 1.2430074 0.026632372 90
-0.88363844 1.2374778 0.079027295 100
-0.91234487 1.2468382 0.13456847 57
-0.90091926 1.2484415 0.026667276 99
-0.88966757 1.2447312 0.07944598 100
-0.90507907 1.2498131 0.13404553 78
-0.88027126 1.2471745 0.02631823 99
-0.88989621 1.2503858 0.079550654 100
-0.8977254 1.2529978 0.1335226 91
-0.87101811 1.2496064 0.02617861 92
-0.89388782 1.2573251 0.079864666 100
-0.90169388 1.2599597 0.13404553 77
-0.87312013 1.2558558 0.02624842 93
-0.87705678 1.2571998 0.079027295 100
-0.90374583 1.2663115 0.13439415 91
-0.87141556 1.2608205 0.02624842 96
-0.86779588 1.2595706 0.07860861 100
-0.898238 1.2700825 0.13404553 98
-0.88102096 1.2697349 0.026457848 81
-0.86796397 1.2651751 0.078713275 97
-0.8983646 1.2757915 0.13421984 61
-0.86795443 1.2707318 0.02624842 79
-0.86434358 1.2694567 0.07860861 59
-0.88343936 1.2762002 0.13299966 41
-0.85301512 1.2709713 0.026004085 88
-0.86259145 1.2743907 0.07860861 23
-0.8872928 1.2832108 0.1335226 39
-0.85313874 1.2765446 0.026038991 96
-0.85706502 1.2779621 0.078399263 38
-0.88924056 1.2895777 0.13387123 24
-0.86263305 1.2855529 0.02624842 99
-0.85153097 1.2815011 0.078189917 78
-0.88367492 1.2932322 0.1335226 16
-0.84965831 1.2860837 0.026038991 100
-0.85170096 1.2868369 0.07829459 100
-0.87445444 1.2952266 0.13282534 11
-0.84035319 1.288173 0.025899371 100
-0.84053081 1.288239 0.077771232 93
-0.89874965 1.3099368 0.13526571 1
-0.83479327 1.2916132 0.025829561 100
-0.84245139 1.2944978 0.077980578 48
-0.87075299 1.3051583 0.13282534 1
-0.83296412 1.2964439 0.025829561 83
-0.8312791 1.2958025 0.077457212 51
-0.85025591 1.3030262 0.13108224 11
-0.83485073 1.302704 0.025899371 77
-0.82570714 1.2991867 0.077247873 63
-0.86326319 1.3136332 0.13247673 48
-0.83484668 1.3082592 0.025934275 72
-0.83315951 1.3076034 0.077771232 68
-0.85392874 1.315676 0.13177948 100
-0.82737547 1.3108971 0.025829561 93
-0.83127445 1.3124282 0.077771232 61
-0.8353247 1.3140187 0.13021068 100
-0.81804389 1.312752 0.025689943 100
-0.83679861 1.3201926 0.078189917 80
-0.82786149 1.3166469 0.12968774 99
-0.81614107 1.3175241 0.025689943 100
-0.82560009 1.3213151 0.077666558 95
-0.83334249 1.3244181 0.130385 99
-0.81422156 1.3222895 0.025689943 100
-0.81255943 1.3216166 0.077038527 100
-0.83878595 1.332234 0.13108224 100
-0.81598717 1.3285618 0.025759751 100
-0.81432301 1.3278813 0.077247873 100
-0.82021731 1.3302915 0.12951343 100
-0.79682475 1.3207262 0.17866045 22
-0.80293947 1.3287468 0.025550323 100
-0.8049832 1.3295908 0.07682918 100
-0.8127287 1.3327894 0.1289905 100
-0.79122466 1.3239086 0.17817298 15
-0.80107921 1.3332301 0.025550323 100
-0.80312008 1.3340809 0.07682918 100
-0.8182109 1.3403718 0.12968774 100
-0.75823206 1.3153683 0.17402942 16
-0.79910487 1.3379428 0.025550323 100
-0.7882573 1.3333762 0.076096483 99
-0.81621152 1.3451444 0.12968774 100
-0.78742331 1.3330252 0.17817298 24
-0.79343361 1.341084 0.025480513 99
-0.78995866 1.3396069 0.076305822 74
-0.80502766 1.3460126 0.12881619 100
-0.76170033 1.3275945 0.17500438 16
-0.82818347 1.3615446 0.02617861 59
-0.8063156 1.3521584 0.077352546 44
-0.79568523 1.3475957 0.12811895 35
-0.77798754 1.3399994 0.17744176 9
-0.81143171 1.3599906 0.025899371 86
-0.81160563 1.3600659 0.077771232 89
-0.82473868 1.3657573 0.13108224 45
-0.78691834 1.3493675 0.17890419 7
-0.7910437 1.356724 0.025550323 100
-0.82051629 1.3696187 0.078399263 100
-0.8153494 1.367358 0.130385 100
-0.79216236 1.3572134 0.17987914 33
-0.79081672 1.3622094 0.025585229 100
-0.80927998 1.3703642 0.077875905 100
-0.8187235 1.3745353 0.13090792 100
-0.79010445 1.3618948 0.17987914 43
-0.7996996 1.3717721 0.025794657 100
-0.80170351 1.3726654 0.077561885 100
-0.81296557 1.3776867 0.1305593 100
-0.77896494 1.3625273 0.17866045 36
-0.79759079 1.3764796 0.025794657 100
-0.81051952 1.3822981 0.078189917 100
-0.81083602 1.3824406 0.1305593 100
-0.76783746 1.3630892 0.17744176 20
-0.79546565 1.3811799 0.025794657 100
-0.80655545 1.3862175 0.078085244 100
-0.80143386 1.383891 0.12986206 100
-0.78021806 1.3742537 0.17939167 19
-0.7897957 1.3839722 0.025724847 100
-0.81539863 1.395705 0.078713275 100
-0.8066358 1.3916893 0.1305593 100
-0.7745977 1.3770075 0.17890419 17
-0.79490429 1.3920028 0.025864467 100
-0.80414242 1.3962753 0.078189917 100
-0.80807418 1.3980937 0.13090792 100
-0.76346213 1.3774612 0.1776855 13
-0.79453689 1.3975394 0.025899371 100
-0.79832834 1.3993089 0.077980578 100
-0.81309515 1.4062011 0.13160518 100
-0.75413841 1.378684 0.17671055 7
-0.80138367 1.4064891 0.026073895 100
-0.80154401 1.4065647 0.07829459 100
-0.80365616 1.4075594 0.13090792 100
-0.78073972 1.3967659 0.18061037 5
-0.79554147 1.4094857 0.026004085 100
-0.80472547 1.4138505 0.07860861 100
-0.80142242 1.4122808 0.13090792 100
-0.78750831 1.4056678 0.18182907 3
-0.78248245 1.4089906 0.025794657 100
-0.80967337 1.42203 0.079027295 100
-0.80276519 1.4187171 0.13125655 100
-0.79295772 1.4195004 0.026038991 100
-0.80210954 1.4239265 0.078713275 100
-0.81674927 1.4310067 0.13282534 100
-0.79787093 1.4276918 0.02617861 100
-0.79802376 1.4277663 0.07860861 100
-0.81264299 1.4348998 0.13265105 100
-0.80262703 1.4361615 0.02631823 100
-0.78843683 1.429173 0.078189917 100
-0.80304736 1.4363686 0.13195379 100
-0.7931301 1.43732 0.02617861 100
-0.79864842 1.4400618 0.078922622 100
-0.800713 1.4410875 0.13195379 100
-0.78733402 1.439979 0.0261088 100
-0.80713314 1.449898 0.079550654 100
-0.80916828 1.4509175 0.13299966 100
-0.79569572 1.4500546 0.02631823 100
-0.80475157 1.4546311 0.079550654 100
-0.80678314 1.4556577 0.13299966 100
-0.79699665 1.4563291 0.026388038 100
-0.79713517 1.4563997 0.079236634 100
-0.81160289 1.4637713 0.13369691 100
-0.80170697 1.4646831 0.026527658 100
-0.7965073 1.4620107 0.079341307 100
-0.81094497 1.4694307 0.13387123 100
-0.7920509 1.4659503 0.026388038 100
-0.79750806 1.4687803 0.079550654 100
-0.79775995 1.4689109 0.13282534 100
-0.7931574 1.4724842 0.026457848 100
-0.79860026 1.4753308 0.07976 100
-0.80060858 1.4763813 0.13334829 100
-0.79082054 1.4769344 0.026457848 93
-0.7909537 1.4770046 0.07944598 100
-0.81059581 1.4873607 0.13456847 100
-0.80070406 1.4881821 0.026702182 33
-0.78318721 1.4788682 0.079131968 25
-0.81160182 1.4939765 0.1349171 56
0.11840877 1.3046858 0.13356629 5
0.1509822 1.2676995 0.011134636 12
0.13897517 1.282676 0.03443706 27
0.1287609 1.2954164 0.05891728 22
0.14597318 1.2739472 0.12555231 18
0.15243566 1.2658865 0.17030293 7
0.16268501 1.256573 0.010855397 39
0.16191304 1.2575427 0.032657638 59
0.15789592 1.2625893 0.055082429 50
0.15191424 1.2701039 0.078483857 14
0.16370451 1.2552922 0.098240845 24
0.15507087 1.2661383 0.12326261 79
0.18590456 1.2274029 0.13497064 15
0.15055966 1.2718058 0.17185585 14
0.1631459 1.2594908 0.010890301 100
0.18095493 1.2369568 0.03119223 94
0.1546762 1.2702076 0.055779677 98
0.16474012 1.2574737 0.076290213 29
0.16785052 1.253538 0.097615108 24
0.16289175 1.2598125 0.12135452 100
0.18629509 1.2301999 0.13542053 45
0.15111586 1.2747126 0.17237349 42
0.16362247 1.2624115 0.010925206 100
0.17272371 1.2508125 0.032029606 100
0.15396482 1.2747195 0.056128297 100
0.16521865 1.2603772 0.076533951 29
0.17685723 1.2455447 0.095737889 25
0.16460386 1.2611607 0.12135452 100
0.18910667 1.2299336 0.13497064 45
0.15288007 1.2761018 0.17237349 42
0.16525748 1.26369 0.010925206 100
0.17923108 1.2457595 0.031610917 92
0.15809014 1.272887 0.055779677 98
0.17050761 1.2569532 0.075802729 30
0.18329328 1.2405469 0.094486415 26
0.17226878 1.2546934 0.11944643 100
0.19183174 1.2295908 0.13452072 38
0.14624801 1.2880824 0.17599694 48
0.16812071 1.2633817 0.010890301 78
0.166141 1.2659395 0.032866981 58
0.17195493 1.2584281 0.054036561 77
0.1757696 1.2534995 0.075071514 30
0.17276484 1.2573817 0.097615108 24
0.18469316 1.2419705 0.11601187 33
0.18858662 1.2369401 0.13632034 22
0.15033314 1.2863631 0.17496167 28
0.17837438 1.2536125 0.010645968 66
0.16909146 1.2656927 0.032762308 29
0.1688062 1.2660639 0.054733805 50
0.18108824 1.2500808 0.074340299 46
0.19252282 1.2352005 0.092922069 53
0.17916542 1.252583 0.11830158 19
0.18784398 1.2412894 0.13722014 22
0.15802357 1.2800958 0.17237349 57
0.17755377 1.2580215 0.010715778 53
0.17316073 1.2637777 0.032552965 29
0.16924456 1.2689092 0.054908119 50
0.17906931 1.2560357 0.075071514 60
0.19286901 1.2379537 0.093234941 53
0.19506061 1.235082 0.11372216 13
0.20596054 1.2207997 0.13092151 32
0.16792139 1.270643 0.16875002 66
0.17460212 1.2658252 0.010855397 39
0.17264828 1.2684058 0.032762308 29
0.16154176 1.2830752 0.056302611 48
0.19052431 1.2447951 0.073121607 62
0.19466844 1.2393216 0.093234941 53
0.19921917 1.2333109 0.11295892 13
0.21475187 1.2127954 0.12822211 40
0.17217878 1.2690259 0.16771474 67
0.1762484 1.2670673 0.010855397 39
0.17190254 1.2728471 0.032971654 29
0.18120608 1.2604738 0.053687938 52
0.18971476 1.2491578 0.073609084 62
0.20453686 1.2294453 0.091044858 54
0.19603798 1.2407483 0.1144854 13
0.21153748 1.220135 0.13002171 32
0.18312368 1.2579236 0.16357364 69
0.18994763 1.2523441 0.010506349 54
0.18321794 1.2613597 0.032134276 30
0.17815313 1.2681447 0.054385185 51
0.17832756 1.267911 0.076290213 100
0.19787124 1.2417293 0.093234941 53
0.20003214 1.2388344 0.11372216 13
0.2107794 1.2244369 0.13092151 32
0.18136227 1.2638456 0.16512655 68
0.19512174 1.2487162 0.010401634 83
0.19436467 1.2497374 0.031296901 31
0.17980707 1.2693751 0.054385185 76
0.2048063 1.2356521 0.071171694 65
0.19590834 1.2476552 0.094173551 65
0.21795708 1.2179122 0.10837951 14
0.2053251 1.2349522 0.13362093 31
0.18645334 1.2604095 0.16357364 69
0.18748495 1.2629633 0.010680873 80
0.20685858 1.2366182 0.030354854 65
0.18762907 1.2627673 0.053513627 78
0.20659682 1.2369741 0.071171694 97
0.20242614 1.2426456 0.092922069 79
0.2080484 1.2350003 0.11219569 14
0.21865794 1.2205729 0.1291219 24
0.18948355 1.2602454 0.163056 70
0.19148037 1.2609328 0.010611063 94
0.21311945 1.2313018 0.029936166 66
0.17868984 1.2784474 0.055082429 75
0.20112288 1.2477291 0.072634131 78
0.20516038 1.2422004 0.092609204 93
0.20727655 1.2393026 0.11295892 13
0.23164681 1.2059317 0.12462288 16
0.18313596 1.2723591 0.16667947 67
0.19084883 1.2654194 0.010680873 80
0.20652586 1.2437942 0.03066887 64
0.18280575 1.2765141 0.054733805 100
0.18764597 1.2698374 0.075802729 100
0.2079702 1.2418019 0.092296332 100
0.21006912 1.2389065 0.1125773 13
0.24232075 1.1944181 0.12102367 17
0.19056112 1.2658162 0.16409127 69
0.19249368 1.2666076 0.010680873 80
0.20109752 1.2546561 0.031296901 62
0.1949639 1.2631762 0.053165004 100
0.20438275 1.2500926 0.072634131 78
0.21069074 1.2413303 0.091983467 100
0.21621409 1.2336578 0.11105084 14
0.23917565 1.2017622 0.12282328 17
0.1978507 1.2591662 0.16150309 70
0.1989657 1.2614059 0.010541254 81
0.20519811 1.2526813 0.031087559 94
0.19214138 1.2709591 0.053862248 100
0.20845243 1.2481256 0.072146654 63
0.2032347 1.2554299 0.094486415 100
0.21677452 1.2364757 0.11143246 21
0.24642396 1.19497 0.12057377 17
0.20301473 1.2557378 0.15995017 72
0.20291111 1.2593052 0.010471444 96
0.22528949 1.2277575 0.029412808 67
0.19149911 1.2753932 0.054210871 100
0.21233687 1.2460173 0.071659178 64
0.21284661 1.2452989 0.092296332 100
0.20696446 1.2535911 0.11524864 27
0.23430508 1.2150478 0.12597258 16
0.19456801 1.2710669 0.16460891 69
0.2023187 1.2637839 0.010541254 95
0.21999019 1.2386866 0.03004084 66
0.19441253 1.2750125 0.054036561 100
0.21171483 1.2504394 0.072146654 79
0.21678227 1.2432425 0.091670595 100
0.2007426 1.2660223 0.11791996 58
0.23361668 1.2193339 0.12687239 33
0.19965583 1.2675657 0.163056 78
0.20166638 1.2682118 0.010611063 94
0.22154623 1.2397783 0.03004084 66
0.20636398 1.261493 0.052467756 100
0.21330988 1.2515585 0.072146654 79
0.22627673 1.2330124 0.089480512 100
0.20238939 1.2671778 0.11791996 100
0.2306419 1.226769 0.128672 65
0.20462865 1.263975 0.16150309 70
0.21033368 1.259627 0.010401634 97
0.21985495 1.2459021 0.030354854 97
0.20589641 1.2660233 0.05281638 100
0.20489368 1.2674687 0.074340299 100
0.22347209 1.2406881 0.090731993 95
0.22547591 1.2377995 0.11066922 92
0.22676432 1.2359424 0.13092151 96
0.2141495 1.2541265 0.15787962 81
0.21649668 1.2541634 0.010262015 98
0.21237105 1.2601528 0.03119223 94
0.20528272 1.2704432 0.053165004 100
0.22118428 1.2473581 0.071171694 97
0.22727591 1.2385147 0.090106249 96
0.2248016 1.2421067 0.11143246 91
0.22499484 1.2418262 0.13227122 94
0.21137327 1.2616013 0.15995017 72
0.21150354 1.2652882 0.010471444 82
0.22431237 1.2465464 0.030250182 98
0.20711926 1.2717034 0.053165004 100
0.22293609 1.2485601 0.071171694 81
0.21896386 1.2543724 0.092922069 100
0.22542638 1.2449163 0.11181407 98
0.23112464 1.2365787 0.13047162 96
0.20881718 1.2692189 0.16202073 70
0.21651635 1.261444 0.010366729 55
0.23150179 1.2393603 0.029726824 67
0.20319116 1.2810808 0.054036561 77
0.22675416 1.2463568 0.070684217 81
0.23499131 1.234218 0.088854775 98
0.22259352 1.2524883 0.11334054 96
0.23814476 1.2295709 0.12822211 97
0.20938978 1.2719462 0.16253836 70
0.20938566 1.2759333 0.010645968 40
0.21203148 1.2720034 0.031715591 30
0.21508089 1.2674739 0.052467756 53
0.22406781 1.2541251 0.071659178 64
0.24000445 1.2304535 0.087916173 100
0.21997845 1.2601993 0.11486702 100
0.23765466 1.2339438 0.1291219 96
0.21554732 1.2667811 0.1604678 72
0.21773285 1.2670851 0.010436539 41
0.22701693 1.2531958 0.030459527 32
0.21451801 1.2718947 0.05281638 53
0.22788131 1.2519026 0.071171694 81
0.24043533 1.2331213 0.088229038 100
0.23469797 1.2417046 0.1102876 92
0.23269719 1.2446978 0.13182132 100
0.2204172 1.2630692 0.15891489 81
0.22389182 1.2615764 0.010296919 28
0.20883167 1.2842782 0.032343622 30
0.22177905 1.2647612 0.051944822 54
0.22846803 1.2546782 0.071415432 96
0.23331773 1.2473679 0.090731993 95
0.23526111 1.2444384 0.11066922 100
0.2354334 1.2441787 0.13137141 94
0.22107241 1.2658265 0.15943253 73
0.22552374 1.2626551 0.010296919 28
0.18856737 1.3187664 0.03443706 27
0.22342154 1.265847 0.051944822 54
0.23007706 1.2557418 0.071415432 100
0.23055631 1.2550142 0.091983467 93
0.23899591 1.2422003 0.10990598 92
0.24022326 1.2403368 0.13002171 100
0.21846804 1.2733679 0.16150309 70
0.22514403 1.2671893 0.010366729 27
0.2124303 1.2866474 0.032343622 30
0.22633091 1.2653728 0.051770512 54
0.23511696 1.2519257 0.070684217 81
0.24530199 1.2363375 0.088229038 98
0.24395028 1.2384064 0.10876112 87
0.24727881 1.2333121 0.1277722 97
0.2245419 1.2681108 0.15943253 73
0.22679454 1.2682637 0.010366729 41
0.23370978 1.2576029 0.030459527 32
0.22689113 1.2681148 0.051944822 54
0.24211824 1.2446402 0.069465525 49
0.2522251 1.2290592 0.086664692 100
0.23695803 1.2525954 0.11181407 98
0.24669585 1.2375833 0.128672 89
0.22829813 1.2659458 0.15839726 73
0.2393595 1.2525744 0.010017681 58
0.24406216 1.2452689 0.029622151 33
0.23402393 1.2608631 0.051073264 55
0.23733011 1.2557271 0.070927955 65
0.24527568 1.2433838 0.089167647 84
0.24820831 1.2388279 0.10837951 87
0.25254902 1.2320848 0.12687239 99
0.23212257 1.2638168 0.15736198 74
0.24096146 1.2536019 0.010017681 58
0.23918703 1.2563787 0.030250182 65
0.23887199 1.2568717 0.05055033 84
0.24749398 1.2433795 0.068978049 50
0.24897453 1.2410626 0.08854191 70
0.2487075 1.2414805 0.10876112 79
0.24883625 1.241279 0.1291219 88
0.23376188 1.2648683 0.15736198 74
0.24265143 1.2546778 0.010017681 72
0.25158268 1.2405934 0.029203463 68
0.22883651 1.2764633 0.052467756 80
0.24702206 1.2477853 0.069465525 66
0.25062069 1.2421105 0.08854191 70
0.24404681 1.2524773 0.11105084 98
0.25987566 1.2275157 0.12507279 83
0.22824922 1.2773895 0.16098544 72
0.2421298 1.2590789 0.010087491 71
0.25420886 1.2398902 0.029098792 100
0.23264059 1.2741532 0.052119136 81
0.24437806 1.2555072 0.070440479 49
0.25850195 1.2330703 0.086664692 71
0.25610724 1.2368745 0.10723466 81
0.26139444 1.2284753 0.12507279 92
0.23405015 1.271914 0.15891489 65
0.24197856 1.2637039 0.0101573 71
0.2560975 1.2410738 0.029098792 100
0.23677617 1.2720425 0.051770512 81
0.24422795 1.2600986 0.070927955 48
0.25827193 1.2375886 0.087290429 71
0.24447411 1.259704 0.11219569 91
0.26323718 1.2296301 0.12507279 100
0.23811269 1.2699003 0.15787962 65
0.25098747 1.2528222 0.0099129668 87
0.25766125 1.2420459 0.029098792 100
0.2489329 1.2561398 0.050027397 85
0.25212589 1.250984 0.069465525 49
0.2598241 1.2385534 0.087290429 71
0.25953749 1.2390163 0.10723466 73
0.26373693 1.2322353 0.12552269 90
0.24790925 1.2577926 0.15373851 68
0.25589898 1.248803 0.0098082526 89
0.24789453 1.2618345 0.030250182 100
0.24341711 1.2691238 0.051247578 100
0.25389078 1.2520725 0.069465525 49
0.25740781 1.2463466 0.08854191 70
0.25817582 1.2450963 0.10837951 79
0.26645297 1.2316209 0.12507279 83
0.24363244 1.2687733 0.15684435 66
0.25540644 1.2531905 0.0098780617 88
0.25992414 1.2457806 0.029203463 100
0.24611109 1.2684366 0.051073264 83
0.25962448 1.2462721 0.068490572 50
0.26310226 1.2405678 0.087290429 57
0.25259891 1.2577953 0.11105084 84
0.26798531 1.2325586 0.12507279 100
0.23724294 1.2829821 0.16098544 64
0.25511 1.2576894 0.0099478718 87
0.26683712 1.238295 0.028680105 100
0.24484724 1.2746619 0.051596198 82
0.25726348 1.254128 0.069465525 49
0.26789528 1.2365451 0.086351827 58
0.26353139 1.243762 0.10761628 65
0.27270758 1.2285864 0.12372308 83
0.24612239 1.272553 0.15736198 74
0.25364178 1.2638084 0.010052586 57
0.26325276 1.247794 0.029203463 100
0.25472453 1.2620043 0.050201707 85
0.26091352 1.2516918 0.068978049 50
0.27147695 1.2340904 0.08572609 58
0.25702187 1.2581763 0.11066922 78
0.27422985 1.2295034 0.12372308 83
0.25276113 1.2652757 0.15477379 67
0.26039758 1.2561984 0.0098780617 88
0.267905 1.2435945 0.028889447 100
0.26451445 1.2492868 0.048807215 88
0.26251245 1.2526479 0.068978049 50
0.26998481 1.2401029 0.086664692 71
0.26667976 1.2456515 0.10761628 79
0.27276337 1.2354381 0.12507279 92
0.25835961 1.2596198 0.15270324 68
0.26811725 1.2468276 0.0096686333 90
0.26236233 1.2565625 0.029622151 100
0.25393847 1.2708122 0.050898954 83
0.26613495 1.2501808 0.068490572 50
0.26953477 1.2444298 0.087290429 71
0.26426232 1.2533486 0.10914274 92
0.27728343 1.2313223 0.12372308 83
0.25703552 1.2655733 0.15425615 75
0.26590616 1.2548077 0.0098082526 89
0.26827183 1.2507706 0.029203463 100
0.24981973 1.2822592 0.051944822 81
0.27199531 1.2444165 0.067515619 51
0.27735081 1.2352773 0.085413218 73
0.27207586 1.244279 0.10685304 66
0.28102729 1.2290034 0.12282328 93
0.2521036 1.2783618 0.15787962 65
0.26550484 1.2592044 0.0098780617 88
0.2789042 1.2361634 0.028261416 100
0.25352332 1.2798072 0.051596198 82
0.27057624 1.2504838 0.068246834 68
0.27988827 1.2344713 0.085100345 58
0.26081964 1.2672608 0.11181407 100
0.28842887 1.2197852 0.12012386 86
0.25184867 1.2826868 0.15891489 65
0.27229446 1.2515823 0.0097035384 75
0.27462825 1.2475351 0.028889447 100
0.26136559 1.2705345 0.05055033 84
0.27630576 1.244626 0.067271881 51
0.28060567 1.2371694 0.085413218 58
0.27147076 1.2530107 0.10837951 65
0.28715873 1.2258055 0.12147357 77
0.26531035 1.2636937 0.15270324 68
0.26892704 1.2611785 0.0098780617 88
0.27224541 1.2553797 0.029308135 100
0.27292264 1.2541962 0.048807215 88
0.2788671 1.2438082 0.067028143 51
0.28509969 1.2329166 0.084474608 59
0.27209893 1.2556356 0.10876112 100
0.28673589 1.2300574 0.12237337 76
0.26594746 1.2663854 -0.0099827768 75
0.27078703 1.2579281 0.15063268 70
0.28059739 1.244813 0.0095290141 92
0.27205503 1.2598686 0.029517479 100
0.27371594 1.2569413 0.048981529 87
0.27276859 1.2586111 0.068978049 50
0.28094921 1.2441931 0.086351827 58
0.28356913 1.2395755 0.10494494 75
0.28553882 1.2361039 0.12372308 83
0.2687639 1.2656692 0.15270324 68
0.28119236 1.2474463 0.0095639192 76
0.28935871 1.2329415 0.027842728 100
0.27142236 1.2647995 0.049678773 86
0.2821815 1.2456894 0.067028143 51
0.27961579 1.2502465 0.087290429 71
0.28031191 1.2490101 0.10685304 81
0.29091015 1.230186 0.12192347 85
0.26661807 1.2733326 0.15477379 67
0.27709615 1.2589048 0.0097733475 74
0.28521642 1.2443575 0.02847076 100
0.27032447 1.2710363 0.050201707 85
0.28199169 1.2501345 0.067515619 51
0.29004306 1.2357106 0.084474608 59
0.28015557 1.2534239 0.10761628 79
0.29354838 1.2294309 0.12147357 94
0.26846477 1.2743678 0.15477379 67
0.27581236 1.2650551 0.0098780617 88
0.28292018 1.2522217 0.028889447 100
0.2719875 1.271961 0.050201707 85
0.28358537 1.2510207 0.067515619 51
0.29254591 1.2348421 0.084161744 74
0.28176016 1.2543161 0.10761628 87
0.29790583 1.2251645 0.12012386 86
0.27581236 1.2650551 -0.0098780617 87
0.27481884 1.2668489 0.1521856 77
0.28725308 1.2485282 0.0095290141 92
0.28853446 1.2461945 0.02847076 100
0.28054163 1.2607515 0.048981529 87
0.28343934 1.255474 0.068003096 51
0.29520211 1.234051 0.083848871 59
0.28542688 1.2518542 0.10685304 81
0.29863787 1.2277937 0.12057377 77
0.28129068 1.2593873 0.14959741 70
0.2926679 1.2423728 0.0093893949 93
0.28247136 1.26109 0.029308135 100
0.28407678 1.2581431 0.048632905 88
0.28884926 1.2493824 0.067028143 51
0.29296237 1.2418321 0.085100345 58
0.28608704 1.2544529 0.10723466 81
0.2973606 1.2337586 0.12192347 85
0.28291503 1.2602756 0.14959741 70
0.29060021 1.2503508 0.0095290141 92
0.28806919 1.2550378 0.028889447 100
0.28208086 1.2661269 0.049330149 87
0.29060805 1.2503364 0.067028143 51
0.29375485 1.2445092 0.085413218 58
0.29159588 1.2485071 0.10570818 81
0.27737018 1.2748499 0.15373851 68
0.29322258 1.2494905 0.0094941091 92
0.29542118 1.2453849 0.028261416 100
0.28381428 1.2670591 0.049330149 87
0.29041204 1.2547388 0.067515619 51
0.29914296 1.2384351 0.084161744 59
0.28956041 1.2563291 0.10723466 81
0.2828382 1.2688817 -0.0098780617 87
0.2773101 1.2792046 0.15477379 75
0.28458124 1.2698113 0.0098780617 88
0.2933352 1.2533267 0.028680105 100
0.28741986 1.2644658 0.048981529 87
0.28372642 1.271421 0.069709264 83
0.29402196 1.2520334 0.1060898 73
0.28458124 1.2698113 -0.0098780617 87
0.28814977 1.2630913 0.14959741 70
0.29750797 1.2495022 0.009459204 93
0.29874617 1.2471507 0.028261416 100
0.29657388 1.251276 0.047587037 90
0.29195264 1.2600522 0.068003096 51
0.29936504 1.2459755 0.10456333 75
0.28819093 1.2671959 -0.0098082526 88
0.29527315 1.2537463 0.14649157 72
0.29825777 1.2521532 0.0094941091 92
0.29087827 1.2662868 0.048981529 87
0.29733986 1.2539113 0.067028143 51
0.29070443 1.2666198 0.15011504 78
0.29994234 1.253029 0.0094941091 76
0.29169622 1.2689577 0.049155839 58
0.29720533 1.2583159 0.067515619 68
0.29510397 1.2623751 0.14856213 79
0.29790273 1.2609496 0.048284281 59
0.28967083 1.276981 -0.0099478718 100
0.28614879 1.2838401 0.15477379 67
0.29507101 1.2707584 -0.0098082526 100
0.29758489 1.2658204 0.14907977 78
0.29321653 1.2787861 -0.0099478718 100
