# .PCD v0.7 - Point Cloud Data file format
VERSION 0.7
FIELDS x y z intensity
SIZE 4 4 4 4
TYPE F F F F
COUNT 1 1 1 1
WIDTH 754
HEIGHT 1
VIEWPOINT 0 0 0 1 0 0 0
POINTS 754
DATA ascii
-1.1663214 0.15354913 0.061651755 20
-1.1884303 0.16490833 0.020942887 21
-1.1819376 0.16800417 0.020838173 29
-1.1864297 0.16864268 0.062803149 33
-1.0685251 0.15588096 0.0188486 6
-1.0225133 0.15263319 0.018045789 5
-1.0061336 0.15396006 0.01776655 2
-1.0846443 0.16965683 0.019162742 1
-0.59291708 1.3754163 0.026143705 1
-0.56141567 1.3149486 0.024956942 1
-0.55370712 1.3095329 0.024817321 3
-0.54372627 1.2985461 0.024572989 5
-0.53765839 1.2967417 0.024503179 6
-0.5348748 1.302217 0.024572989 6
-0.5506652 1.3540905 0.025515418 44
-0.57107979 1.419174 0.026702182 51
0.12879702 0.051502347 0.043648187 14
0.11917895 0.040940642 0.044380892 27
0.10463285 0.021702349 0.045636956 36
0.091748834 0.00613451 0.046683673 76
0.20544431 0.20017344 0.011623302 11
0.085984915 0.0026113987 0.046997689 84
0.12436652 0.071604431 0.014276069 7
0.081230253 0.00082480907 0.047207031 81
0.12821099 0.083317995 0.014066639 7
0.087924272 0.023585081 0.015323213 5
0.085321605 0.025202572 0.015323213 5
0.052810937 0.0032245517 0.015951499 53
0.052330077 0.0024829507 0.047939736 53
0.047469079 0.00088083744 0.048149079 32
0.04856962 0.0083844662 0.015916595 4
0.040685475 0.0077569485 0.04804441 72
0.044720292 0.019480109 0.047416378 39
0.039861202 0.017942667 0.047625721 28
0.033858299 0.014781117 0.047939736 18
0.023296416 0.0050723553 0.048672438 8
0.025183201 0.01347971 0.048253752 8
0.020257354 0.012042165 0.048463095 8
0.019914567 0.017162025 0.048253752 8
-1.1832895 0.73066616 0.030262472 10
-1.1874151 0.73663992 0.030332282 10
-1.187521 0.74270481 0.030332282 16
-1.0254416 1.1287992 0.084679574 5
-1.0410268 1.1323485 0.14276111 6
-1.035841 1.136995 0.028412517 8
-0.99304634 1.1270914 0.083004825 9
-1.0145183 1.1320604 0.14049506 16
-0.99574453 1.1328357 0.027714422 16
-1.0152497 1.1374142 0.084260888 73
-1.019192 1.1383396 0.14101799 61
-0.99057823 1.1373017 0.027644612 38
-1.0003581 1.1396333 0.083528183 100
-1.0198348 1.144277 0.1411923 100
-0.98928672 1.1426771 0.027644612 43
-0.96994072 1.1379931 0.081958108 100
-1.0165825 1.1492856 0.14101799 87
-0.98797649 1.1480479 0.027644612 32
-0.98998171 1.1485407 0.083109498 100
-0.99977046 1.150947 0.13962349 87
-0.97888654 1.1514777 0.027504992 23
-0.97896177 1.1514964 0.082586139 66
-0.98683256 1.1534603 0.13857763 85
-0.96785313 1.1543578 0.027330469 34
-0.9911738 1.1602631 0.083318844 37
-0.99707323 1.161757 0.13962349 71
-0.96256083 1.1589224 0.027260659 50
-0.97812706 1.162925 0.082690813 39
-0.97633082 1.1624631 0.13788038 87
-0.96699888 1.165714 0.027365373 61
-0.96128541 1.1642237 0.081853434 88
-0.9865188 1.1708059 0.13892625 89
-0.96367508 1.1704955 0.027330469 71
-0.96955425 1.1720511 0.082376793 100
-0.96970147 1.1720901 0.13753176 94
-0.95647377 1.1742221 0.027225753 81
-0.95463842 1.1737297 0.081644088 98
-0.96444005 1.1763597 0.13718314 100
-0.94740647 1.177117 0.027086135 93
-0.95907313 1.1802889 0.081958108 100
-0.96885198 1.1829476 0.13770607 99
-0.9459762 1.1823413 0.027086135 93
-0.94222814 1.1813083 0.081120729 100
-0.96740121 1.1882468 0.13770607 92
-0.9483797 1.188637 0.027155945 92
-0.9369362 1.1854398 0.08091139 94
-0.96401316 1.1930048 0.13753176 94
-0.94690925 1.1938648 0.027155945 89
-0.93932039 1.191716 0.081120729 84
-0.95294231 1.1955731 0.1366602 100
-0.95695335 1.2023965 0.027365373 59
-0.93591946 1.1963612 0.081016064 54
-0.94187206 1.1980692 0.13578865 100
-0.94775397 1.2054212 0.027225753 45
-0.94209355 1.2037756 0.081434749 22
-0.95184773 1.2066114 0.13683452 89
-0.93279737 1.2066922 0.026981421 63
-0.92141122 1.203339 0.080388032 24
-0.95413703 1.2129769 0.13718314 84
-0.9274314 1.2107222 0.026911611 75
-0.9103201 1.2056179 0.079864666 27
-0.9430353 1.2153769 0.13631158 91
-0.92404753 1.2150412 0.026876707 78
-0.92225152 1.214499 0.080597371 54
-0.9339208 1.2180221 0.13561434 100
-0.91101116 1.2166759 0.026667276 81
-0.91687101 1.2184675 0.080388032 100
-0.92282122 1.2202866 0.13474278 100
-0.901802 1.2194078 0.026527658 88
-0.91529661 1.2235851 0.080388032 92
-0.92504698 1.2266033 0.13509139 87
-0.90404075 1.2256687 0.026597468 85
-0.89845747 1.223919 0.079550654 80
-0.92154294 1.2311536 0.1349171 57
-0.91006571 1.2331601 0.026737086 85
-0.89115292 1.2271606 0.079236634 74
-0.9180252 1.235685 0.13474278 45
-0.90082413 1.2358086 0.026597468 79
-0.90095824 1.2358518 0.079864666 82
-0.90311152 1.2365431 0.1335226 46
-0.89538568 1.2396343 0.026527658 92
-0.8974238 1.2402965 0.07976 100
-0.90336901 1.2422283 0.13369691 54
-0.88613898 1.2421784 0.026388038 99
-0.89767069 1.2459699 0.079864666 100
-0.90549725 1.2485431 0.13404553 73
-0.88068706 1.2459263 0.02631823 100
-0.89031488 1.2491291 0.079550654 100
-0.90759903 1.2548786 0.13439415 82
-0.88280755 1.252193 0.026388038 100
-0.8829549 1.2522426 0.079236634 100
-0.90967423 1.2612346 0.13474278 73
-0.88128561 1.2566919 0.026388038 100
-0.88143283 1.256742 0.079236634 100
-0.89680582 1.2619693 0.13369691 82
-0.87579614 1.2603843 0.02631823 96
-0.87972504 1.2617357 0.079236634 100
-0.89131159 1.2657207 0.13334829 100
-0.87021202 1.2642922 0.02624842 81
-0.87791306 1.2669725 0.079236634 100
-0.90077513 1.2749295 0.13439415 78
-0.868478 1.2692467 0.02624842 81
-0.86486584 1.2679753 0.07860861 74
-0.90652126 1.2826364 0.13509139 42
-0.86681455 1.2739477 0.02624842 88
-0.85944313 1.2713258 0.078399263 29
-0.89355022 1.2834574 0.13404553 33
-0.86504692 1.2788904 0.02624842 99
-0.85768455 1.2762426 0.078399263 21
-0.88050014 1.2844477 0.13299966 31
-0.85198587 1.279727 0.026038991 96
-0.86154002 1.2832006 0.078713275 65
-0.87869567 1.289438 0.13299966 18
-0.84269029 1.2818583 0.025899371 100
-0.85974008 1.2881247 0.078713275 100
-0.86939341 1.2916727 0.13230242 13
-0.84089512 1.2867167 0.025899371 100
-0.84107274 1.2867826 0.077771232 100
-0.86943144 1.2973179 0.13247673 1
-0.8390829 1.2915686 0.025899371 100
-0.83739048 1.2909331 0.077666558 48
-0.87131268 1.3036702 0.13282534 1
-0.84463996 1.2994955 0.026038991 92
-0.83360463 1.2953057 0.077561885 51
-0.84699517 1.3003896 0.13073361 5
-0.83344811 1.3007789 0.025864467 71
-0.84481567 1.3051403 0.07829459 57
-0.85629636 1.309545 0.13177948 35
-0.82431477 1.3022339 0.025724847 75
-0.84126514 1.3087983 0.078189917 68
-0.84716266 1.3110822 0.13108224 90
-0.82617301 1.3084853 0.025794657 88
-0.82077652 1.3063736 0.0771432 63
-0.85639781 1.320312 0.1321281 100
-0.82986397 1.3154912 0.025899371 99
-0.81703848 1.310421 0.077038527 81
-0.84149832 1.3200905 0.13090792 95
-0.82423729 1.3188212 0.025829561 100
-0.82627255 1.319634 0.077666558 91
-0.83031815 1.3212497 0.13003637 97
-0.81489521 1.3206223 0.025689943 100
-0.82064122 1.3229403 0.077457212 95
-0.82838553 1.3260646 0.13003637 100
-0.80555743 1.3223649 0.025550323 100
-0.82425147 1.3299825 0.077771232 97
-0.82274598 1.3293689 0.12968774 100
-0.79749662 1.3190804 0.17866045 21
-0.80362111 1.3270934 0.025550323 100
-0.80197197 1.3264146 0.076619841 100
-0.82446998 1.3356738 0.13003637 100
-0.78639323 1.320003 0.17744176 16
-0.80536133 1.3333499 0.025620133 100
-0.78526706 1.3249979 0.075782463 100
-0.82064718 1.3397036 0.12986206 100
-0.80829495 1.3345695 0.18061037 26
-0.80697483 1.3398623 0.025689943 100
-0.79611427 1.3353014 0.076515168 100
-0.80201715 1.3377804 0.12829325 100
-0.80072588 1.3372381 0.17987914 24
-0.79393142 1.3399115 0.025480513 100
-0.79964906 1.3423362 0.07682918 92
-0.80186123 1.3432741 0.12846756 100
-0.76949662 1.3295496 0.17597933 18
-0.79571098 1.3459386 0.025550323 64
-0.81610531 1.3546669 0.077875905 40
-0.80544776 1.3501058 0.1289905 56
-0.77493376 1.3370464 0.17695428 11
-0.81204873 1.3585646 0.025899371 71
-0.81222278 1.3586397 0.077771232 63
-0.83084863 1.3666884 0.13160518 30
-0.7674796 1.3393055 0.17622307 5
-0.80459052 1.3606801 0.025794657 100
-0.80110937 1.3591622 0.077247873 100
-0.81973082 1.3672823 0.13073361 90
-0.78196114 1.3508124 0.17841671 24
-0.80618078 1.3670163 0.025864467 100
-0.80087262 1.3646796 0.077352546 100
-0.82128459 1.3736653 0.13108224 100
-0.78719288 1.3586576 0.17939167 33
-0.79667455 1.3687334 0.025724847 100
-0.80598396 1.3728724 0.077771232 100
-0.79539555 1.3681648 0.12881619 100
-0.78502637 1.3635547 0.17939167 33
-0.78545445 1.3693367 0.025550323 100
-0.81480426 1.3825085 0.078399263 100
-0.80057031 1.3761206 0.12951343 100
-0.75759143 1.3568321 0.17597933 20
-0.79438967 1.3787109 0.025759751 100
-0.80184895 1.3820882 0.077771232 100
-0.81307298 1.3871703 0.13090792 100
-0.75925499 1.3628026 0.17646681 16
-0.80135053 1.3875558 0.025934275 100
-0.80333728 1.3884637 0.077980578 100
-0.8145346 1.3935808 0.13125655 100
-0.76259416 1.3698444 0.17719802 15
-0.80463427 1.3947816 0.026038991 100
-0.80842477 1.3965299 0.078399263 100
-0.80873114 1.3966712 0.13090792 100
-0.771308 1.379411 0.17866045 12
-0.79338044 1.3952872 0.025864467 100
-0.8080402 1.4021106 0.078503937 100
-0.79569751 1.3963656 0.12986206 100
-0.76377362 1.3815064 0.17792924 9
-0.79118961 1.3999727 0.025864467 100
-0.80944103 1.4085455 0.078713275 100
-0.80251974 1.4052945 0.13073361 100
-0.77420837 1.3919964 0.17963541 5
-0.79621035 1.4080763 0.026004085 100
-0.80178934 1.4107206 0.078399263 100
-0.805695 1.4125719 0.13125655 100
-0.77920431 1.4000158 0.18061037 3
-0.80130357 1.4159868 0.026143705 100
-0.79244941 1.4117541 0.077980578 100
-0.80715185 1.4187826 0.13160518 100
-0.80084163 1.4215686 0.02617861 100
-0.80819041 1.4251132 0.079027295 100
-0.80487889 1.423516 0.13160518 100
-0.79136664 1.4227798 0.026038991 100
-0.80769128 1.4307241 0.079131968 100
-0.7990064 1.4264977 0.13125655 100
-0.78907984 1.427458 0.026038991 100
-0.81434077 1.4398606 0.079655327 100
-0.80743736 1.4364712 0.13230242 100
-0.79036063 1.4339035 0.0261088 100
-0.80304545 1.4401865 0.079131968 100
-0.81224412 1.4447428 0.13299966 100
-0.79876786 1.4439411 0.02631823 100
-0.78997809 1.4395491 0.078503937 100
-0.81166285 1.4503844 0.13317397 100
-0.79997855 1.4504452 0.026388038 100
-0.80368429 1.4523131 0.07944598 100
-0.80572122 1.4533398 0.13282534 100
-0.79046494 1.4515282 0.02624842 100
-0.80485505 1.4588444 0.079655327 100
-0.80155164 1.457165 0.13265105 100
-0.78807777 1.4562031 0.02624842 100
-0.80777389 1.4663038 0.079969339 100
-0.80446333 1.464606 0.13317397 100
-0.79277903 1.4645445 0.026388038 100
-0.80001301 1.4682863 0.079655327 100
-0.81264848 1.4748219 0.13421984 100
-0.79034644 1.4692276 0.026388038 100
-0.79402572 1.4711469 0.07944598 100
-0.81371289 1.4814172 0.13456847 100
-0.79851574 1.4794884 0.026597468 100
-0.79333764 1.4767642 0.079550654 100
-0.80593151 1.4833901 0.13404553 100
-0.77861243 1.474355 0.02624842 50
-0.78934604 1.4800453 0.07944598 48
-0.79664236 1.4839134 0.13334829 93
0.15028766 1.2671418 0.011134636 12
0.13825977 1.2821016 0.03443706 27
0.098065168 1.3320935 0.063100755 19
0.13542846 1.2856231 0.12860526 17
0.20198995 1.2028372 0.12822211 8
0.10816547 1.3195313 0.1889379 6
0.15460706 1.2654775 0.011064826 38
0.16256344 1.2555071 0.032552965 29
0.15605164 1.2636672 0.055256739 49
0.1463508 1.2758236 0.07945881 14
0.15325487 1.267172 0.10074379 11
0.14466849 1.2779318 0.12631555 58
0.19993216 1.2086794 0.12957181 16
0.14030704 1.2833972 0.17599694 13
0.1587365 1.2636516 0.010995016 100
0.17534092 1.2427021 0.031610917 92
0.15521574 1.2680938 0.055605363 98
0.16159377 1.2600467 0.076777689 29
0.18189976 1.234427 0.093860678 26
0.15611085 1.2669644 0.12326261 100
0.19049469 1.2235827 0.13362093 31
0.14801162 1.2771831 0.17340876 42
0.16540858 1.2587285 0.010855397 100
0.17205274 1.2502853 0.032029606 100
0.15695682 1.2694688 0.055605363 98
0.15471354 1.2723196 0.078483857 28
0.17130727 1.2512326 0.096989371 25
0.1724171 1.2498223 0.1186832 100
0.18484947 1.2340236 0.13632034 45
0.16292587 1.2618835 0.16771474 37
0.17195702 1.2536989 0.010715778 100
0.16626805 1.2609779 0.032657638 88
0.15984219 1.2691996 0.055431053 100
0.16004872 1.2689353 0.077752642 28
0.17290518 1.2524858 0.096989371 25
0.18368208 1.2386969 0.11563025 100
0.19119039 1.2290902 0.13452072 31
0.15504208 1.2753413 0.17185585 36
0.16760427 1.2629817 0.010890301 91
0.18398389 1.2418652 0.031296901 62
0.16411677 1.2674776 0.055082429 100
0.17526346 1.2531074 0.075071514 30
0.16741177 1.2632298 0.098866582 36
0.18780899 1.2369338 0.11486702 60
0.18809786 1.2365614 0.13632034 30
0.14150432 1.2966294 0.17858514 40
0.17290229 1.2594945 0.010785587 65
0.18067509 1.249405 0.031715591 61
0.15968898 1.2766463 0.055953987 48
0.18898228 1.2386218 0.072634131 31
0.18592703 1.2425878 0.094486415 52
0.17498168 1.2567954 0.11944643 12
0.18488988 1.243934 0.13811995 22
0.14678985 1.29339 0.17703223 55
0.1626417 1.2768269 0.011134636 37
0.17766735 1.2571671 0.032134276 30
0.17373577 1.2623112 0.054210871 51
0.17149755 1.2652397 0.076533951 88
0.18294623 1.2502601 0.095737889 51
0.17804578 1.2566719 0.11906482 19
0.20209587 1.2252043 0.13227122 31
0.16639888 1.2719109 0.16926765 59
0.17883268 1.2589948 0.010715778 39
0.16720951 1.2743078 0.033180997 28
0.1717566 1.2683172 0.054733805 50
0.17914283 1.2585863 0.075315252 45
0.19887257 1.2325933 0.091983467 53
0.19984037 1.2313182 0.1125773 13
0.19889447 1.2325644 0.13407083 46
0.17857733 1.2593312 0.16460891 69
0.18535566 1.2538993 0.010576159 40
0.15454844 1.2947819 0.03443706 27
0.17949361 1.2616786 0.053862248 51
0.17607194 1.2662193 0.076290213 100
0.19097897 1.246437 0.094486415 52
0.19554523 1.2403774 0.1144854 13
0.20402959 1.2291182 0.13272113 39
0.18028769 1.2606248 0.16460891 69
0.18935862 1.2519039 0.010506349 54
0.19937149 1.2385243 0.03066887 32
0.17157596 1.2756658 0.055256739 49
0.19318166 1.2467954 0.073121607 62
0.19729516 1.2412988 0.093234941 53
0.19710699 1.2415502 0.1144854 13
0.21255967 1.2209017 0.13002171 40
0.17728671 1.2680349 0.16667947 67
0.18278143 1.2644602 0.010750682 92
0.2034727 1.2365994 0.030459527 32
0.18531099 1.2610542 0.053513627 52
0.19611514 1.2465063 0.072877869 47
0.2002027 1.2410024 0.092922069 79
0.20234931 1.2381121 0.11334054 13
0.21421456 1.2221354 0.13002171 32
0.18141824 1.2662958 0.16564418 68
0.17976302 1.2721772 0.010890301 78
0.20984438 1.2313758 0.03004084 33
0.18466267 1.2655315 0.053862248 77
0.2001366 1.2445432 0.072390392 95
0.20653784 1.2358607 0.091670595 81
0.20049036 1.2440634 0.1144854 13
0.22273338 1.2138937 0.1273223 32
0.19003126 1.2582498 0.16253836 70
0.19096646 1.2605572 0.010611063 81
0.19730183 1.2519009 0.031296901 62
0.18757135 1.265196 0.053687938 78
0.19710559 1.2521691 0.073365346 93
0.20699942 1.2386508 0.091983467 93
0.21026382 1.2341906 0.11181407 14
0.22083205 1.219751 0.128672 16
0.19630164 1.2532675 0.1604678 72
0.19738257 1.2553363 0.010471444 82
0.20133406 1.2498975 0.031087559 63
0.18344662 1.2745174 0.054559495 100
0.20462486 1.2453681 0.072146654 79
0.20631522 1.2430415 0.092609204 93
0.21419418 1.232197 0.11105084 14
0.22125852 1.2224739 0.1291219 8
0.19344863 1.2607508 0.16253836 70
0.19899395 1.2565029 0.010471444 82
0.20993894 1.2413329 0.030459527 65
0.19444764 1.2628042 0.053165004 100
0.20388016 1.2497305 0.072634131 78
0.20557418 1.2473825 0.093234941 92
0.2203235 1.2269397 0.10952436 14
0.23530307 1.2061776 0.12417299 16
0.19394767 1.2634971 0.163056 70
0.20302299 1.2544737 0.010401634 97
0.21623802 1.236022 0.03004084 66
0.18688923 1.2770008 0.054559495 100
0.20324516 1.2541635 0.073121607 62
0.21414381 1.238946 0.09135773 94
0.20591667 1.2504333 0.11486702 13
0.23455817 1.2104421 0.12507279 16
0.18779853 1.2757311 0.16667947 67
0.20231357 1.2588809 0.010471444 96
0.22357294 1.2289881 0.029517479 100
0.19781026 1.2652129 0.053165004 100
0.19449818 1.26987 0.075315252 100
0.21570075 1.2400572 0.09135773 100
0.2029604 1.2579713 0.11639348 19
0.23150277 1.217838 0.12687239 16
0.20403284 1.2564634 0.15995017 72
0.20632872 1.2568243 0.010401634 97
0.21365857 1.2464412 0.030564198 97
0.20183912 1.263184 0.05281638 100
0.20654875 1.2565125 0.073121607 78
0.21506512 1.2444488 0.091983467 93
0.20693034 1.255972 0.11563025 54
0.22969633 1.2237231 0.12822211 24
0.20796126 1.2545116 0.15891489 73
0.21491545 1.2481949 0.010192205 99
0.2222006 1.2377985 0.029936166 99
0.20356277 1.2643962 0.05281638 100
0.21508411 1.2479542 0.071659178 80
0.22012407 1.2407618 0.091044858 100
0.20862877 1.2571666 0.11563025 100
0.23016375 1.2264342 0.128672 56
0.20522016 1.2620311 0.16098544 72
0.20973575 1.2592117 0.010401634 97
0.21813336 1.247138 0.030459527 97
0.204153 1.2672381 0.05299069 79
0.22128847 1.2426018 0.070684217 81
0.21951348 1.2451538 0.091670595 100
0.21369445 1.25352 0.1144854 100
0.22953349 1.2307476 0.12957181 88
0.20142433 1.2711613 0.16357364 69
0.21135989 1.2603374 0.010401634 97
0.22652736 1.2383754 0.029831495 99
0.19561377 1.2831371 0.054559495 100
0.21608904 1.2534897 0.072146654 63
0.22670373 1.2381201 0.090106249 96
0.22087803 1.2465554 0.1125773 89
0.22995573 1.2334113 0.13002171 96
0.20638162 1.2675457 0.16202073 70
0.20855105 1.2681139 0.010541254 95
0.22251803 1.2477386 0.030354854 97
0.20416608 1.2745109 0.053513627 100
0.215534 1.2579269 0.072634131 63
0.23169038 1.2343577 0.089167647 100
0.21255332 1.2622753 0.11601187 100
0.22937167 1.2377403 0.13092151 96
0.20702821 1.2703354 0.16253836 70
0.2181659 1.2577295 0.010296919 84
0.22306415 1.25053 0.030459527 65
0.21601602 1.2608894 0.051944822 81
0.20942271 1.2705803 0.074340299 100
0.23109087 1.2387325 0.089793384 100
0.22642174 1.2455951 0.11181407 100
0.23210254 1.2372454 0.13047162 88
0.21855706 1.2571546 0.15787962 81
0.2221086 1.2555704 0.01022711 42
0.23256755 1.2400818 0.029726824 33
0.21327162 1.268657 0.05264207 53
0.21894851 1.2602501 0.072634131 63
0.23272899 1.2398428 0.089793384 100
0.23028123 1.2434676 0.11105084 98
0.22937319 1.2448124 0.13227122 94
0.21809736 1.2615106 0.15891489 73
0.21507376 1.270118 0.010506349 40
0.22770673 1.2512542 0.030354854 32
0.20964557 1.2782235 0.053513627 52
0.23408842 1.241725 0.069709264 99
0.22574195 1.2541881 0.092296332 100
0.23319399 1.2430606 0.11066922 100
0.23662049 1.237944 0.13002171 96
0.21783713 1.2659917 0.15995017 72
0.21903536 1.2679533 0.010436539 27
0.23159972 1.2490495 0.030145511 32
0.21142167 1.2794085 0.053513627 52
0.23793459 1.2395184 0.069221787 100
0.23946193 1.2372204 0.088854775 98
0.23376048 1.2457986 0.11105084 98
0.23825583 1.2390351 0.13002171 96
0.21957049 1.2671481 0.15995017 72
0.22178981 1.267379 0.010401634 27
0.20458913 1.2934453 0.032866981 29
0.23286512 1.2505951 0.05037602 56
0.2296533 1.2554624 0.071415432 96
0.24210098 1.2365988 0.08854191 98
0.22885218 1.2566764 0.11334054 96
0.24088624 1.2384398 0.12957181 96
0.22547695 1.2617915 0.15787962 73
0.22791016 1.2618301 0.010262015 28
0.21079525 1.2879646 0.032448292 29
0.22690386 1.2633667 0.051596198 54
0.23461246 1.2515957 0.070684217 81
0.25130713 1.2261029 0.086351827 100
0.23593086 1.2495825 0.11143246 91
0.2393204 1.2444067 0.13092151 96
0.22719559 1.2629212 0.15787962 73
0.22845292 1.2645719 0.010296919 28
0.23646531 1.252248 0.030145511 32
0.23071373 1.2610946 0.051247578 55
0.24053934 1.2459818 0.069709264 66
0.23990047 1.2469645 0.090106249 96
0.24287358 1.2423916 0.10952436 85
0.24620637 1.2372653 0.128672 97
0.22777894 1.2656085 0.15839726 73
0.24102259 1.2488883 0.0099478718 43
0.24681306 1.2399135 0.029308135 34
0.22162819 1.2789478 0.05299069 52
0.24866 1.2370509 0.068246834 68
0.24478012 1.2430644 0.089167647 84
0.24346003 1.2451104 0.10990598 92
0.24889579 1.2366855 0.12822211 97
0.23160562 1.2634838 0.15736198 74
0.24700913 1.2432275 0.0098082526 59
0.24737826 1.242651 0.029412808 67
0.22985268 1.2700233 0.051944822 54
0.24494022 1.2464589 0.069465525 66
0.25495446 1.230818 0.086664692 71
0.24723756 1.2428708 0.10914274 85
0.26103449 1.2213219 0.12372308 83
0.22812176 1.2727269 0.15995017 72
0.24008384 1.257785 0.010087491 57
0.2479589 1.2453902 0.029517479 67
0.24014768 1.2576845 0.05055033 56
0.24447614 1.2508719 0.069953002 49
0.25868347 1.2285106 0.086038955 72
0.23730889 1.2621526 0.11334054 96
0.26156661 1.2239727 0.12417299 75
0.22780657 1.2771084 0.16098544 64
0.24827084 1.2487671 0.0098780617 73
0.24437892 1.2549425 0.03004084 99
0.23875037 1.2638736 0.051073264 83
0.24412391 1.2553473 0.070440479 65
0.25404665 1.2396023 0.087916173 70
0.25376934 1.2400423 0.10799789 79
0.25803739 1.23327 0.12642249 99
0.23584741 1.2684798 0.15787962 65
0.242522 1.2616856 0.010122396 85
0.24607354 1.2560065 0.03004084 99
0.242589 1.2615786 0.05072464 84
0.24792498 1.2530458 0.069953002 49
0.25778243 1.2372829 0.087290429 71
0.25124809 1.2477318 0.10952436 85
0.25862303 1.2359387 0.12687239 99
0.23758936 1.2695735 0.15787962 65
0.24934289 1.2541553 0.0099478718 73
0.2560311 1.2433851 0.029203463 100
0.23362401 1.2794677 0.052467756 80
0.25468019 1.2455604 0.068734311 50
0.25925189 1.2381985 0.087290429 71
0.25689328 1.2419966 0.10799789 79
0.26420048 1.2302297 0.12507279 100
0.23508376 1.277117 0.15995017 64
0.24578974 1.2637141 0.010122396 85
0.25558987 1.2478091 0.029412808 100
0.23435915 1.2822652 0.05264207 79
0.25321797 1.2516586 0.069465525 49
0.26606917 1.2308018 0.08572609 58
0.25133345 1.254717 0.11066922 85
0.26989779 1.2245882 0.12327318 100
0.23280221 1.2847919 0.16202073 63
0.24125665 1.2750096 0.010331824 84
0.26559377 1.2352016 0.028575432 100
0.24550238 1.268065 0.051073264 100
0.25697196 1.2493043 0.068978049 50
0.26767942 1.2317901 0.08572609 58
0.25507531 1.2524066 0.10990598 92
0.26843688 1.2305511 0.12462288 92
0.24669307 1.2661173 0.15580906 67
0.25131807 1.2624063 0.010052586 86
0.25893274 1.2498528 0.029412808 100
0.25240931 1.2606074 0.050201707 85
0.25452876 1.2571132 0.069953002 49
0.26621965 1.2378397 0.086664692 57
0.26388836 1.241683 0.10723466 81
0.27105689 1.229865 0.12417299 83
0.25043049 1.2638695 0.15477379 67
0.2592254 1.2531658 0.0098431576 88
0.25957966 1.2525772 0.029517479 100
0.24795958 1.2718856 0.051247578 82
0.26032522 1.2513382 0.068978049 100
0.26785445 1.2388273 0.086664692 57
0.26047495 1.2510895 0.10914274 78
0.26864445 1.2375146 0.12597258 82
0.250164 1.2682227 0.15580906 67
0.25886348 1.2576118 0.0099129668 87
0.26024204 1.2553028 0.029622151 100
0.25890577 1.2575409 0.049678773 86
0.26200718 1.2523465 0.068978049 50
0.26746735 1.2432015 0.087290429 71
0.26215604 1.2520971 0.10914274 85
0.27427414 1.2318012 0.12417299 83
0.24992424 1.2725837 0.15684435 66
0.26269028 1.2552342 0.0098431576 88
0.27016342 1.2426128 0.028784776 100
0.2495285 1.277463 0.051596198 82
0.26782256 1.2465663 0.068003096 51
0.27322939 1.2374349 0.086038955 58
0.2629247 1.2548382 0.10952436 78
0.2809329 1.2244244 0.12192347 85
0.26167145 1.2569549 -0.0098780617 87
0.24979979 1.2770047 0.15787962 65
0.26134735 1.2614068 0.0099478718 73
0.26979169 1.2470311 0.028994121 100
0.25331992 1.2750728 0.051247578 100
0.26747698 1.2509717 0.068490572 50
0.27886471 1.231585 0.084787481 73
0.2656132 1.2541445 0.10914274 78
0.28350779 1.2236805 0.12147357 77
0.26134735 1.2614068 -0.0099478718 86
0.25939903 1.2647237 0.15373851 68
0.26499268 1.2589061 0.0098780617 88
0.26433405 1.260036 0.029726824 100
0.26101691 1.2657263 0.050201707 85
0.26707402 1.2553358 0.068978049 50
0.27343294 1.2444276 0.086977564 57
0.26623151 1.2567811 0.10952436 85
0.28206941 1.2296125 0.12282328 76
0.26298705 1.2623467 0.15270324 68
0.27470949 1.2460494 0.0095988233 61
0.26704618 1.2593012 0.029622151 100
0.26075429 1.2701815 0.05055033 84
0.27671984 1.2425729 0.067028143 51
0.27014628 1.2539403 0.08854191 56
0.2748121 1.2458719 0.10685304 81
0.2817243 1.2339189 0.12372308 83
0.26469892 1.2633603 -0.0099478718 86
0.26277322 1.2666903 0.15373851 68
0.27446672 1.2505246 0.0096686333 60
0.28076339 1.2395434 0.028366089 100
0.26457164 1.2677815 0.050201707 85
0.27845374 1.2435714 0.067028143 51
0.28076538 1.2395399 0.08572609 58
0.27655813 1.2468773 0.10685304 81
0.28536516 1.231518 0.12282328 85
0.2645956 1.2677397 0.15373851 68
0.27614576 1.2514834 0.0096686333 75
0.28339148 1.2387443 0.028261416 100
0.25941572 1.2808979 0.051421888 82
0.27127564 1.260046 0.069221787 33
0.28338262 1.2387598 0.085413218 58
0.27434188 1.254655 0.10837951 87
0.28794122 1.230745 0.12237337 85
0.26060417 1.2788084 0.15684435 66
0.27282953 1.2610964 0.0098431576 88
0.27807561 1.2518013 0.028994121 100
0.26894578 1.2679777 0.050027397 85
0.27778071 1.2523237 0.068003096 51
0.28979316 1.2310399 0.083848871 59
0.27595058 1.2555665 0.10837951 79
0.29330188 1.224823 0.12057377 77
0.26988927 1.266306 0.15270324 68
0.27649906 1.258571 0.0097733475 89
0.28561267 1.2422909 0.028366089 100
0.27457866 1.2620016 0.049330149 87
0.27752668 1.2567353 0.068490572 50
0.28754443 1.2388401 0.085100345 58
0.28148314 1.2496676 0.10685304 81
0.29298726 1.2291172 0.12147357 86
0.27747583 1.2568262 -0.0097384425 88
0.27539799 1.260538 0.15063268 70
0.28208894 1.2525296 0.0096337283 90
0.27756777 1.2606726 0.029412808 100
0.27339628 1.2681857 0.049853086 85
0.28115457 1.2542124 0.068003096 51
0.28630593 1.2449344 0.086038955 58
0.28315914 1.250602 0.10685304 95
0.28796974 1.2419378 0.12462288 83
0.27336091 1.2682495 0.15270324 68
0.28666866 1.2482069 0.0095290141 76
0.28506267 1.2511233 0.028784776 100
0.27225378 1.274384 0.05037602 84
0.28667659 1.2481924 0.067028143 51
0.29082394 1.2406609 0.085100345 58
0.2895734 1.2429318 0.10494494 75
0.29807875 1.2274863 0.12057377 77
0.27416995 1.2709043 0.15322088 76
0.2786682 1.2666261 0.0098780617 73
0.2943204 1.2379774 0.0279474 100
0.27583846 1.2718054 0.050027397 85
0.28636023 1.252547 0.067515619 51
0.29428035 1.2380507 0.084474608 59
0.28549534 1.2541301 0.10723466 73
0.27675879 1.2701209 0.15270324 68
0.28135604 1.2658119 0.0098431576 88
0.2911981 1.2476473 0.02847076 100
0.27759176 1.2727594 0.050027397 85
0.28331783 1.2621913 0.068734311 50
0.29967991 1.2319932 0.083223134 60
0.28905743 1.2515981 0.10647142 81
0.29841349 1.2343305 0.12192347 85
0.27849811 1.2710866 -0.0099478718 86
0.28034684 1.2676746 0.15166797 69
0.29160684 1.2508931 0.0095290141 76
0.29286698 1.2485478 0.02847076 100
0.28689265 1.2596666 0.048632905 88
0.2869167 1.2596219 0.068246834 51
0.29755417 1.2398245 0.084474608 59
0.29074013 1.2525061 0.10647142 73
0.28391445 1.2652093 0.15063268 70
0.29046601 1.2570865 0.0096337283 100
0.29078221 1.2564931 0.028889447 100
0.28766662 1.2623403 0.048807215 88
0.28956088 1.2587852 0.068003096 51
0.2982668 1.2424462 0.084787481 59
0.2998116 1.239547 0.10341848 76
0.28200296 1.2729697 -0.0099478718 96
0.28746155 1.2627252 0.14959741 70
0.29131916 1.2598027 0.0096686333 90
0.29629797 1.2503755 0.02847076 100
0.28947291 1.2632985 0.048807215 88
0.29877049 1.2456939 0.066053182 52
0.29786688 1.2474048 0.10494494 75
0.28475833 1.2722254 0.1521856 77
0.29303047 1.2607027 0.0096686333 90
0.28749922 1.271265 0.049504463 86
0.29771328 1.2517605 0.10570818 66
0.28931972 1.2677886 -0.0098082526 88
0.28561682 1.2748597 0.15270324 68
0.2956664 1.259822 0.0096337283 90
0.29659563 1.2580324 0.048109971 59
0.29477939 1.2615303 0.068003096 51
0.29951391 1.2565575 0.028680105 100
0.29830071 1.258914 0.048109971 59
0.29831395 1.2588882 0.067515619 68
0.29799026 1.259517 0.14752686 71
0.29961494 1.26035 0.14752686 71
0.29803497 1.2677263 0.048807215 58
0.29696545 1.2698389 0.15011504 78
0.29888022 1.2703835 0.048981529 58
0.29881829 1.2793461 -0.0099129668 100
0.29990026 1.2864357 0.050201707 28
