# .PCD v0.7 - Point Cloud Data file format
VERSION 0.7
FIELDS x y z intensity
SIZE 4 4 4 4
TYPE F F F F
COUNT 1 1 1 1
WIDTH 712
HEIGHT 1
VIEWPOINT 0 0 0 1 0 0 0
POINTS 712
DATA ascii
-1.1080106 0.1525667 0.058616269 27
-1.1430968 0.16126217 0.060500365 30
-1.1083248 0.16010696 0.019546695 5
-1.0365728 0.15325262 0.018290121 6
-1.0300728 0.15615167 0.018185407 4
-1.061167 0.16446698 0.018743884 1
-0.58651054 1.4236864 0.026876707 27
-1.0599959 1.139034 0.028831376 6
-1.0035248 1.12609 0.083528183 5
-1.0269253 1.1314538 0.14154093 6
-1.0255251 1.1372159 0.028237993 10
-0.99637371 1.1304215 0.083214171 28
-1.0197687 1.1358743 0.14101799 40
-0.98920733 1.1344205 0.027609708 28
-0.99316269 1.135357 0.083109498 88
-1.0087881 1.1390564 0.14014643 81
-0.97243553 1.1357855 0.027330469 42
-1.0094206 1.1446717 0.084051549 100
-1.0075557 1.1442236 0.14014643 86
-0.98474842 1.1444151 0.027574802 41
-0.98675936 1.1449057 0.082900152 100
-1.0120468 1.1510748 0.14066938 91
-0.98149115 1.1492894 0.027539898 23
-0.97574788 1.147867 0.082376793 100
-1.006839 1.155567 0.14032075 87
-0.98209721 1.1551205 0.027574802 23
-0.98216754 1.1551381 0.082795486 41
-0.99582237 1.1585705 0.13944919 78
-0.96717995 1.1570063 0.027330469 41
-0.97694331 1.1594968 0.082586139 36
-0.97322029 1.1585472 0.13753176 73
-0.95807618 1.1602958 0.027190849 63
-0.99104279 1.1688278 0.083423518 65
-0.98342782 1.1668569 0.13857763 91
-0.9605729 1.1665732 0.027260659 67
-0.97032326 1.1691329 0.082376793 100
-0.98396021 1.172713 0.13875194 91
-0.95724708 1.1713291 0.027225753 78
-0.95348066 1.1703262 0.081539422 92
-0.97676927 1.1765273 0.13822901 100
-0.9636305 1.1784089 0.027365373 81
-0.95021659 1.1747894 0.081434749 96
-0.96002394 1.1774358 0.13683452 100
-0.95062274 1.1805239 0.027155945 93
-0.95650035 1.1821319 0.081853434 100
-0.96051437 1.1832299 0.13700883 99
-0.93761879 1.1825532 0.026946515 96
-0.95505255 1.1873879 0.081853434 98
-0.96290249 1.1895649 0.13735744 91
-0.94001979 1.1888256 0.027016325 92
-0.93628174 1.1877749 0.08091139 86
-0.95951074 1.1943043 0.13718314 98
-0.95585746 1.1989548 0.027330469 70
-0.92905182 1.191319 0.080597371 76
-0.95993656 1.2001168 0.13735744 99
-0.97548491 1.2103086 0.027714422 46
-0.93524784 1.1986947 0.081016064 42
-0.95076901 1.2031747 0.1366602 99
-0.93171364 1.2032833 0.026946515 48
-0.92415744 1.2010738 0.080492698 22
-0.94733554 1.2078515 0.13648589 84
-0.92635745 1.207317 0.026876707 75
-0.92072874 1.2056496 0.080388032 26
-0.94197732 1.2119439 0.13613728 89
-0.91922969 1.2102311 0.026771991 75
-0.92317933 1.2114145 0.080597371 32
-0.93485588 1.2149131 0.13561434 99
-0.92151111 1.2165182 0.026841801 75
-0.91016227 1.2130744 0.079969339 88
-0.93138725 1.2195151 0.13544002 98
-0.91612047 1.2204773 0.026771991 83
-0.90669757 1.2175821 0.079864666 100
-0.92219108 1.2223426 0.13474278 98
-0.90881079 1.2238104 0.026667276 89
-0.91275483 1.2250373 0.080283359 84
-0.91679817 1.2262951 0.13439415 75
-0.89958841 1.2264972 0.026527658 88
-0.9149676 1.2313404 0.080492698 66
-0.90759498 1.2290186 0.13369691 49
-0.89417559 1.2303398 0.026457848 85
-0.90193075 1.2328118 0.079864666 76
-0.90788203 1.2347088 0.13387123 43
-0.90009075 1.2380871 0.026597468 85
-0.89642328 1.2369032 0.079655327 95
-0.91185719 1.2418852 0.13439415 45
-0.89844793 1.2431459 0.026597468 99
-0.89668328 1.2425694 0.07976 100
-0.91020113 1.2469852 0.13439415 63
-0.88547832 1.2441832 0.026388038 99
-0.89890116 1.2486172 0.079969339 100
-0.90482765 1.2505749 0.13404553 78
-0.87243479 1.245388 0.02617861 99
-0.89722162 1.2536719 0.079969339 100
-0.90314132 1.2556503 0.13404553 82
-0.87825984 1.2531614 0.02631823 99
-0.88030368 1.2538528 0.079131968 100
-0.90135151 1.2609731 0.13404553 78
-0.87278062 1.2568493 0.02624842 92
-0.87671632 1.258196 0.079027295 100
-0.90339905 1.2673264 0.13439415 91
-0.874852 1.2631208 0.02631823 93
-0.87877828 1.2644796 0.079236634 100
-0.88659161 1.2671837 0.13299966 93
-0.86179739 1.2641279 0.0261088 79
-0.86761791 1.266165 0.078713275 91
-0.89048892 1.2741698 0.1335226 60
-0.86203629 1.2694737 0.026143705 74
-0.86973065 1.2721953 0.078922622 55
-0.88880914 1.2789439 0.1335226 41
-0.86404997 1.2757463 0.026213514 88
-0.86044663 1.2744576 0.078503937 19
-0.89452785 1.2866471 0.13421984 40
-0.85654563 1.2788848 0.0261088 96
-0.84919757 1.2762263 0.077980578 51
-0.87201566 1.2844818 0.13230242 24
-0.85476071 1.2837914 0.0261088 96
-0.85680073 1.2845376 0.078503937 85
-0.86459762 1.2873893 0.13177948 15
-0.84563619 1.2854309 0.025969181 100
-0.85705084 1.2896465 0.07860861 100
-0.8610962 1.2911406 0.13160518 7
-0.83633488 1.2875022 0.025829561 100
-0.8458727 1.2910626 0.078085244 82
-0.87233454 1.3009404 0.13282534 1
-0.83059615 1.2914084 0.025759751 100
-0.82704562 1.2900676 0.0771432 44
-0.86282986 1.3035822 0.1321281 1
-0.83624059 1.2990766 0.025899371 77
-0.83268577 1.2977198 0.077561885 53
-0.8479287 1.3035376 0.13090792 13
-0.84016961 1.3055856 0.026004085 71
-0.83474845 1.3034971 0.077771232 68
-0.85182327 1.3100755 0.13143086 52
-0.82897431 1.306808 0.025829561 78
-0.83473903 1.309052 0.077875905 72
-0.84992951 1.3149655 0.13143086 100
-0.81592637 1.3072267 0.025620133 96
-0.83470756 1.3146135 0.077980578 63
-0.83874804 1.3162026 0.1305593 100
-0.81775957 1.3134682 0.025689943 100
-0.81609315 1.3128061 0.077038527 90
-0.83498138 1.3203112 0.130385 99
-0.81966168 1.31949 0.025759751 100
-0.8142857 1.3173332 0.077038527 96
-0.84239453 1.3286102 0.13125655 100
-0.82144183 1.3257698 0.025829561 100
-0.81421787 1.3228424 0.0771432 97
-0.82751042 1.328229 0.13003637 100
-0.79118925 1.3135101 0.1776855 15
-0.80468816 1.3244936 0.025550323 100
-0.81597656 1.3291141 0.077352546 97
-0.82186562 1.3315246 0.12968774 100
-0.80398113 1.3242042 0.17963541 19
-0.79535228 1.3261631 0.025410704 100
-0.81770808 1.3354049 0.077561885 97
-0.81253213 1.3332652 0.1289905 100
-0.7781896 1.3190682 0.17646681 16
-0.79699522 1.3326318 0.025480513 100
-0.79351121 1.3311765 0.076305822 100
-0.82332772 1.3436307 0.13021068 100
-0.76151448 1.3178117 0.1745169 16
-0.80239302 1.3404388 0.025620133 100
-0.78786367 1.3343104 0.076096483 99
-0.81580967 1.3460979 0.12968774 100
-0.77605563 1.3293297 0.17671055 26
-0.80785364 1.3480536 0.025759751 88
-0.79149801 1.3410907 0.076410495 72
-0.79189354 1.3412591 0.12759601 100
-0.7650612 1.3298364 0.17549185 18
-0.80950195 1.3543692 0.025829561 60
-0.82435995 1.3607557 0.078399263 51
-0.80270439 1.3514473 0.12881619 28
-0.80504519 1.3524535 0.18109785 5
-0.79828185 1.3551307 0.025655037 90
-0.81312865 1.3615739 0.077875905 100
-0.82625431 1.3672702 0.13125655 61
-0.78843576 1.3508577 0.17914793 14
-0.79073626 1.357426 0.025550323 100
-0.8055672 1.363924 0.077561885 100
-0.82051116 1.3704715 0.13090792 100
-0.7736724 1.3499497 0.17744176 35
-0.79599279 1.3653381 0.025689943 100
-0.79617947 1.3654206 0.0771432 100
-0.82387322 1.3776696 0.13143086 100
-0.77890176 1.3577785 0.17841671 36
-0.80668825 1.3757396 0.025934275 100
-0.80138785 1.373373 0.077561885 100
-0.80537003 1.3751512 0.12986206 100
-0.79496819 1.3705068 0.18085411 38
-0.79373258 1.3753073 0.025724847 100
-0.81394774 1.3844137 0.078399263 100
-0.80698901 1.381279 0.13021068 100
-0.7676304 1.3635492 0.17744176 18
-0.78979105 1.3791665 0.025689943 100
-0.8117947 1.3891709 0.078399263 100
-0.80121952 1.3843627 0.12986206 100
-0.76916462 1.3697882 0.17792924 16
-0.79118401 1.3857417 0.025759751 100
-0.80770105 1.3933247 0.07829459 100
-0.8134442 1.3959614 0.13125655 100
-0.77056545 1.3762757 0.17841671 15
-0.80354172 1.3971449 0.026038991 100
-0.79826826 1.3947015 0.077875905 100
-0.81486636 1.4023921 0.13160518 100
-0.76844114 1.3808815 0.17841671 10
-0.79953283 1.4010189 0.026004085 100
-0.80512565 1.403634 0.078399263 100
-0.79821199 1.4004012 0.13021068 100
-0.77349371 1.3888433 0.17939167 7
-0.79551345 1.4048724 0.025969181 100
-0.81013077 1.4117695 0.078817949 100
-0.79239947 1.403403 0.12986206 100
-0.77491599 1.3951536 0.17987914 3
-0.78426164 1.4052671 0.025794657 100
-0.80427569 1.4147961 0.07860861 100
-0.80637044 1.4157934 0.13143086 100
-0.77989501 1.403188 0.18085411 1
-0.78924602 1.4133844 0.025934275 100
-0.80021638 1.4186547 0.078503937 100
-0.8130874 1.4248381 0.13230242 100
-0.80330151 1.4256691 0.02624842 100
-0.7944631 1.421387 0.07829459 100
-0.81449443 1.431092 0.13265105 100
-0.80459768 1.4321454 0.02631823 100
-0.79756421 1.4287074 0.07860861 100
-0.81217843 1.4358509 0.13265105 100
-0.79151732 1.4315631 0.0261088 100
-0.79704803 1.4342905 0.078713275 100
-0.80269819 1.4370769 0.13195379 100
-0.78919977 1.4362419 0.0261088 100
-0.80902654 1.4461055 0.079550654 100
-0.81106442 1.4471194 0.13299966 100
-0.7904405 1.4427063 0.02617861 100
-0.80308801 1.4490535 0.079341307 100
-0.80869251 1.4518661 0.13299966 100
-0.79878885 1.4528003 0.026388038 100
-0.79536361 1.4510663 0.079027295 100
-0.81163687 1.4593043 0.1335226 100
-0.80732471 1.462487 0.026597468 100
-0.80567104 1.4616432 0.07976 100
-0.80414039 1.4608624 0.13299966 100
-0.78711838 1.4580708 0.02624842 100
-0.8014726 1.4654573 0.079655327 100
-0.80349225 1.4664966 0.13317397 100
-0.78458744 1.4629669 0.02624842 100
-0.80068702 1.4713264 0.07976 100
-0.80446678 1.473289 0.1335226 100
-0.78924638 1.4713321 0.026388038 100
-0.7946921 1.4741838 0.079550654 100
-0.81259376 1.4835584 0.13456847 100
-0.79386312 1.479738 0.026527658 88
-0.78339535 1.4742098 0.079027295 100
-0.81185645 1.4892409 0.13474278 100
-0.80230337 1.4902439 0.13404553 42
0.12352577 1.2987242 0.13203983 5
0.16124302 1.2554216 0.010855397 13
0.13799518 1.2844501 0.03454173 27
0.13401788 1.2894163 0.058220036 22
0.1375699 1.284981 0.10449822 11
0.15237331 1.2664968 0.12364423 24
0.14786491 1.2721262 0.17237349 7
0.15663069 1.264533 0.011029921 76
0.17575979 1.2404845 0.031506244 93
0.15186641 1.2705225 0.055953987 48
0.15703183 1.2640287 0.077508904 29
0.15526602 1.2662486 0.10043093 23
0.16135487 1.2585939 0.12135452 87
0.19091672 1.2214296 0.13317102 23
0.15434265 1.2674094 0.17030293 21
0.15959868 1.2643337 0.010995016 100
0.17492864 1.2449226 0.031715591 100
0.14991146 1.2765999 0.056476921 100
0.16367999 1.259166 0.076533951 14
0.17291653 1.2474705 0.096363634 25
0.15819559 1.2661104 0.122881 100
0.18887132 1.2272682 0.13452072 46
0.15248939 1.2733357 0.17185585 29
0.16132662 1.2656935 0.010995016 100
0.17289159 1.2509441 0.032029606 100
0.15414104 1.2748576 0.056128297 100
0.17273909 1.2511387 0.075071514 30
0.18433651 1.2363479 0.093860678 26
0.16962093 1.2551154 0.11982805 100
0.19407701 1.2239254 0.13317102 46
0.15901688 1.2686393 0.16978529 36
0.17165795 1.2560017 0.010750682 100
0.16843826 1.2601377 0.032552965 88
0.15835351 1.273092 0.055779677 98
0.16832379 1.2602847 0.076290213 29
0.18596661 1.2376214 0.093860678 39
0.1785526 1.2471452 0.11753834 100
0.18848118 1.2343913 0.13587044 30
0.14770603 1.2867694 0.17547931 42
0.17580247 1.254155 0.010680873 80
0.16770872 1.2646271 0.032762308 58
0.16742241 1.2649975 0.054733805 50
0.1688236 1.2631847 0.076533951 44
0.1706892 1.2607708 0.098240845 24
0.18057075 1.2479856 0.13946965 22
0.15069374 1.286642 0.17496167 35
0.17627743 1.2570448 0.010715778 53
0.18281201 1.2485287 0.031610917 30
0.16793972 1.2679107 0.054908119 50
0.16692212 1.2692368 0.077265166 100
0.18924007 1.2401515 0.093860678 52
0.17830727 1.2543994 0.1186832 13
0.19884995 1.2276276 0.13317102 23
0.1560277 1.2834346 0.17340876 57
0.18040338 1.2551649 0.010645968 53
0.17722273 1.25934 0.032238949 30
0.17450953 1.2629017 0.054210871 51
0.18911713 1.2437265 0.073121607 62
0.19447458 1.2366939 0.092922069 53
0.18951806 1.2432002 0.11563025 13
0.20517313 1.2226499 0.13137141 47
0.17187047 1.266366 0.16719711 60
0.17003685 1.2724013 0.010995016 38
0.1861617 1.2510805 0.031610917 30
0.17503056 1.2657984 0.054385185 51
0.17879871 1.2608161 0.07555899 60
0.20206362 1.2300544 0.09135773 54
0.18406653 1.2538507 0.11791996 13
0.20205331 1.230068 0.13317102 38
0.17826664 1.2615196 0.16512655 68
0.18379945 1.2577333 0.010645968 53
0.17824966 1.265125 0.032448292 29
0.17915604 1.2639178 0.054036561 51
0.18289801 1.2589339 0.075071514 75
0.19655529 1.2407441 0.093234941 53
0.20579696 1.2284354 0.11143246 14
0.20366138 1.2312797 0.13317102 38
0.18114457 1.2612693 0.16460891 69
0.19028446 1.2525954 0.010506349 68
0.20146525 1.2375953 0.030564198 32
0.18207309 1.2636118 0.053862248 51
0.19291136 1.2490711 0.073365346 62
0.19229797 1.2498941 0.094799288 64
0.20622599 1.2312082 0.11181407 14
0.20760289 1.2293609 0.13227122 31
0.18517071 1.259456 0.16357364 69
0.18364498 1.2651004 0.010750682 79
0.19597149 1.2484421 0.03119223 31
0.17668766 1.2745028 0.054908119 75
0.20048967 1.242336 0.072146654 79
0.1986753 1.2447881 0.093547814 78
0.21134135 1.2276709 0.11066922 14
0.21152675 1.2274203 0.13137141 31
0.18458322 1.2638324 0.16460891 69
0.18520218 1.2662489 0.010750682 92
0.20575705 1.2382873 0.030459527 65
0.18063459 1.2724624 0.054559495 76
0.19492075 1.2530284 0.073609084 77
0.21069866 1.231565 0.090731993 100
0.2058039 1.2382236 0.11295892 13
0.22219926 1.2159203 0.1277722 24
0.18041533 1.2727606 0.16719711 75
0.18222153 1.2739806 0.010890301 78
0.20503908 1.2427127 0.03066887 64
0.18356523 1.2721392 0.054385185 100
0.19894934 1.2510579 0.073121607 78
0.21231189 1.2327466 0.090731993 100
0.20859769 1.2378364 0.1125773 13
0.23524523 1.2013202 0.12327318 17
0.18900526 1.2646846 0.16409127 77
0.19571432 1.2590669 0.010541254 81
0.21489319 1.2325919 0.029936166 66
0.18648911 1.2718017 0.054210871 100
0.20295981 1.249065 0.072634131 78
0.21392924 1.2339225 0.090731993 95
0.21714336 1.2294856 0.1102876 14
0.23675272 1.2024163 0.12327318 8
0.19186756 1.2643771 0.16357364 69
0.20676342 1.2473125 0.010262015 98
0.20484948 1.2499741 0.030982886 95
0.1975486 1.2601269 0.05281638 100
0.20926994 1.2438269 0.071659178 64
0.21555066 1.2350929 0.090731993 95
0.2107259 1.2418022 0.11295892 13
0.24736583 1.1908499 0.11967396 17
0.19923475 1.2577821 0.16098544 72
0.20146084 1.2582732 0.010471444 96
0.21116853 1.2446736 0.030564198 64
0.1969465 1.2645974 0.053165004 100
0.21207929 1.2433977 0.071415432 64
0.21029016 1.2459042 0.092609204 100
0.20895299 1.2477775 0.11410378 20
0.24204355 1.2014204 0.12237337 17
0.19532764 1.2668654 0.16357364 69
0.20316735 1.2594869 0.010471444 96
0.21282753 1.2458534 0.030564198 64
0.1906119 1.2772064 0.054385185 100
0.21488148 1.2429547 0.071171694 81
0.21309552 1.2454753 0.092296332 100
0.20608267 1.2553725 0.11563025 27
0.23341152 1.2168032 0.12642249 16
0.19371355 1.2728292 0.16512655 68
0.19576278 1.2738416 0.010750682 79
0.21572259 1.2454522 0.030459527 97
0.20049477 1.2671112 0.053165004 100
0.19834965 1.2701622 0.075071514 90
0.22052115 1.2386271 0.090731993 100
0.19657233 1.2726902 0.11944643 76
0.23168883 1.222743 0.1277722 40
0.20444769 1.2614888 0.16098544 72
0.21812293 1.2455577 0.010122396 85
0.22309932 1.2384269 0.029936166 99
0.20679301 1.2617927 0.052467756 100
0.21259421 1.25348 0.072390392 95
0.22102848 1.2413943 0.091044858 100
0.2050705 1.264261 0.11715672 100
0.22546443 1.2350378 0.13092151 80
0.21058774 1.2563552 0.15891489 73
0.2150616 1.2531717 0.010262015 98
0.21091825 1.2591488 0.03119223 94
0.20720464 1.264506 0.05264207 100
0.21863848 1.2480118 0.071415432 48
0.22026023 1.2456723 0.091670595 100
0.22675771 1.2362993 0.1102876 92
0.22248611 1.2424613 0.13272113 94
0.21431851 1.2542436 0.15787962 73
0.21901724 1.2510431 0.010192205 85
0.22508109 1.2422301 0.03004084 66
0.2055448 1.2706237 0.053165004 100
0.22368473 1.2442595 0.070684217 65
0.2241621 1.2435657 0.091044858 100
0.22282314 1.2455118 0.11219569 100
0.22966042 1.2355746 0.13047162 96
0.20725054 1.2681446 0.16202073 70
0.21410373 1.262221 0.010401634 83
0.23815468 1.2269769 0.028994121 68
0.21196178 1.2653598 0.052467756 100
0.22662711 1.2438693 0.070440479 49
0.22598284 1.2448133 0.091044858 100
0.22022486 1.2532511 0.11372216 100
0.23254889 1.2351915 0.13002171 96
0.2015433 1.280627 0.16564418 68
0.21245974 1.2683575 0.010506349 54
0.23303154 1.2379845 0.029622151 67
0.20698917 1.2764344 0.053513627 78
0.22494355 1.2499259 0.071171694 65
0.23318103 1.2377638 0.089480512 97
0.22191373 1.2543993 0.11372216 100
0.23854592 1.2298429 0.12822211 97
0.2174114 1.2610466 0.15891489 73
0.21866384 1.2628944 0.010366729 41
0.22575304 1.2523485 0.030459527 32
0.22320899 1.2561331 0.051247578 55
0.21886855 1.2625898 0.072877869 94
0.23591781 1.2372274 0.089167647 100
0.23236883 1.2425069 0.11066922 92
0.23362988 1.240631 0.13092151 100
0.2245163 1.2541883 0.1563267 82
0.22038639 1.264048 0.010366729 41
0.20083573 1.2933519 0.032971654 29
0.22380215 1.2589282 0.051421888 55
0.22720027 1.2538348 0.071415432 96
0.23426172 1.2432506 0.090106249 96
0.23619929 1.2403464 0.10990598 92
0.23419309 1.2433535 0.13137141 94
0.21334252 1.2746058 0.16253836 70
0.21429652 1.2768083 0.010611063 27
0.23124963 1.2512143 0.030250182 32
0.22212455 1.2649903 0.051944822 54
0.23867249 1.240008 0.069221787 100
0.2281968 1.2558231 0.092296332 100
0.23667657 1.2430212 0.1102876 99
0.23791683 1.2411488 0.13047162 96
0.22141865 1.2660559 0.15943253 73
0.22595379 1.2629381 0.010296919 28
0.2219601 1.2690133 0.031296901 31
0.21947658 1.2727913 0.05264207 53
0.2337724 1.2510445 0.070684217 81
0.24183074 1.2387862 0.088854775 98
0.23293743 1.2523147 0.11219569 84
0.24705663 1.2308365 0.1273223 97
0.21890742 1.2736571 0.16150309 70
0.21893546 1.2774646 0.010576159 27
0.21279109 1.286883 0.032343622 30
0.21687913 1.2806166 0.053339314 52
0.23762277 1.2488203 0.07019674 82
0.24778631 1.2332413 0.087603301 99
0.23462296 1.2534184 0.11219569 91
0.24547276 1.2367876 0.128672 97
0.23016751 1.2602479 0.15684435 74
0.23157656 1.2618312 0.01022711 42
0.24064806 1.2478194 0.029831495 33
0.23707113 1.2533443 0.05037602 56
0.2436114 1.2432424 0.069221787 67
0.24940518 1.2342935 0.087603301 100
0.24164715 1.2462764 0.1102876 100
0.24604493 1.2394836 0.1291219 96
0.23083085 1.262983 0.15736198 74
0.23744923 1.256101 0.010087491 71
0.24323088 1.2471089 0.029726824 67
0.2375136 1.2560009 0.05055033 56
0.24187887 1.2492118 0.069953002 49
0.24766025 1.2402201 0.08854191 84
0.25057742 1.2356832 0.10761628 87
0.24962923 1.2371578 0.12822211 89
0.23551556 1.2591084 0.15580906 75
0.24560162 1.2470745 0.0098780617 59
0.25241828 1.2363908 0.028994121 100
0.23278189 1.2671664 0.051596198 54
0.245689 1.2469375 0.069465525 49
0.24930346 1.2412727 0.08854191 84
0.25114876 1.2383806 0.10799789 72
0.25859916 1.2267038 0.12507279 83
0.23618567 1.2618318 0.1563267 74
0.23995176 1.260069 0.010122396 85
0.24887216 1.2459693 0.029517479 100
0.23362797 1.2700646 0.051770512 81
0.24752256 1.2481024 0.069465525 49
0.25745201 1.2324077 0.086664692 71
0.24245292 1.2561157 0.11181407 100
0.26035494 1.2278193 0.12507279 83
0.23291218 1.2711959 0.15891489 65
0.23741141 1.2679228 0.010262015 84
0.25478315 1.2402513 0.029098792 100
0.23749414 1.267791 0.051421888 82
0.2460269 1.254199 0.07019674 33
0.25906789 1.2334261 0.086664692 71
0.24832705 1.2505352 0.1102876 71
0.26299092 1.2271771 0.12462288 100
0.24082655 1.2624828 0.15580906 67
0.25167203 1.248539 0.0098431576 88
0.24992228 1.2513456 0.029726824 100
0.24432969 1.2603166 0.05055033 84
0.24649939 1.2568362 0.070440479 49
0.25634509 1.241043 0.087916173 70
0.24672231 1.2564785 0.11143246 91
0.25927389 1.2363451 0.12687239 90
0.24646327 1.2568941 0.15373851 68
0.25544819 1.2461761 0.0097733475 89
0.25370568 1.248993 0.029517479 100
0.23975432 1.2715471 0.051596198 100
0.25446635 1.2477634 0.068978049 50
0.26006949 1.2387053 0.087290429 71
0.26184869 1.235829 0.10647142 81
0.26295382 1.2340424 0.12597258 82
0.24409959 1.2645224 0.15580906 67
0.24874392 1.2608356 0.010052586 86
0.25329 1.2534288 0.029726824 100
0.24150693 1.2726269 0.051596198 82
0.25821263 1.2454084 0.068490572 50
0.2555075 1.2498159 0.089167647 70
0.24909899 1.2602572 0.11181407 100
0.26661414 1.2317199 0.12507279 83
0.24380657 1.2688801 0.15684435 66
0.24837896 1.2653002 0.010122396 85
0.25809568 1.2493441 0.029412808 100
0.24119076 1.2771041 0.051944822 81
0.25780892 1.249815 0.068978049 50
0.26129386 1.2440922 0.087916173 56
0.26102331 1.2445365 0.10799789 72
0.2732954 1.2243842 0.12282328 93
0.24554986 1.2699459 0.15684435 66
0.24812874 1.2698258 0.010192205 85
0.26088709 1.2487011 0.029308135 100
0.24923164 1.2679996 0.050898954 83
0.24930695 1.267875 0.071415432 48
0.26916084 1.2350018 0.086038955 72
0.25362983 1.2607174 0.11143246 91
0.27294776 1.2287315 0.12372308 92
0.25846681 1.2527084 -0.0098431576 87
0.24638554 1.2727121 0.15736198 74
0.25809789 1.2571539 0.0099129668 87
0.26255983 1.2497073 0.029308135 100
0.2581403 1.2570831 0.049678773 86
0.26124987 1.2518935 0.068978049 50
0.26875505 1.2393682 0.086664692 71
0.26644459 1.2432241 0.10723466 59
0.26854089 1.2397256 0.12642249 90
0.25707877 1.2588546 0.15270324 76
0.25877833 1.2598886 0.0099478718 73
0.26423606 1.2507079 0.029308135 100
0.26086041 1.2563863 0.049504463 86
0.26090503 1.2563112 0.069465525 49
0.27241397 1.236951 0.086038955 58
0.26207891 1.2543365 0.10952436 85
0.27018225 1.2407053 0.12642249 90
0.25681266 1.2631953 0.15373851 76
0.26353762 1.2557349 0.0098431576 88
0.26794496 1.2482617 0.029098792 100
0.25243884 1.2745543 0.051247578 82
0.26462114 1.2538977 0.068978049 50
0.2720387 1.2413201 0.086664692 71
0.26277402 1.2570297 0.10990598 78
0.27875662 1.229929 0.12327318 76
0.25853601 1.2642157 0.15373851 68
0.25908929 1.2670372 0.010052586 86
0.27457687 1.2405758 0.028575432 100
0.26015216 1.2652211 0.050201707 85
0.27023828 1.2479885 0.068003096 51
0.27659664 1.2371248 0.08572609 58
0.26240724 1.2613682 0.11066922 85
0.28422076 1.2240986 0.12147357 86
0.2611095 1.2635854 -0.0099827768 86
0.25432149 1.2751832 0.15684435 66
0.26785457 1.2559441 0.0098082526 74
0.27321261 1.246716 0.028889447 100
0.26588419 1.2593378 0.049504463 86
0.27190849 1.248962 0.068003096 51
0.27922073 1.2363681 0.085413218 58
0.26609576 1.2589735 0.10990598 85
0.28385049 1.2283942 0.12237337 76
0.26384678 1.2628468 0.15270324 68
0.27554077 1.2465291 0.0095988233 76
0.2728847 1.2511407 0.029098792 100
0.26759404 1.2603266 0.049504463 86
0.26763758 1.2602509 0.069465525 49
0.28183621 1.2355986 0.085100345 58
0.27172369 1.2531564 0.10837951 79
0.28447962 1.231009 0.12282328 85
0.26942557 1.2571466 0.15063268 70
0.27422988 1.2526932 0.0097035384 90
0.27258435 1.2555734 0.029308135 100
0.26337719 1.2716892 0.05055033 84
0.27919796 1.2439973 0.067028143 51
0.2785635 1.2451079 0.086664692 57
0.27341193 1.2541249 0.10837951 94
0.28512374 1.2336252 0.12327318 85
0.26921111 1.2614777 0.15166797 69
0.27295876 1.258872 0.0098082526 89
0.274281 1.2565389 0.029308135 100
0.26905939 1.265753 0.049853086 85
0.27791804 1.2501209 0.067759357 51
0.27827576 1.2494895 0.087290429 57
0.28671888 1.2345908 0.1038001 68
0.2877045 1.2328515 0.12282328 93
0.26521361 1.2725394 0.15477379 67
0.27760643 1.2546066 0.0097035384 90
0.27793831 1.2540162 0.029098792 100
0.27176785 1.2649938 0.049678773 86
0.27959561 1.2510676 0.067759357 51
0.28769448 1.2366593 0.084787481 59
0.27679846 1.256044 0.10837951 87
0.29887041 1.2167766 0.11832426 78
0.2707476 1.266809 -0.0099478718 86
0.26318318 1.2802665 0.15684435 74
0.27053601 1.2712739 0.010017681 72
0.28935504 1.2375182 0.028052073 100
0.26670611 1.2781435 0.050898954 83
0.27644336 1.2606778 0.068978049 100
0.29413453 1.2289453 0.083223134 60
0.27658474 1.2604243 0.10914274 92
0.29473791 1.227863 0.12102367 86
0.27443096 1.2642875 -0.0098780617 87
0.27437314 1.2643912 0.15166797 69
0.28196386 1.2547464 0.0096686333 75
0.28518981 1.2489123 0.028680105 100
0.28197905 1.254719 0.048458595 88
0.28200009 1.2546809 0.068003096 51
0.29382637 1.2332931 0.083848871 59
0.2906484 1.2390404 0.10418171 82
0.29445174 1.232162 0.12192347 76
0.28170943 1.2552066 0.14856213 71
0.29126745 1.2416072 0.0093893949 93
0.27909413 1.2637962 0.029517479 100
0.28071296 1.2608454 0.048981529 87
0.28551844 1.2520862 0.067515619 51
0.28966329 1.2445312 0.08572609 58
0.28748369 1.248504 0.1060898 81
0.29598573 1.233007 0.12192347 76
0.27309874 1.2747244 0.15425615 75
0.28813672 1.2512901 0.0095639192 91
0.29227394 1.2436861 0.028261416 100
0.2710014 1.2827839 0.051073264 83
0.29384392 1.2408006 0.065809444 52
0.29509765 1.2384963 0.084474608 59
0.28915557 1.2494175 0.1060898 81
0.27947864 1.2672032 0.15166797 77
0.27851138 1.2733669 0.0099827768 87
0.2940118 1.2446276 0.028261416 100
0.27572009 1.2785423 0.05055033 84
0.28897491 1.2539665 0.067515619 51
0.2977542 1.2376888 0.084161744 59
0.28718665 1.2572821 0.10761628 79
0.28135917 1.2680869 -0.0098780617 87
0.27946869 1.2715919 0.15270324 68
0.29253057 1.2513883 0.0095290141 76
0.29943797 1.2384735 0.027842728 100
0.28219524 1.2707121 0.049678773 86
0.28692096 1.2618765 0.068490572 50
0.29845661 1.2403083 0.084474608 59
0.28888917 1.2581966 0.10761628 72
0.28121322 1.2725482 -0.0099478718 86
0.28486568 1.2657192 0.15063268 70
0.29796028 1.2452176 0.0093893949 77
0.29545993 1.2499321 0.02847076 100
0.28861234 1.2628431 0.048807215 58
0.29235998 1.2557769 0.067515619 51
0.29824874 1.2446737 0.085100345 58
0.2979539 1.2452297 0.10456333 75
0.28671688 1.2664169 -0.0098082526 88
0.28840798 1.2632284 0.14959741 78
0.2968283 1.2514042 0.0094941091 92
0.29341817 1.2578884 0.028889447 100
0.29033425 1.2637525 0.048807215 58
0.29405722 1.2566733 0.067515619 51
0.29870048 1.2478442 0.10494494 75
0.28833288 1.2675581 0.15063268 70
0.29666108 1.2558311 0.0095639192 91
0.29696974 1.2552392 0.028680105 100
0.29758665 1.2540561 0.047761347 90
0.29946226 1.2504593 0.10532656 75
0.29275095 1.2633296 0.14907977 78
0.2983585 1.2567124 0.0095639192 91
0.28829733 1.2761723 0.049853086 57
0.29003835 1.2728049 0.15166797 69
0.29823458 1.261147 0.0096337283 100
0.2937344 1.269926 0.068978049 50
0.29620129 1.2651136 0.14907977 78
