# .PCD v0.7 - Point Cloud Data file format
VERSION 0.7
FIELDS x y z intensity
SIZE 4 4 4 4
TYPE F F F F
COUNT 1 1 1 1
WIDTH 719
HEIGHT 1
VIEWPOINT 0 0 0 1 0 0 0
POINTS 719
DATA ascii
-1.1483675 0.15220508 0.060709707 21
-1.1605875 0.16187076 0.02045422 22
-1.1540768 0.16507155 0.020349506 31
-1.0565447 0.15488659 0.01863917 6
-1.0223529 0.15370388 0.018045789 6
-1.025763 0.15788002 0.018115599 1
0.11492556 0.45366779 0.0093893949 15
-1.0455472 1.13045 0.085726298 3
-1.041657 1.1295712 0.14276111 4
-1.036479 1.1342266 0.028412517 7
-1.0053468 1.1270792 0.083632857 7
-1.0229154 1.1311126 0.1411923 8
-1.0157237 1.1352196 0.028063469 10
-1.0099261 1.1338673 0.083946876 43
-1.0235856 1.1370535 0.14136662 43
-0.98914379 1.1346892 0.027609708 31
-0.98338169 1.1333239 0.082586139 98
-1.0222945 1.142544 0.14136662 86
-0.98786134 1.1400596 0.027609708 38
-0.99375504 1.1414778 0.083214171 100
-1.0132363 1.1461656 0.14066938 87
-0.98649472 1.1456937 0.027609708 36
-0.97880238 1.1438128 0.082481466 100
-0.99829942 1.1485801 0.13944919 92
-0.98129231 1.1500912 0.027539898 23
-0.98136514 1.1501093 0.082690813 86
-0.99116737 1.1525424 0.13892625 89
-0.9645099 1.1512617 0.027260659 27
-0.98784357 1.1571357 0.083109498 39
-0.99568659 1.1591101 0.13944919 78
-0.96510726 1.157041 0.027295563 44
-0.97487205 1.1595354 0.082481466 32
-0.99431902 1.1645032 0.13944919 85
-0.96761853 1.1633307 0.027365373 61
-0.97350305 1.1648558 0.082481466 78
-0.99100381 1.1693916 0.13927488 89
-0.97784013 1.1716765 0.027574802 61
-0.96632057 1.168648 0.082167454 98
-0.97225815 1.1702089 0.13770607 92
-0.95324248 1.1708248 0.027155945 81
-0.96491987 1.1739385 0.082167454 96
-0.9631514 1.1734669 0.13700883 100
-0.95190507 1.1758075 0.027155945 93
-0.9558596 1.1768761 0.081748761 98
-0.96565193 1.1795219 0.13735744 99
-0.94276482 1.1789343 0.027016325 92
-0.94287235 1.1789638 0.081120729 100
-0.96613473 1.1853364 0.13753176 98
-0.94525427 1.1849518 0.027086135 92
-0.93380994 1.1817758 0.080702044 98
-0.97434825 1.1930257 0.13840333 91
-0.9591226 1.1947637 0.027365373 88
-0.93421322 1.1877526 0.080806717 82
-0.94977313 1.1921321 0.13631158 99
-0.95001334 1.1975731 0.027225753 67
-0.93474048 1.1932197 0.08091139 70
-0.94644898 1.196557 0.13613728 100
-0.95227832 1.2041785 0.027295563 48
-0.93317944 1.1986587 0.08091139 32
-0.94678956 1.2025921 0.13631158 99
-0.93355721 1.2041036 0.026981421 55
-0.92408222 1.2013311 0.080492698 24
-0.95873231 1.21147 0.13753176 84
-0.93003899 1.2089696 0.026946515 75
-0.91100258 1.2033235 0.079864666 27
-0.94182295 1.2124646 0.13613728 87
-0.93432099 1.2156 0.027051231 74
-0.91720921 1.210463 0.080283359 36
-0.93653101 1.2162635 0.13578865 98
-0.91545957 1.2157995 0.026737086 81
-0.91558498 1.2158376 0.080283359 88
-0.92154235 1.2176499 0.13456847 100
-0.9063285 1.2183034 0.026597468 92
-0.91409844 1.2206953 0.080283359 98
-0.92385823 1.2236996 0.1349171 99
-0.90857297 1.2245741 0.026667276 85
-0.90679592 1.2240204 0.079969339 82
-0.9260698 1.2300272 0.13526571 66
-0.9108718 1.2306111 0.026737086 83
-0.90147275 1.2276475 0.07976 70
-0.9207359 1.2337213 0.1349171 45
-0.90536398 1.2347457 0.026667276 81
-0.90168816 1.233572 0.079864666 80
-0.90763861 1.2354721 0.13387123 43
-0.89239734 1.2358817 0.026457848 89
-0.90204352 1.2389972 0.079969339 90
-0.90039915 1.2384661 0.13334829 50
-0.88687891 1.239922 0.026388038 99
-0.90221316 1.2449369 0.080074012 100
-0.91571563 1.2493528 0.1349171 64
-0.88910979 1.2459401 0.026457848 100
-0.89304525 1.2472415 0.079655327 100
-0.91411799 1.2542107 0.1349171 80
-0.8797707 1.248672 0.02631823 100
-0.88181669 1.249357 0.079131968 100
-0.90855473 1.2583086 0.13456847 84
-0.88575202 1.2559752 0.026457848 96
-0.8858946 1.2560235 0.07944598 100
-0.8993786 1.2605876 0.13387123 80
-0.87639421 1.258642 0.02631823 99
-0.87843519 1.2593412 0.079131968 100
-0.89003128 1.2633138 0.13317397 100
-0.87098664 1.2620608 0.02624842 88
-0.89001578 1.2686502 0.079864666 100
-0.89027017 1.2687383 0.13334829 93
-0.8635121 1.2652819 0.026143705 75
-0.8749842 1.2693017 0.079131968 82
-0.9015947 1.2786257 0.13456847 56
-0.86940187 1.2726365 0.026283324 75
-0.85072821 1.2660239 0.077875905 51
-0.91116875 1.2874269 0.13561434 36
-0.87131518 1.2791843 0.026353134 90
-0.85830206 1.2745224 0.078399263 17
-0.88300318 1.2833717 0.13317397 41
-0.85636789 1.2793757 0.0261088 96
-0.86404389 1.2821559 0.078817949 53
-0.87183601 1.2849782 0.13230242 22
-0.84331459 1.2801565 0.025899371 96
-0.85849649 1.2857153 0.07860861 93
-0.86628789 1.288568 0.13195379 15
-0.84152538 1.285017 0.025899371 100
-0.84919542 1.2878557 0.078189917 100
-0.86260062 1.2928171 0.13177948 3
-0.84730202 1.2924298 0.026038991 100
-0.83250421 1.2868972 0.077352546 70
-0.87205642 1.3016851 0.13282534 1
-0.84546989 1.2973042 0.026038991 100
-0.82695478 1.2903079 0.0771432 44
-0.84037143 1.2953776 0.13003637 3
-0.83054394 1.2971785 0.025794657 74
-0.84192282 1.3015237 0.078085244 53
-0.8348065 1.2988062 0.12968774 15
-0.82869536 1.3019942 0.025794657 74
-0.84192234 1.3070982 0.078189917 68
-0.8459639 1.3086576 0.13090792 56
-0.83241922 1.3089827 0.025899371 78
-0.82143074 1.3046985 0.0771432 63
-0.85335654 1.3171458 0.13177948 100
-0.82680827 1.3123392 0.025829561 96
-0.81398112 1.3072865 0.07682918 63
-0.84587687 1.3198504 0.13125655 100
-0.83233863 1.3200994 0.025969181 100
-0.83065456 1.3194292 0.077875905 89
-0.82913941 1.3188262 0.12986206 95
-0.81185621 1.3174627 0.025620133 100
-0.82502204 1.3227553 0.077666558 95
-0.82536668 1.3228939 0.12968774 100
-0.80623132 1.3207084 0.025550323 100
-0.83048624 1.3305573 0.078085244 95
-0.82896632 1.3299401 0.13021068 100
-0.80430073 1.3254392 0.025550323 100
-0.81373805 1.3293097 0.077247873 100
-0.82331663 1.3332381 0.12986206 100
-0.81353706 1.3345168 0.025759751 100
-0.79342216 1.326189 0.076201156 100
-0.82328218 1.3385513 0.13003637 100
-0.7797361 1.3205228 0.17671055 16
-0.8078683 1.3377302 0.025689943 100
-0.79147249 1.330875 0.076201156 100
-0.81026 1.3387301 0.1289905 100
-0.78330058 1.3274584 0.17744176 16
-0.79492408 1.3375649 0.025480513 100
-0.79144531 1.336097 0.076305822 96
-0.79735285 1.3385899 0.12794463 100
-0.77412909 1.3287895 0.17646681 16
-0.79293472 1.3422562 0.025480513 83
-0.80048555 1.3454738 0.076933853 56
-0.80452448 1.3471949 0.12881619 90
-0.77582282 1.3349645 0.17695428 16
-0.80929786 1.3548437 0.025829561 60
-0.82231897 1.3604461 0.07829459 53
-0.82080323 1.3597939 0.1305593 22
-0.79572445 1.3490037 0.17987914 7
-0.81091636 1.3611784 0.025899371 94
-0.80193073 1.3572751 0.077247873 100
-0.82604569 1.3677506 0.13125655 56
-0.77548784 1.3457885 0.17744176 16
-0.80141562 1.3629487 0.025759751 100
-0.80891389 1.3662386 0.077771232 100
-0.8128987 1.3679869 0.13021068 100
-0.78063983 1.3538331 0.17841671 31
-0.79750925 1.3668525 0.025724847 100
-0.80499822 1.3701696 0.077666558 100
-0.8071596 1.3711269 0.12986206 100
-0.80400401 1.3697293 0.18182907 42
-0.79187125 1.3696859 0.025655037 100
-0.81211776 1.3787342 0.078189917 100
-0.80515867 1.3756242 0.12986206 100
-0.75126225 1.3515377 0.17500438 22
-0.7952382 1.3768332 0.025759751 100
-0.8063435 1.3818426 0.077980578 100
-0.8066687 1.3819895 0.13021068 100
-0.76731938 1.364239 0.17744176 20
-0.7948249 1.3825886 0.025794657 100
-0.8004567 1.385154 0.077771232 100
-0.8152954 1.3919132 0.13125655 100
-0.7669391 1.3698862 0.1776855 16
-0.80176276 1.3914557 0.025969181 100
-0.80011588 1.3906984 0.077875905 100
-0.80587524 1.3933463 0.1305593 100
-0.77565879 1.3794546 0.17914793 14
-0.79595727 1.3944871 0.025899371 100
-0.80699974 1.3996104 0.078399263 100
-0.80369109 1.3980753 0.1305593 100
-0.78252679 1.3882556 0.18036664 10
-0.78652519 1.3957896 0.025759751 100
-0.81383771 1.408578 0.078922622 100
-0.80870801 1.4061762 0.13125655 100
-0.77137166 1.3886945 0.17914793 7
-0.79518086 1.4055769 0.025969181 100
-0.8079887 1.4116284 0.078713275 100
-0.8100819 1.4126174 0.13160518 100
-0.76740915 1.3924551 0.17890419 3
-0.79475909 1.4111291 0.026004085 100
-0.79672641 1.4120671 0.078189917 100
-0.80783051 1.417361 0.13160518 100
-0.78314692 1.4055929 0.18134159 1
-0.79634303 1.4170831 0.026073895 100
-0.80730373 1.4223511 0.078922622 100
-0.80219859 1.4198974 0.13125655 100
-0.79587537 1.4226513 0.0261088 100
-0.80501825 1.4270849 0.078922622 100
-0.7927509 1.4211361 0.1305593 100
-0.78628987 1.4240633 0.025969181 100
-0.80977648 1.435559 0.079341307 100
-0.80109245 1.4313086 0.13160518 100
-0.79117066 1.4322654 0.0261088 100
-0.79669994 1.4349958 0.078713275 100
-0.80949455 1.4413137 0.13265105 100
-0.79243058 1.4387262 0.02617861 100
-0.79615825 1.4405831 0.078817949 100
-0.81784326 1.4513854 0.13369691 100
-0.80438238 1.4505911 0.026457848 100
-0.79202467 1.4443812 0.078713275 100
-0.79943413 1.4481046 0.1321281 100
-0.79141527 1.4496559 0.02624842 100
-0.80047065 1.454244 0.079341307 100
-0.79895526 1.4534762 0.13230242 100
-0.78903466 1.4543341 0.02624842 100
-0.80874473 1.4644073 0.079969339 100
-0.80720598 1.4636209 0.13334829 100
-0.79031318 1.4606026 0.02631823 100
-0.7993328 1.46525 0.079550654 100
-0.81198281 1.4717681 0.13404553 100
-0.79499191 1.4689655 0.026457848 100
-0.79689771 1.4699559 0.079550654 100
-0.81482869 1.4792743 0.13456847 100
-0.803047 1.4794621 0.026667276 93
-0.79432315 1.4748878 0.079550654 100
-0.80869085 1.4824214 0.13421984 100
-0.78642029 1.4767025 0.026388038 81
-0.79362005 1.4805098 0.079655327 100
-0.79738933 1.4825029 0.13334829 100
-0.80368418 1.4918894 0.13421984 28
0.12863857 1.2927588 0.13051336 5
0.16257751 1.2539284 0.010820492 26
0.16429776 1.2517797 0.032343622 30
0.11916634 1.3081532 0.060311776 21
0.14555675 1.2751889 0.07945881 14
0.13765979 1.285053 0.10449822 11
0.14019021 1.2818923 0.12746041 35
0.21020466 1.1944375 0.12552269 8
0.14312315 1.2782288 0.17444403 7
0.15688968 1.2647389 0.011029921 89
0.16606614 1.25319 0.032343622 60
0.1546075 1.267611 0.055605363 73
0.15111586 1.2720053 0.078727596 28
0.17027262 1.2478962 0.096676499 25
0.15916803 1.2618716 0.12211776 93
0.19963938 1.2109374 0.13002171 24
0.15099773 1.2721541 0.17185585 29
0.16472656 1.2581911 0.010855397 100
0.17014521 1.2513249 0.032134276 100
0.1574941 1.2673554 0.055431053 99
0.15770188 1.2670922 0.077752642 28
0.17797825 1.2413995 0.095112152 25
0.16445002 1.2585415 0.1209729 100
0.18540919 1.2319834 0.13587044 45
0.15386191 1.271958 0.1713382 43
0.16273302 1.264255 0.010960111 100
0.16566849 1.2605087 0.032657638 100
0.15677494 1.2718592 0.055779677 100
0.16433674 1.2622083 0.076777689 29
0.17231598 1.2520247 0.096989371 37
0.172212 1.2521574 0.11906482 100
0.18582213 1.2347872 0.13632034 30
0.15799946 1.2702963 0.17030293 43
0.17051467 1.2576458 0.010785587 100
0.18446976 1.2397134 0.03119223 94
0.15966493 1.2715881 0.055605363 98
0.1696285 1.2587847 0.076046467 29
0.17634284 1.2501566 0.096363634 37
0.18225306 1.2425618 0.11639348 100
0.18736541 1.2359924 0.13632034 30
0.15016913 1.2837903 0.17444403 42
0.17963845 1.2495377 0.010576159 67
0.17520636 1.2552763 0.032134276 60
0.16150597 1.2730153 0.055605363 49
0.17991629 1.2491779 0.074340299 46
0.18293503 1.2452693 0.095112152 25
0.16838703 1.2641058 0.12135452 12
0.18431112 1.2434876 0.13811995 22
0.14260817 1.2974839 0.17858514 40
0.16906008 1.2666301 0.010925206 52
0.17195535 1.2628555 0.032552965 29
0.16317618 1.2743008 0.055605363 49
0.17184195 1.2630033 0.076290213 44
0.19413117 1.2339449 0.092609204 53
0.18317133 1.2482332 0.11715672 13
0.20011586 1.2261426 0.13272113 23
0.15846884 1.2804377 0.17237349 57
0.17572781 1.2616584 0.010785587 39
0.17376429 1.2642378 0.032552965 29
0.1746816 1.2630327 0.054210871 51
0.18206817 1.2533295 0.074584037 91
0.19104797 1.2415333 0.093860678 52
0.1920616 1.2402017 0.11486702 13
0.20297042 1.2258714 0.13227122 47
0.1732139 1.2649608 0.16667947 67
0.17494836 1.2660871 0.010855397 39
0.17058736 1.2718555 0.032971654 29
0.16190007 1.2833463 0.056302611 48
0.18127868 1.2577139 0.075071514 60
0.19618747 1.2379937 0.092922069 53
0.19362283 1.2413861 0.11486702 13
0.2056593 1.2254653 0.13182132 31
0.17718741 1.2631254 0.16564418 68
0.18156955 1.2610602 0.010715778 39
0.17962113 1.2636571 0.032343622 30
0.17454562 1.270422 0.054733805 50
0.19974741 1.2368319 0.071659178 80
0.19553414 1.2424476 0.093547814 52
0.19653115 1.2411187 0.1144854 13
0.20967001 1.2236067 0.13092151 32
0.17435977 1.2706697 0.16771474 67
0.18558955 1.2590723 0.010645968 53
0.20512685 1.2328514 0.030250182 32
0.17620713 1.2716644 0.054733805 50
0.19180891 1.2507253 0.073609084 77
0.19474226 1.2467885 0.094173551 65
0.19340333 1.2485855 0.11601187 13
0.21583346 1.2184821 0.1291219 32
0.17717636 1.2703636 0.16719711 67
0.17897466 1.271595 0.010890301 91
0.20912006 1.2308409 0.03004084 66
0.18625441 1.2617534 0.053513627 78
0.19585013 1.2487808 0.073121607 62
0.2105054 1.2289681 0.090419121 82
0.20091364 1.2419354 0.11410378 13
0.22435427 1.2102456 0.12642249 33
0.19041362 1.2561305 0.16202073 70
0.19484621 1.2534833 0.010471444 96
0.20000851 1.2464557 0.030982886 63
0.19614378 1.2517169 0.052293446 80
0.19273898 1.2563519 0.07409656 76
0.206182 1.2380515 0.091983467 100
0.19783145 1.2494193 0.11563025 13
0.2246623 1.2128936 0.12687239 16
0.18859661 1.261991 0.16357364 69
0.19443515 1.2581378 0.010541254 81
0.20545176 1.2430136 0.03066887 64
0.18400356 1.2724588 0.054385185 100
0.20287555 1.2465503 0.072390392 95
0.2045745 1.244218 0.092922069 79
0.21825337 1.2254388 0.10952436 14
0.23217964 1.2063202 0.12462288 16
0.19512418 1.2571919 0.16150309 70
0.19839984 1.2560737 0.010471444 96
0.21404564 1.2344439 0.03004084 99
0.18917495 1.2688267 0.053862248 100
0.21260187 1.2364399 0.070684217 65
0.20499122 1.2469614 0.093234941 92
0.21286166 1.2360808 0.11181407 14
0.23477042 1.2057928 0.12417299 16
0.19334501 1.2630618 0.163056 70
0.19534716 1.2637335 0.010611063 94
0.20743126 1.2469105 0.030773543 96
0.19083109 1.2700205 0.053862248 100
0.20488569 1.2504543 0.072634131 63
0.21579424 1.2352679 0.090731993 100
0.21326372 1.2387908 0.11219569 14
0.25099689 1.1862601 0.11832426 8
0.19836316 1.2595347 0.16150309 70
0.19698638 1.2649069 0.010611063 81
0.21481371 1.2399139 0.030250182 98
0.19943312 1.2614766 0.05281638 100
0.21339732 1.2418995 0.071171694 81
0.21389765 1.2411981 0.091670595 100
0.20227939 1.2574863 0.11639348 19
0.24106252 1.2031144 0.12282328 17
0.19774479 1.2638435 0.16253836 70
0.19880268 1.2661973 0.010611063 94
0.21538442 1.2427695 0.030354854 97
0.20584098 1.2562531 0.052119136 100
0.191046 1.2771566 0.076290213 100
0.21790934 1.239202 0.091044858 100
0.21087366 1.2491426 0.11410378 34
0.2336455 1.2169689 0.12642249 24
0.20513746 1.2572471 0.15995017 72
0.2050494 1.260815 0.010471444 96
0.21350873 1.2487787 0.03066887 96
0.20058152 1.2671722 0.053165004 100
0.22012427 1.2393657 0.070440479 65
0.21151611 1.2516139 0.093234941 100
0.20682001 1.2582958 0.11601187 86
0.22616518 1.2307703 0.13002171 48
0.20342267 1.2631297 0.16150309 70
0.21362948 1.2521758 0.010262015 98
0.22318107 1.2384839 0.029936166 99
0.19547948 1.2781932 0.054210871 100
0.22290045 1.2388862 0.07019674 82
0.22563156 1.2349713 0.089793384 100
0.20515677 1.2643212 0.11715672 100
0.22889048 1.2302997 0.12957181 80
0.20735672 1.2611676 0.1604678 72
0.20839825 1.2631516 0.010471444 96
0.22246185 1.2428489 0.030145511 98
0.19943568 1.2760904 0.053862248 100
0.21993572 1.2464957 0.071171694 65
0.22717527 1.2360443 0.089793384 100
0.22021297 1.2460954 0.1125773 96
0.23041865 1.231362 0.12957181 80
0.20568725 1.2670654 0.16202073 70
0.20794275 1.2676964 0.010541254 95
0.22193462 1.2473381 0.030354854 97
0.20806396 1.26752 0.05281638 100
0.22168437 1.2477022 0.071171694 65
0.2344799 1.2290846 0.088229038 98
0.21862414 1.2521548 0.11372216 89
0.23211178 1.2325302 0.12957181 96
0.21188825 1.2619556 0.15995017 72
0.21523088 1.2605692 0.010366729 83
0.2268967 1.2434741 0.03004084 66
0.216454 1.2587769 0.051770512 100
0.21208093 1.2651851 0.073609084 100
0.23489055 1.23176 0.08854191 100
0.22575799 1.2451428 0.11181407 91
0.23035198 1.2384108 0.13092151 96
0.21352148 1.2630742 0.15995017 80
0.2215156 1.2551694 0.01022711 42
0.22863427 1.2446553 0.03004084 33
0.21377966 1.2665954 0.052467756 80
0.22280148 1.2532701 0.071659178 80
0.22994027 1.2427263 0.090419121 100
0.23410574 1.2365739 0.10952436 99
0.22988588 1.2428066 0.13182132 94
0.20774946 1.275502 0.16357364 69
0.21197018 1.2728518 0.010576159 40
0.21461052 1.268924 0.031506244 31
0.21098211 1.2743217 0.053165004 52
0.23548049 1.237878 0.069221787 83
0.2304076 1.2454244 0.090731993 95
0.23017827 1.2457656 0.11143246 84
0.23580426 1.2373964 0.13002171 100
0.21373868 1.270221 0.16150309 70
0.2204726 1.2641054 0.010366729 41
0.23195577 1.2468872 0.03004084 33
0.20951644 1.2805336 0.053687938 52
0.22287905 1.2604972 0.072390392 100
0.22886416 1.2515228 0.091670595 100
0.23192421 1.2469345 0.11143246 84
0.23535696 1.2417873 0.13092151 100
0.20699933 1.2843077 0.16564418 83
0.21107298 1.2818687 0.010715778 26
0.20928061 1.2845757 0.032343622 30
0.22111097 1.2667087 0.052119136 54
0.22779518 1.2566139 0.071659178 80
0.24354959 1.2328205 0.087916173 100
0.23567528 1.2447128 0.11066922 85
0.24230251 1.2347039 0.128672 97
0.22150522 1.2661133 0.15943253 81
0.22283226 1.2680653 0.010401634 27
0.1892381 1.3192075 0.03443706 27
0.22293371 1.2679108 0.052119136 54
0.22958088 1.2577915 0.071659178 96
0.24199438 1.2388937 0.088854775 100
0.23310581 1.2524253 0.11219569 100
0.24079812 1.2407149 0.13002171 96
0.2275683 1.2608553 0.15736198 74
0.23213199 1.2574226 0.0101573 28
0.21724528 1.2802501 0.031924933 30
0.22785166 1.2639861 0.051596198 54
0.23011586 1.2605141 0.071902916 100
0.24247193 1.2415671 0.089167647 98
0.24650401 1.2353843 0.10799789 94
0.24555424 1.2368407 0.128672 97
0.23130834 1.2586856 0.1563267 74
0.23826537 1.2518684 0.010017681 43
0.24081489 1.2479274 0.029831495 33
0.22749993 1.2685091 0.051944822 54
0.24377662 1.2433493 0.069221787 83
0.24634832 1.239374 0.08854191 98
0.24074703 1.2480323 0.11066922 92
0.25150135 1.2314086 0.12687239 90
0.22995362 1.2647164 0.15787962 73
0.23554257 1.2596297 0.0101573 71
0.24995649 1.2371864 0.029098792 68
0.22484818 1.2762816 0.05264207 53
0.24212983 1.249373 0.069953002 49
0.25004143 1.2370541 0.087916173 84
0.24551669 1.2440995 0.10952436 85
0.25513923 1.2291166 0.12597258 90
0.22637618 1.2739024 0.1604678 72
0.22874379 1.2742712 0.010436539 55
0.24845147 1.2433364 0.029412808 67
0.2277765 1.2757896 0.052467756 80
0.24388888 1.2504982 0.069953002 49
0.25387803 1.2348185 0.087290429 85
0.24514669 1.2485238 0.1102876 78
0.25577691 1.2318377 0.12642249 99
0.23341516 1.2669387 0.15787962 65
0.24003729 1.260123 0.010122396 85
0.24895522 1.2460217 0.029517479 100
0.24116978 1.2583324 0.05055033 84
0.24123982 1.2582216 0.070927955 48
0.2511977 1.242476 0.08854191 70
0.24253777 1.2561693 0.11181407 98
0.25626844 1.234458 0.12687239 99
0.23919511 1.2614548 0.15580906 67
0.24591723 1.2543738 0.0099827768 87
0.24841157 1.2504005 0.029726824 100
0.24173149 1.2610413 0.05072464 84
0.24919331 1.2491553 0.069465525 49
0.25276613 1.2434642 0.08854191 70
0.25667787 1.2372332 0.10723466 81
0.25677413 1.2370799 0.1273223 97
0.23671791 1.2690274 0.15787962 65
0.24972448 1.2520376 0.0099129668 87
0.25642642 1.2412789 0.029098792 100
0.23712677 1.272261 0.051770512 81
0.25296688 1.2468326 0.068978049 50
0.25233173 1.2478522 0.089167647 70
0.24377802 1.2615836 0.1125773 96
0.26252776 1.2314843 0.12552269 82
0.23641887 1.2733974 0.15891489 65
0.24825481 1.2581859 0.010017681 72
0.2580733 1.2423007 0.029098792 100
0.23783433 1.2750449 0.051944822 81
0.25672054 1.2444894 0.068490572 67
0.26438749 1.2320852 0.086038955 58
0.25788245 1.2426095 0.10799789 72
0.26823875 1.2258544 0.12372308 92
0.23817798 1.2744889 0.15891489 65
0.24891528 1.2609408 0.010052586 86
0.26181203 1.2399118 0.028889447 100
0.23959917 1.2761314 0.051944822 100
0.2542274 1.252279 0.069465525 66
0.26393676 1.2364472 0.086664692 57
0.2502965 1.2586887 0.11143246 84
0.26677531 1.2318187 0.12507279 100
0.24802059 1.2623997 0.15477379 67
0.25071669 1.2620411 0.010052586 86
0.25419506 1.2563224 0.029831495 100
0.25284553 1.2585411 0.050027397 85
0.25702861 1.2516639 0.069221787 33
0.26564828 1.2374926 0.086664692 57
0.25617063 1.2530744 0.10990598 85
0.26948258 1.2311888 0.12462288 83
0.2518352 1.2602022 0.15373851 68
0.25656891 1.2562344 0.0099129668 87
0.25692639 1.2556419 0.029726824 100
0.25661153 1.2561637 0.049678773 86
0.25973737 1.250984 0.068978049 67
0.26626122 1.2401736 0.086977564 57
0.26293054 1.2456927 0.10799789 87
0.26303908 1.2455128 0.12822211 97
0.25055367 1.266202 0.15529142 75
0.26126549 1.2520583 0.0098082526 74
0.26264355 1.2497575 0.029308135 100
0.25003517 1.270808 0.051073264 83
0.26745412 1.241726 0.067515619 51
0.27086702 1.236028 0.086038955 58
0.26148319 1.2516948 0.10914274 78
0.27663362 1.2264004 0.12282328 85
0.24922279 1.2721642 0.15684435 66
0.25375617 1.2685349 0.010122396 85
0.27044168 1.2404557 0.028680105 100
0.24873173 1.2769904 0.051596198 82
0.26301804 1.2529486 0.068978049 50
0.27350459 1.2353013 0.08572609 58
0.25915471 1.25945 0.11066922 85
0.27822843 1.2273518 0.12282328 85
0.25295126 1.2698896 0.15580906 67
0.25761583 1.2661717 0.010052586 86
0.26709795 1.2500808 0.029203463 100
0.25969559 1.2626424 0.050027397 85
0.2688213 1.2471563 0.068003096 51
0.27922335 1.2295041 0.084474608 59
0.2619473 1.2588212 0.1102876 78
0.27693847 1.2333815 0.12417299 83
0.26066151 1.2610033 -0.0099478718 86
0.2606701 1.2609887 0.15270324 68
0.26742321 1.2533785 0.0097733475 89
0.26978344 1.2493411 0.029098792 100
0.26543906 1.2567726 0.049330149 87
0.27048859 1.2481349 0.068003096 51
0.27484739 1.2406787 0.086351827 58
0.26960024 1.2496545 0.10799789 79
0.27757415 1.2360142 0.12462288 92
0.26043582 1.2653313 0.15373851 76
0.2720381 1.2491238 0.0096686333 90
0.26937002 1.2537229 0.029308135 100
0.2640554 1.2628837 0.049853086 85
0.26908726 1.2542102 0.068734311 33
0.27343592 1.2467145 0.087290429 71
0.27414793 1.2454872 0.10685304 81
0.28596634 1.2251158 0.12147357 77
0.26014113 1.2696308 0.15477379 67
0.26872513 1.2587571 0.0098431576 88
0.27703753 1.2443131 0.028680105 100
0.26180249 1.2707863 0.05055033 84
0.2777102 1.2431443 0.067028143 51
0.27707225 1.2442527 0.086664692 86
0.27385089 1.2498504 0.10761628 79
0.28658456 1.2277236 0.12192347 85
0.26188692 1.2706394 0.15477379 67
0.27051839 1.2597847 0.0098431576 88
0.28075752 1.241841 0.02847076 100
0.26265246 1.2735696 0.05072464 84
0.27747852 1.2475873 0.067515619 51
0.28762347 1.2298086 0.083848871 59
0.27561146 1.2508593 0.10761628 87
0.29212725 1.2219157 0.12012386 86
0.26754519 1.2649952 -0.0099478718 86
0.2618089 1.2750479 0.15580906 67
0.27321476 1.2590171 0.0098082526 74
0.27650338 1.2532068 0.029098792 100
0.26735619 1.2693678 0.050201707 85
0.27132481 1.2623563 0.069465525 49
0.28825706 1.2324407 0.084161744 59
0.26858819 1.2671912 0.11105084 98
0.28794688 1.2329887 0.12282328 85
0.27124476 1.2624977 -0.0098780617 87
0.27308944 1.2592385 0.15063268 70
0.27769101 1.2546542 0.0097035384 90
0.27410942 1.2610285 0.029517479 100
0.27575806 1.2580944 0.048981529 87
0.27481771 1.259768 0.068978049 50
0.28293785 1.2453158 0.086351827 58
0.28746176 1.2372642 0.10418171 75
0.29035726 1.2321107 0.12237337 76
0.2708343 1.2668576 -0.0099478718 96
0.2765204 1.2567376 0.14959741 70
0.2861985 1.2433743 0.009459204 77
0.28749213 1.241053 0.028261416 100
0.28522253 1.2451257 0.047587037 90
0.28232697 1.2503215 0.067515619 51
0.28844503 1.239343 0.085100345 58
0.28527164 1.2450376 0.10570818 81
0.28912601 1.238121 0.12372308 83
0.27257863 1.2678143 0.15270324 68
0.28011382 1.2582935 0.0097384425 75
0.28334108 1.2524545 0.028889447 100
0.26953426 1.2774346 0.05072464 84
0.28784633 1.2443035 0.066540658 52
0.28626266 1.2471687 0.086351827 58
0.28598171 1.247677 0.1060898 88
0.29641777 1.2287955 0.12102367 86
0.27805606 1.2620165 0.15063268 70
0.2808587 1.2609862 0.0097733475 89
0.28502679 1.2533824 0.028889447 100
0.27034953 1.2801577 0.050898954 83
0.28568673 1.2521785 0.067515619 51
0.29932424 1.2273 0.082597397 60
0.28010112 1.2623682 0.10914274 78
0.29895753 1.2279691 0.12057377 86
0.27513215 1.2714329 0.15322088 76
0.28179145 1.2637732 0.0098082526 89
0.28879142 1.2508862 0.028680105 100
0.28182036 1.2637199 0.049155839 87
0.2856451 1.2566786 0.068003096 51
0.29919624 1.2317308 0.083223134 60
0.28667909 1.254775 0.10723466 81
0.28370041 1.2602588 -0.0097384425 99
0.27798161 1.270787 0.15270324 68
0.29015505 1.2523828 0.0095639192 91
0.29426035 1.2447615 0.028261416 100
0.28826979 1.2558826 0.048284281 88
0.28734553 1.2575984 0.068003096 51
0.29706231 1.2395599 0.084474608 59
0.29116604 1.2505059 0.1060898 81
0.27972332 1.2717485 -0.0099478718 86
0.28889301 1.2547257 0.14752686 71
0.28790057 1.2602507 0.0097035384 90
0.2901032 1.2561307 0.028889447 100
0.29073688 1.2549454 0.048109971 89
0.2907505 1.2549199 0.067515619 51
0.29760736 1.2420943 0.084787481 59
0.29082564 1.2547793 0.10685304 81
0.28859547 1.2589508 0.14856213 71
0.28774017 1.2646961 0.0097733475 89
0.29367271 1.2535057 0.028680105 100
0.28403226 1.2716904 0.049678773 86
0.29988319 1.241791 0.065565705 53
0.29833159 1.2447177 0.085100345 58
0.29619771 1.2487428 0.10532656 75
0.28305694 1.27353 -0.0099478718 86
0.28668436 1.2666876 0.15063268 70
0.29429084 1.2568476 0.0095988233 76
0.29151928 1.2621245 0.048632905 88
0.29431209 1.2568073 0.067515619 51
0.29529908 1.2549281 0.10647142 81
0.28871176 1.2674699 -0.0098082526 99
0.28500021 1.2745363 0.15270324 68
0.29137349 1.2666053 0.0097733475 89
0.2923184 1.2647909 0.048807215 88
0.29417908 1.2612181 0.068003096 51
0.29517969 1.2592968 0.10723466 73
0.2886025 1.271926 -0.0098780617 87
0.29122463 1.2668911 0.15011504 78
0.29953837 1.2550528 0.067028143 51
0.29384702 1.2660749 0.14959741 70
0.29300401 1.2717822 0.069221787 83
0.2982426 1.2655976 0.048632905 59
0.2945179 1.2729299 0.15115032 77
0.29988745 1.2664298 0.048632905 59
0.29444864 1.2772248 0.1521856 77
0.29999238 1.2709997 0.0097733475 100
0.29569581 1.2932539 0.050898954 27
