# .PCD v0.7 - Point Cloud Data file format
VERSION 0.7
FIELDS x y z intensity
SIZE 4 4 4 4
TYPE F F F F
COUNT 1 1 1 1
WIDTH 779
HEIGHT 1
VIEWPOINT 0 0 0 1 0 0 0
POINTS 779
DATA ascii
-1.1681399 0.15503319 0.061756428 21
-1.0944477 0.14855871 0.057883568 26
-1.150685 0.1604896 0.020279696 5
-1.1699424 0.1671325 0.020628745 31
-1.0644588 0.15604679 0.01877879 6
-1.0144696 0.15233763 0.017906168 6
-1.0218102 0.15727162 0.018045789 1
0.08160007 0.002938807 0.047102362 51
0.077878565 0.0028775334 0.047207031 81
0.058810413 0.013634324 0.015742071 100
0.049119473 0.0045742989 0.047939736 31
0.042534053 0.0003874898 0.016091119 8
0.046450675 0.0063273907 0.047939736 20
0.044893324 0.0097532868 0.047835063 100
0.042242646 0.011521101 0.047835063 75
0.03316468 0.0031828284 0.048463095 34
0.028246999 0.0016869903 0.048672438 16
0.0400998 0.025030613 0.047311705 20
0.027297854 0.012017071 0.048253752 8
0.031492651 0.02368778 0.047625721 9
0.019728363 0.01241219 0.048463095 8
0.010448337 0.004285872 0.049091127 7
0.10668766 0.46531984 0.0093893949 15
0.1034407 0.48099723 -0.0092846798 11
0.1149247 0.49271968 -0.0090054413 12
0.107741 0.49664193 -0.0090752514 11
0.089355677 0.54213524 0.0089705372 16
0.053176761 0.53896058 -0.0095639192 11
0.08324796 0.55492312 -0.0089705372 24
0.080643594 0.55580509 -0.0090054413 12
0.085476756 0.56956011 0.008830918 16
0.076722562 0.56969029 0.0089705372 16
0.079063684 0.57445014 0.0089007271 16
0.070986062 0.57305354 0.0090403464 16
0.081380934 0.57933229 0.008830918 16
0.08075124 0.58088732 0.008830918 16
0.068949938 0.57808048 0.0090403464 16
0.060877025 0.5767374 0.0091799656 15
0.03037256 0.56688315 0.0097384425 15
0.063269466 0.58160043 0.0091101564 16
0.070052207 0.58624566 0.0089705372 16
0.047007143 0.57933265 0.0093893949 15
0.046311736 0.58117747 0.0093893949 15
0.045688331 0.58284879 0.0093893949 15
0.045005739 0.58469844 0.0093893949 15
0.033116579 0.58227837 0.0095988233 15
0.0060831308 0.57471389 0.010087491 14
0.016744316 0.58053553 0.0098780617 14
-0.0028139353 0.57586557 0.01022711 14
0.041879535 0.59345138 0.0093893949 15
0.014757454 0.58622348 0.0098780617 14
0.014150918 0.58799946 0.0098780617 14
0.0021447539 0.586052 0.010087491 14
0.0091289282 0.59039062 0.0099478718 14
0.0008739233 0.58988118 0.010087491 14
0.01549679 0.59663874 0.0098082526 14
-0.023222923 0.58639956 0.010506349 13
-0.0085773468 0.59313065 0.01022711 14
-0.0092218518 0.59517914 0.01022711 14
0.016920805 0.60539216 0.0097384425 15
-0.010428667 0.59908748 0.01022711 14
-0.026339889 0.59643167 0.010506349 13
-0.0039411783 0.60528392 0.010087491 14
-0.035212457 0.5982064 0.010645968 13
-0.028125823 0.60247648 0.010506349 13
-1.0681155 1.1394092 0.028970994 6
-1.0174649 1.1278459 0.084260888 5
-1.0369523 1.1322947 0.14241248 6
-1.0649335 1.1443214 0.02893609 11
-0.98708457 1.1262771 0.082690813 15
-1.0338011 1.1371053 0.14223817 30
-1.0128803 1.1385853 0.028028565 27
-0.99736875 1.134927 0.083318844 82
-1.0207448 1.14044 0.1411923 81
-0.98442274 1.1372495 0.027539898 37
-1.0078046 1.1428457 0.083946876 100
-1.0117569 1.1437917 0.14049506 87
-0.97341579 1.1402422 0.027365373 48
-0.98902673 1.1440362 0.083004825 100
-1.0065706 1.1482999 0.14014643 86
-0.98188752 1.1476854 0.027539898 25
-0.98002106 1.1472253 0.082586139 100
-1.0053077 1.1534595 0.14014643 84
-0.97654659 1.1525924 0.027470088 23
-0.97468668 1.1521262 0.082376793 66
-1.0038238 1.1594287 0.14014643 78
-0.97720748 1.1581451 0.027504992 33
-0.97728258 1.1581641 0.082586139 36
-0.99866182 1.1635977 0.13979781 73
-0.96415704 1.1607419 0.027295563 53
-0.98551911 1.1662545 0.083109498 52
-0.9779169 1.1642928 0.1380547 89
-0.95704919 1.1642426 0.027190849 66
-0.98226446 1.1708388 0.083004825 100
-0.97660094 1.1693573 0.1380547 91
-0.95559412 1.1697636 0.027190849 75
-0.96148127 1.1713268 0.081958108 90
-0.98090404 1.1764839 0.13857763 98
-0.95426017 1.1747541 0.027190849 83
-0.95049876 1.1737421 0.081434749 98
-0.97954768 1.1815583 0.13857763 100
-0.95855385 1.1818447 0.027295563 89
-0.94515544 1.1781869 0.081225403 100
-0.96457464 1.1834885 0.13735744 100
-0.94561583 1.1836467 0.027086135 96
-0.95534354 1.1863372 0.081853434 100
-0.95551389 1.1863842 0.1366602 92
-0.94031185 1.1877854 0.027016325 96
-0.94234234 1.1883545 0.081225403 86
-0.95596975 1.1921748 0.13683452 94
-0.94276553 1.1938174 0.027086135 79
-0.93326157 1.1911191 0.080806717 76
-0.95647806 1.1977105 0.13700883 99
-0.96241635 1.2051071 0.027470088 55
-0.92218548 1.1935331 0.080283359 48
-0.96072012 1.2046192 0.13753176 98
-0.95704871 1.2092646 0.027400278 42
-0.92836803 1.200905 0.080702044 24
-0.94771701 1.2065446 0.13648589 87
-0.93049794 1.2074194 0.026946515 68
-0.93252498 1.2080183 0.081016064 26
-0.93846399 1.2097731 0.13578865 84
-0.91172022 1.207425 0.026632372 74
-0.92333335 1.2109002 0.080597371 32
-0.93310231 1.2138237 0.13544002 94
-0.91983086 1.215168 0.026806897 78
-0.92377466 1.2163625 0.080702044 78
-0.9335292 1.2193168 0.13561434 100
-0.91444439 1.2191234 0.026737086 78
-0.91075069 1.2179905 0.080074012 100
-0.93004698 1.2239084 0.13544002 98
-0.91668719 1.2254184 0.026806897 81
-0.90917796 1.2230868 0.080074012 90
-0.91893965 1.2261178 0.13456847 82
-0.90364259 1.2269374 0.026597468 83
-0.91520888 1.2305732 0.080492698 76
-0.90593439 1.2276578 0.1335226 52
-0.89822751 1.2307962 0.026527658 83
-0.9116891 1.2350794 0.080388032 70
-0.90432805 1.2327373 0.1335226 46
-0.90041715 1.2370746 0.026597468 79
-0.89864999 1.2365055 0.07976 89
-0.91977221 1.2433075 0.13509139 45
-0.8987779 1.2421346 0.026597468 96
-0.89321488 1.2403218 0.079550654 100
-0.91621679 1.2478178 0.1349171 57
-0.89712101 1.2471889 0.026597468 100
-0.88966757 1.2447312 0.07944598 100
-0.90886337 1.251061 0.13439415 77
-0.87647742 1.2459089 0.02624842 99
-0.89747471 1.2529141 0.079969339 100
-0.90717536 1.2561505 0.13439415 87
-0.87101811 1.2496064 0.02617861 96
-0.89578015 1.2579638 0.079969339 98
-0.8979184 1.2586854 0.13369691 75
-0.87328964 1.2553591 0.02624842 93
-0.88100749 1.257991 0.079236634 100
-0.90203327 1.265161 0.13421984 89
-0.87536758 1.2616284 0.02631823 93
-0.87740725 1.2623318 0.079131968 100
-0.89652902 1.2689272 0.13387123 99
-0.88110811 1.2694851 0.026457848 81
-0.87370747 1.2669021 0.079027295 99
-0.89845282 1.2755387 0.13421984 61
-0.86804169 1.2704843 0.02624842 79
-0.87008089 1.271204 0.078922622 63
-0.89480048 1.2799287 0.13404553 38
-0.85875267 1.2727427 0.0261088 92
-0.86267954 1.2741442 0.07860861 23
-0.89113528 1.2842991 0.13387123 36
-0.8532272 1.2762997 0.026038991 99
-0.85339624 1.2763608 0.078189917 38
-0.87808651 1.2852693 0.13282534 26
-0.85896581 1.2839358 0.02617861 96
-0.84786755 1.2798877 0.077980578 78
-0.87627918 1.290251 0.13282534 16
-0.85341078 1.2874672 0.0261088 100
-0.85170096 1.2868369 0.07829459 100
-0.87445444 1.2952266 0.13282534 11
-0.84035319 1.288173 0.025899371 100
-0.83491629 1.2861466 0.077457212 89
-0.88754791 1.3057621 0.13421984 1
-0.83479327 1.2916132 0.025829561 100
-0.84805864 1.2966099 0.07829459 51
-0.85583693 1.2995398 0.13143086 1
-0.83296412 1.2964439 0.025829561 85
-0.83874553 1.2986447 0.077875905 51
-0.83535951 1.2973557 0.12968774 11
-0.84044987 1.3048577 0.026004085 75
-0.83129948 1.301338 0.077561885 57
-0.86884183 1.3157792 0.13299966 46
-0.84602982 1.3126059 0.026143705 74
-0.8257131 1.3047092 0.077352546 68
-0.85392874 1.315676 0.13177948 100
-0.82737547 1.3108971 0.025829561 93
-0.82569736 1.3102381 0.077457212 59
-0.83347028 1.3132906 0.13003637 99
-0.81813866 1.3125132 0.025689943 96
-0.83132476 1.3177419 0.077875905 80
-0.83166105 1.3178753 0.13003637 97
-0.81252402 1.3157984 0.025620133 100
-0.82198817 1.3195896 0.077457212 95
-0.83343917 1.3241765 0.130385 99
-0.81431788 1.3220513 0.025689943 100
-0.81635851 1.322877 0.077247873 95
-0.84073097 1.332739 0.13125655 100
-0.81608468 1.3283234 0.025759751 100
-0.81811792 1.3291544 0.077457212 100
-0.82400376 1.3315599 0.12986206 100
-0.79324585 1.318989 0.17817298 21
-0.80673379 1.3300366 0.025620133 100
-0.80138856 1.3278301 0.076619841 100
-0.81651014 1.3340721 0.12933913 100
-0.77664202 1.3176152 0.17622307 15
-0.79738766 1.3316913 0.025480513 100
-0.80312008 1.3340809 0.07682918 100
-0.80349892 1.3342389 0.12829325 100
-0.77838689 1.3237703 0.17671055 20
-0.7954188 1.3363911 0.025480513 100
-0.79562038 1.336476 0.076515168 96
-0.81621152 1.3451444 0.12968774 100
-0.78010494 1.3299444 0.17719802 24
-0.80079478 1.3442132 0.025620133 99
-0.79179674 1.3403883 0.076410495 81
-0.81236202 1.3491304 0.12951343 100
-0.75804657 1.3260412 0.1745169 18
-0.81358498 1.3549967 0.025899371 61
-0.80825275 1.3527091 0.077457212 42
-0.804941 1.3512883 0.1289905 39
-0.78355998 1.3421156 0.17817298 10
-0.81153458 1.359753 0.025899371 86
-0.80621034 1.3574468 0.077457212 85
-0.81752974 1.3623497 0.130385 43
-0.7997703 1.3546572 0.18061037 12
-0.79124838 1.3562558 0.025550323 100
-0.81523532 1.3667405 0.078085244 100
-0.81920904 1.3684773 0.13073361 100
-0.78509158 1.3535647 0.17890419 33
-0.79285282 1.3625486 0.025620133 100
-0.80400759 1.3674707 0.077561885 100
-0.81346601 1.3716445 0.130385 100
-0.77033347 1.3526118 0.17719802 35
-0.79432505 1.3690944 0.025689943 100
-0.80363303 1.3732425 0.077666558 100
-0.81307155 1.3774488 0.1305593 100
-0.79720026 1.3703758 0.18109785 40
-0.8049913 1.3795259 0.025934275 100
-0.79787618 1.3763251 0.077457212 100
-0.80730885 1.3805684 0.13021068 100
-0.77880305 1.3677454 0.17890419 19
-0.79203695 1.3790574 0.025724847 100
-0.81040794 1.3873947 0.07829459 100
-0.80164808 1.3834193 0.12986206 100
-0.76777536 1.3680468 0.1776855 16
-0.79535693 1.3862365 0.025829561 100
-0.81187624 1.3938031 0.078503937 100
-0.79949862 1.3881336 0.12986206 100
-0.78914183 1.3833897 0.18085411 17
-0.79490429 1.3920028 0.025864467 100
-0.80595511 1.3971137 0.07829459 100
-0.81169087 1.3997664 0.13125655 100
-0.76526386 1.3782945 0.17792924 13
-0.79997307 1.4000766 0.026004085 100
-0.7965185 1.3984642 0.077875905 100
-0.8094843 1.4045157 0.13125655 100
-0.76852888 1.3854005 0.17866045 5
-0.80873162 1.4096602 0.026213514 100
-0.80346221 1.4071795 0.078399263 100
-0.80737263 1.4090204 0.13125655 100
-0.77725703 1.3948426 0.18012288 5
-0.79565305 1.4092509 0.026004085 100
-0.80483788 1.413614 0.07860861 100
-0.80153447 1.4120448 0.13090792 100
-0.79479152 1.4088416 0.18280402 1
-0.7898069 1.4122155 0.025934275 100
-0.80258292 1.4183395 0.07860861 100
-0.80647177 1.4202034 0.13160518 100
-0.78935724 1.4177589 0.025969181 100
-0.80570561 1.4256656 0.078922622 100
-0.81136829 1.4284043 0.13230242 100
-0.79787093 1.4276918 0.02617861 100
-0.79981869 1.4286423 0.078713275 100
-0.81264299 1.4348998 0.13265105 100
-0.80274338 1.4359255 0.02631823 100
-0.79213566 1.4307036 0.078399263 100
-0.80673867 1.4378923 0.13230242 100
-0.79336303 1.4368511 0.02617861 100
-0.80246013 1.441367 0.079131968 100
-0.80094725 1.440616 0.13195379 100
-0.78745097 1.4397455 0.0261088 100
-0.80903763 1.4505553 0.079655327 100
-0.80572408 1.4488961 0.13265105 100
-0.79581445 1.4498198 0.02631823 100
-0.79952294 1.4516931 0.079236634 100
-0.80868119 1.4563192 0.13317397 100
-0.79699665 1.4563291 0.026388038 100
-0.80069429 1.4582131 0.07944598 100
-0.82580477 1.4710076 0.13509139 100
-0.79814988 1.4628549 0.026457848 100
-0.79828376 1.4629238 0.07944598 100
-0.80385667 1.4657879 0.13317397 100
-0.79217237 1.4657161 0.026388038 100
-0.79940313 1.4694641 0.079655327 100
-0.80141968 1.4705094 0.13317397 100
-0.78264719 1.466691 0.02624842 100
-0.80403322 1.4778714 0.080074012 100
-0.80249757 1.4770687 0.1335226 100
-0.78728276 1.4750692 0.026388038 93
-0.79448718 1.4788677 0.079655327 100
-0.80178362 1.4827147 0.13369691 100
-0.79742271 1.4858341 0.026632372 34
-0.79401737 1.484025 0.07976 31
-0.80657583 1.4906969 0.13439415 66
0.1280002 1.2922436 0.13051336 5
0.15072167 1.2674905 0.011134636 12
0.1387068 1.2824607 0.03443706 27
0.12349752 1.3014112 0.059614528 21
0.16175953 1.2537376 0.098240845 12
0.14325166 1.276798 0.12631555 17
0.18529111 1.2244178 0.13452072 7
0.13041064 1.2927976 0.17962041 6
0.16002333 1.2595659 0.010925206 52
0.17169818 1.2449096 0.03182026 61
0.15399984 1.2671276 0.055605363 49
0.15297651 1.2684124 0.078240119 14
0.16845825 1.2489769 0.096989371 25
0.15489772 1.2660005 0.12326261 79
0.18574491 1.2272757 0.13497064 22
0.1479772 1.2746882 0.17289113 14
0.16661188 1.2545836 0.010785587 100
0.17451435 1.2445952 0.031715591 100
0.14699712 1.2793756 0.056825545 95
0.16325325 1.2588286 0.076533951 29
0.16514608 1.2564362 0.098240845 24
0.16263533 1.2596097 0.12135452 100
0.18242681 1.2345942 0.13677025 45
0.14965302 1.2760186 0.17289113 35
0.16221562 1.2638493 0.010960111 100
0.18119025 1.2396848 0.031296901 100
0.14886677 1.2808492 0.056825545 100
0.17240328 1.2508752 0.075071514 30
0.18401104 1.2360926 0.093860678 26
0.16928235 1.2548497 0.11982805 100
0.19376019 1.2236768 0.13317102 46
0.15031728 1.2790021 0.17340876 42
0.16385543 1.2651325 0.010960111 100
0.18889111 1.2330306 0.030773543 96
0.16036516 1.2696079 0.055431053 100
0.16911685 1.2583861 0.076046467 29
0.17826986 1.2466497 0.095737889 25
0.16364816 1.2653983 0.12211776 100
0.18687764 1.2356124 0.13632034 38
0.15081933 1.281848 0.1739264 35
0.17056867 1.2602191 0.010820492 78
0.17347589 1.2564629 0.032238949 60
0.16951594 1.2615792 0.054385185 51
0.17333952 1.2566392 0.07555899 30
0.17760119 1.2511332 0.096363634 25
0.18709648 1.2388654 0.11524864 33
0.18739384 1.2384813 0.13677025 30
0.15033314 1.2863631 0.17496167 28
0.17828998 1.2535477 0.010645968 53
0.18117732 1.2497916 0.031715591 61
0.16993389 1.2644179 0.054559495 50
0.17495534 1.2578856 0.07555899 75
0.18401432 1.2461009 0.095112152 38
0.18506375 1.2447357 0.11639348 13
0.18063572 1.2504961 0.13991955 22
0.15322503 1.2861539 0.17444403 56
0.17278737 1.2644459 0.010855397 52
0.17082408 1.2670193 0.032762308 29
0.17416552 1.2626394 0.054210871 51
0.18517438 1.2482091 0.073852822 46
0.18456364 1.2490097 0.095425025 51
0.19514179 1.2351439 0.11372216 13
0.20603922 1.2208598 0.13092151 32
0.17035228 1.2676377 0.16771474 67
0.17925957 1.2593186 0.010715778 53
0.17006204 1.2714579 0.032971654 29
0.16617554 1.2765875 0.055605363 49
0.18796098 1.2478341 0.073609084 62
0.19808346 1.2344739 0.092296332 53
0.19194376 1.2425774 0.11524864 13
0.20988992 1.2188914 0.13002171 48
0.16733798 1.2750533 0.16978529 66
0.17135343 1.2733943 0.010995016 38
0.17181477 1.272781 0.032971654 29
0.17513216 1.2683706 0.054559495 50
0.19321096 1.2443357 0.072877869 63
0.19258231 1.2451714 0.094173551 65
0.19241539 1.2453934 0.11563025 13
0.20911607 1.2231905 0.13092151 40
0.17490962 1.2686665 0.16719711 75
0.1873858 1.2554226 0.010576159 54
0.18065587 1.2644317 0.032343622 30
0.18990299 1.2520528 0.05264207 53
0.18884584 1.253468 0.07409656 76
0.19888878 1.2400239 0.092922069 53
0.20456827 1.2324208 0.11219569 14
0.21062079 1.2243185 0.13092151 32
0.1754092 1.2714553 0.16771474 67
0.19035825 1.255142 0.010541254 95
0.20863768 1.2304838 0.03004084 66
0.18218011 1.2661738 0.054036561 51
0.19771329 1.2452203 0.072634131 94
0.20061386 1.2413075 0.092922069 66
0.21561876 1.2210665 0.10914274 14
0.20764613 1.2318213 0.13272113 31
0.18415242 1.2635133 0.16460891 69
0.19196904 1.2563319 0.010541254 95
0.20187795 1.242872 0.030773543 64
0.18382749 1.267391 0.054036561 77
0.19105297 1.2575762 0.074340299 100
0.19280976 1.2551899 0.095425025 100
0.20547712 1.2379831 0.11295892 13
0.21842206 1.2203994 0.1291219 24
0.18464565 1.2662796 0.16512655 68
0.19139469 1.2608702 0.010611063 81
0.20832619 1.2376939 0.030354854 65
0.185653 1.2687297 0.054036561 100
0.20221052 1.2460651 0.072390392 95
0.20857382 1.237355 0.091670595 100
0.20603654 1.240828 0.11334054 13
0.23846811 1.1964347 0.12192347 17
0.18418786 1.2707351 0.16616182 68
0.19302446 1.2620567 0.010611063 81
0.2133975 1.2339745 0.03004084 66
0.18613887 1.2715478 0.054210871 100
0.20845386 1.2407887 0.071415432 64
0.21360543 1.2336878 0.090731993 95
0.20759976 1.241966 0.11334054 13
0.23301789 1.2069296 0.12462288 16
0.19379133 1.2609997 0.16253836 70
0.20184025 1.2536244 0.010401634 97
0.2127665 1.2384468 0.030250182 65
0.1926358 1.2664102 0.053513627 100
0.20670232 1.2468705 0.072146654 95
0.20838252 1.2445366 0.092609204 93
0.20703784 1.2464045 0.11410378 13
0.24372986 1.195436 0.12102367 17
0.19672203 1.2607341 0.16202073 70
0.20818114 1.2483289 0.010262015 84
0.21092004 1.2444961 0.030564198 97
0.19437078 1.2676547 0.053513627 100
0.20836899 1.2480659 0.072146654 63
0.21693209 1.236083 0.090731993 95
0.21441019 1.2396121 0.11219569 21
0.24068469 1.2028446 0.12282328 17
0.20068356 1.2588208 0.16098544 72
0.2005972 1.2625673 0.010541254 81
0.21257842 1.2456769 0.030564198 97
0.19956827 1.2640178 0.05299069 79
0.21922794 1.2363027 0.07019674 99
0.2139895 1.2436876 0.091983467 100
0.20242095 1.2599963 0.1167751 26
0.22754019 1.2245846 0.128672 16
0.19792116 1.2663398 0.163056 70
0.20462123 1.2605138 0.010471444 82
0.21194118 1.2501179 0.030773543 96
0.18867722 1.2831578 0.054908119 100
0.21171483 1.2504394 0.072146654 79
0.22133133 1.2367818 0.090419121 100
0.20639402 1.2579961 0.11601187 59
0.2302509 1.2241141 0.12822211 32
0.19631922 1.2723045 0.16460891 69
0.20157942 1.268151 0.010611063 94
0.22031951 1.2413576 0.030145511 98
0.20399433 1.2646984 0.05281638 100
0.21550134 1.2482464 0.071659178 64
0.22393155 1.2361933 0.090106249 96
0.20342788 1.2655083 0.11753834 100
0.22609454 1.2331009 0.13047162 64
0.20232797 1.2670809 0.16253836 70
0.21244359 1.2562231 0.010331824 84
0.21627185 1.2507088 0.03066887 96
0.20799571 1.2626299 0.052467756 100
0.20698419 1.264087 0.073852822 100
0.22781393 1.2340833 0.089480512 100
0.22531262 1.2376863 0.11066922 85
0.2232677 1.2406318 0.13227122 86
0.20957372 1.2603569 0.15995017 72
0.21649668 1.2541634 0.010262015 98
0.21916896 1.250284 0.030564198 97
0.20980361 1.26388 0.052467756 100
0.21780604 1.2522625 0.071902916 48
0.22503474 1.2417682 0.090731993 100
0.22814268 1.2372563 0.1102876 92
0.2261003 1.2402213 0.13182132 94
0.21356502 1.2584194 0.15891489 81
0.21931735 1.2536738 0.01022711 84
0.22648364 1.243192 0.03004084 66
0.20928067 1.2683541 0.05281638 100
0.22285259 1.248503 0.071171694 65
0.22333887 1.2477918 0.091670595 100
0.22977567 1.238377 0.1102876 85
0.2332429 1.2333056 0.12957181 88
0.20763972 1.2707541 0.16253836 86
0.21193805 1.2680037 0.010506349 68
0.23815045 1.2293899 0.029098792 68
0.20757806 1.2744265 0.053339314 78
0.22444117 1.2495853 0.071171694 97
0.23380083 1.2357974 0.089167647 100
0.22361198 1.2508067 0.11295892 89
0.23368651 1.2359657 0.13002171 96
0.20713213 1.2750834 0.16357364 77
0.22261727 1.2559135 0.01022711 42
0.22078416 1.2586342 0.030878214 31
0.21713379 1.2640523 0.052119136 54
0.22389883 1.2540114 0.071659178 80
0.23873997 1.2319835 0.088229038 100
0.22748625 1.2486868 0.11219569 84
0.23749271 1.2338347 0.1291219 96
0.2207711 1.2586536 0.15787962 73
0.21773285 1.2670851 0.010436539 41
0.21369803 1.2731214 0.031715591 30
0.21673241 1.2685819 0.052467756 53
0.22567502 1.2552032 0.071659178 80
0.23604435 1.2396903 0.089480512 97
0.23469797 1.2417046 0.1102876 92
0.23486307 1.2414576 0.13092151 96
0.22256434 1.2598569 0.15787962 73
0.22389182 1.2615764 0.010296919 42
0.21766451 1.2709635 0.031506244 31
0.22067764 1.2664216 0.052119136 54
0.23395494 1.2464073 0.07019674 82
0.23768577 1.2407835 0.089480512 97
0.23526111 1.2444384 0.11066922 100
0.23758799 1.2409308 0.13047162 96
0.22320831 1.2626069 0.15839726 73
0.22121122 1.2693926 0.010436539 41
0.18866315 1.3188294 0.03443706 27
0.23117736 1.2542552 0.05072464 56
0.23561984 1.2475076 0.07019674 82
0.23389974 1.2501202 0.091044858 100
0.24447626 1.2340558 0.10799789 94
0.24887821 1.2273697 0.12642249 90
0.22917908 1.2572904 0.1563267 82
0.2262378 1.2655151 0.010331824 28
0.20587555 1.2966795 0.032971654 29
0.22633091 1.2653728 0.051770512 54
0.23837435 1.2469403 0.069953002 99
0.24854347 1.2313765 0.087290429 85
0.2375071 1.2482677 0.11105084 91
0.24941063 1.2300494 0.12687239 90
0.21925852 1.276197 0.16202073 70
0.22670758 1.2682073 0.010366729 41
0.23145026 1.2608986 0.03066887 32
0.2311424 1.261373 0.051247578 55
0.24095485 1.2462517 0.069709264 83
0.25537086 1.224036 0.08572609 100
0.24007988 1.2476001 0.11066922 85
0.24661425 1.2375302 0.128672 97
0.22821158 1.2658896 0.15839726 73
0.24577126 1.2424327 0.0098082526 59
0.24397922 1.2452155 0.029622151 33
0.23393828 1.260808 0.051073264 55
0.24261916 1.2473276 0.069709264 66
0.24947104 1.2366873 0.087916173 84
0.24812651 1.2387753 0.10837951 87
0.25352347 1.2303944 0.12642249 99
0.23517418 1.2588887 0.15580906 83
0.2475875 1.2435974 0.0098082526 59
0.25010574 1.2396536 0.029203463 68
0.23689744 1.2603387 0.050898954 55
0.24765924 1.243485 0.068978049 50
0.2512652 1.2378378 0.087916173 56
0.25309846 1.2349669 0.10723466 73
0.24900076 1.241384 0.1291219 96
0.23497432 1.2633505 0.15684435 74
0.24496126 1.2514067 0.0099478718 73
0.2453329 1.2508202 0.029831495 66
0.23221254 1.2715266 0.051944822 54
0.24825135 1.2462144 0.069221787 67
0.24867091 1.2455522 0.089167647 70
0.23896119 1.2608759 0.11295892 100
0.25794929 1.2309091 0.12597258 99
0.23566434 1.2660789 0.15736198 74
0.24442995 1.255801 0.010017681 87
0.24905586 1.2484466 0.029622151 100
0.22857332 1.2810102 0.05281638 79
0.24666142 1.2522533 0.069953002 49
0.25235307 1.2432046 0.08854191 70
0.24999842 1.246948 0.10952436 78
0.26570478 1.2219778 0.12327318 93
0.23422539 1.2720244 0.15891489 65
0.23765725 1.2704358 0.010296919 70
0.24967027 1.2511885 0.029726824 100
0.23879841 1.2686074 0.051421888 82
0.24414241 1.2600453 0.070927955 48
0.2634199 1.2291589 0.08572609 58
0.24438867 1.2596507 0.11219569 100
0.25902975 1.2361927 0.12687239 90
0.24930394 1.2517755 -0.0099129668 87
0.23597971 1.2731235 0.15891489 65
0.24563742 1.2612695 0.010087491 71
0.2596826 1.2385992 0.028889447 100
0.24255219 1.2662493 0.051073264 83
0.24786007 1.2576818 0.070440479 49
0.26390374 1.2317859 0.086038955 72
0.25945562 1.2389655 0.10723466 88
0.26160362 1.2354984 0.12642249 90
0.24578926 1.2610244 0.15477379 67
0.25887352 1.2435896 0.0097035384 90
0.25086066 1.2566246 0.029936166 99
0.24637309 1.2639248 0.05072464 84
0.25788081 1.2452046 0.068490572 50
0.26241398 1.2378303 0.086977564 57
0.25801 1.2449944 0.10837951 87
0.26016867 1.2414827 0.1277722 97
0.24548173 1.2653748 0.15580906 67
0.25315467 1.2565017 0.0099478718 87
0.26287895 1.2405645 0.028889447 100
0.24801266 1.2649289 0.05072464 84
0.25945824 1.2461706 0.068490572 50
0.26088023 1.2438402 0.087916173 70
0.25651899 1.2509878 0.10952436 78
0.26883891 1.2307966 0.12462288 100
0.24511367 1.26968 0.15684435 66
0.25071228 1.2643775 0.010087491 71
0.26555762 1.2398553 0.028784776 100
0.24251941 1.2779108 0.051944822 81
0.26317823 1.2437856 0.068003096 51
0.26662803 1.2380871 0.086664692 57
0.24904922 1.2671247 0.11295892 89
0.27650434 1.2217729 0.12192347 85
0.23885605 1.2839621 0.16098544 64
0.24943832 1.2706144 0.010192205 85
0.26214132 1.2494564 0.029308135 100
0.25258756 1.2653691 0.05055033 84
0.26287305 1.2482375 0.068490572 50
0.27241278 1.2323482 0.085413218 58
0.26300004 1.248026 0.10837951 72
0.27414966 1.2294552 0.12372308 92
0.2526747 1.2652239 0.15477379 67
0.26142091 1.2544804 0.0098431576 88
0.26586086 1.2470264 0.029098792 100
0.26145566 1.2544219 0.049330149 87
0.25844902 1.2594697 0.069953002 49
0.27503923 1.2316172 0.085100345 58
0.26266104 1.2523984 0.10914274 85
0.27774963 1.2270669 0.12282328 85
0.26033682 1.2563003 0.15166797 69
0.26413116 1.2537632 0.0098082526 74
0.26244727 1.2566128 0.029622151 100
0.25808033 1.2640027 0.050201707 85
0.27227813 1.2399764 0.067028143 51
0.26961759 1.2444787 0.087290429 57
0.26534548 1.2517083 0.10876112 87
0.27438974 1.236403 0.12507279 83
0.25417361 1.2706139 0.15580906 67
0.26481023 1.2564832 0.0098431576 88
0.2651577 1.2558905 0.029517479 100
0.2547684 1.2736127 0.051073264 83
0.26890072 1.2495055 0.068246834 51
0.27427256 1.2403421 0.086351827 58
0.2660358 1.2543926 0.10914274 85
0.27897608 1.2323188 0.12372308 83
0.25201488 1.2783098 0.15787962 65
0.26449955 1.2609329 0.0099129668 87
0.2789042 1.2361634 0.028261416 100
0.26353943 1.262584 0.049853086 85
0.26558653 1.259064 0.069465525 49
0.27690911 1.2395941 0.086038955 87
0.26871535 1.2536837 0.10876112 87
0.2845102 1.2265236 0.12192347 93
0.26248899 1.2643902 -0.0099827768 86
0.25767574 1.2726669 0.15580906 67
0.26821345 1.2584623 0.0098431576 88
0.27554294 1.245757 0.028784776 100
0.26127824 1.2704842 0.05055033 84
0.27324709 1.2497368 0.068003096 51
0.28644669 1.226856 0.083536007 60
0.27040544 1.2546626 0.10876112 79
0.2851316 1.2291355 0.12237337 76
0.26621497 1.2619267 -0.0099129668 87
0.26136282 1.2703376 0.15477379 67
0.27587935 1.2490293 0.0096337283 90
0.27422938 1.2519126 0.029098792 100
0.26401657 1.2697597 0.05037602 84
0.26210618 1.2730981 0.071171694 81
0.28215635 1.2380602 0.085413218 58
0.27697438 1.2471157 0.10685304 81
0.28286436 1.2368228 0.12417299 92
0.27078703 1.2579281 0.15063268 70
0.27656603 1.2517223 0.0096686333 90
0.27985695 1.2459245 0.028680105 100
0.26969689 1.263824 0.049678773 86
0.27954274 1.2464781 0.067271881 34
0.28379181 1.2389922 0.085413218 58
0.27961063 1.2463585 0.10647142 81
0.2844955 1.2377526 0.12417299 75
0.26867738 1.2656201 0.15270324 68
0.27423957 1.2595958 0.0098082526 89
0.27947634 1.2502981 0.028889447 100
0.27231377 1.2630148 0.049504463 86
0.28404686 1.2421834 0.066540658 52
0.28437909 1.2415936 0.08572609 58
0.27830136 1.2523842 0.10761628 79
0.29274252 1.2267449 0.12102367 86
0.2693328 1.2683074 -0.0099827768 86
0.26653025 1.2732832 0.15477379 67
0.27985132 1.2535723 0.0096686333 75
0.28310269 1.2477523 0.028680105 100
0.2730647 1.2657205 0.049678773 86
0.2837604 1.2465749 0.067028143 51
0.28699028 1.2407935 0.085413218 58
0.27615687 1.2601855 0.10914274 92
0.29433843 1.22764 0.12102367 86
0.27692553 1.2588096 -0.0097733475 88
0.2701731 1.2708966 0.15373851 68
0.27475679 1.2667563 0.0099129668 87
0.28477198 1.2486811 0.028680105 100
0.27865928 1.2597132 0.048981529 87
0.28061515 1.2561833 0.068246834 85
0.29055002 1.2382529 0.084787481 59
0.28262714 1.252552 0.10723466 73
0.29499298 1.2302343 0.12147357 86
0.27475679 1.2667563 -0.0099129668 87
0.27192327 1.2718703 0.15373851 68
0.28323385 1.2554464 0.0096686333 75
0.28644451 1.249604 0.028680105 100
0.27941081 1.2624035 0.049155839 87
0.28326991 1.2553809 0.068003096 51
0.29313743 1.2374245 0.084474608 59
0.2871497 1.2483207 0.1060898 81
0.29378551 1.2362452 0.12282328 85
0.27649248 1.2677141 -0.0099129668 87
0.28484139 1.2525213 0.14752686 79
0.29458115 1.2388606 0.0093195848 78
0.28247136 1.26109 0.029308135 100
0.28312364 1.2598927 0.048807215 88
0.28884926 1.2493824 0.067028143 51
0.29863232 1.2314241 0.083223134 60
0.29172218 1.2441087 0.10494494 75
0.2973606 1.2337586 0.12192347 85
0.27831852 1.2687132 -0.0099129668 87
0.28476337 1.2568827 0.14856213 71
0.29051638 1.2503055 0.0095290141 76
0.29368052 1.2444487 0.028261416 100
0.28483531 1.2608212 0.048807215 88
0.29052421 1.2502911 0.067028143 51
0.29461095 1.2427266 0.085100345 58
0.28777969 1.2553712 0.10723466 81
0.28279153 1.2646043 0.15063268 78
0.29022127 1.2546884 0.0095988233 91
0.29902926 1.2382547 0.027842728 100
0.27611122 1.2810146 0.05072464 84
0.29493159 1.2459 0.06629692 52
0.29617998 1.2435708 0.085100345 58
0.29217297 1.2510469 0.1060898 73
0.2836087 1.2670259 -0.0098431576 87
0.28534576 1.263785 0.15011504 78
0.29003775 1.2591238 0.0096686333 90
0.29691592 1.2461824 0.028261416 100
0.28631222 1.2661335 0.049155839 87
0.28820962 1.2625635 0.068490572 50
0.2947751 1.2502104 0.10570818 73
0.29097623 1.2573581 -0.0096337283 89
0.28797767 1.2629999 0.14959741 70
0.29183221 1.2600734 0.0096686333 75
0.29184684 1.2600455 0.048458595 88
0.29186711 1.2600071 0.068003096 51
0.29745191 1.2494056 0.10532656 67
0.28530812 1.2724578 -0.0099129668 97
0.29428834 1.2554109 0.14700922 81
0.29478163 1.2586031 0.028889447 100
0.29263654 1.2627097 0.048632905 88
0.29909354 1.2503481 0.066540658 52
0.28613782 1.2751513 -0.0099478718 96
0.28614566 1.2751362 0.15270324 68
0.29434019 1.2636395 0.0097035384 90
0.29435799 1.2636051 0.048632905 59
0.29894596 1.2547464 0.067028143 51
0.29324114 1.2657615 0.14959741 70
0.29144347 1.2735288 0.15166797 69
0.29589114 1.268932 0.0097733475 100
0.29044595 1.2796234 -0.0099827768 100
0.29662162 1.2674978 0.14959741 70
0.29579684 1.2823135 -0.0099827768 100
