# .PCD v0.7 - Point Cloud Data file format
VERSION 0.7
FIELDS x y z intensity
SIZE 4 4 4 4
TYPE F F F F
COUNT 1 1 1 1
WIDTH 808
HEIGHT 1
VIEWPOINT 0 0 0 1 0 0 0
POINTS 808
DATA ascii
0.29937804 0.54053718 0.010785587 30
-1.1864496 0.16463348 0.020907983 20
-1.1780071 0.16723573 0.020768363 29
-1.0804526 0.15723582 0.019058028 6
-1.0324022 0.15410934 0.018220313 5
-1.0219743 0.1562015 0.018045789 2
0.056171149 0.0034338236 0.015916595 123
0.054609537 0.0010097027 0.047939736 64
0.051320702 0.0018076897 0.015986403 100
0.055190742 0.0077693462 0.047625721 49
0.05375886 0.011085987 0.047521047 32
0.044519544 0.002816081 0.048149079 100
0.040873885 0.0028323531 0.048253752 100
0.040286481 0.0080237389 0.04804441 72
0.047806323 0.024625659 0.047102362 30
0.039336324 0.018298984 0.047625721 28
0.031207323 0.011754751 0.048149079 17
0.027430177 0.011925876 0.048253752 8
0.015807152 0.00053781271 0.049091127 7
0.035762489 0.035319805 0.046997689 10
0.017219007 0.014174759 0.048463095 8
0.065416604 0.53647316 0.0093893949 15
0.085525811 0.55004716 0.0089705372 16
0.038536191 0.52779514 -0.0098780617 10
0.08838138 0.55336893 0.0089007271 32
0.066658169 0.54317451 -0.0093195848 11
0.080413252 0.55152678 0.0090403464 48
0.055030167 0.53971744 -0.0095290141 11
0.051047921 0.54847801 -0.0095290141 11
0.045846999 0.55036938 -0.0095988233 11
0.0671525 0.5615533 -0.0091799656 11
0.081102282 0.56961113 -0.0089007271 12
0.087805986 0.5742861 0.0087611079 16
0.034237504 0.55382866 0.029308135 34
0.08340326 0.57443547 -0.008830918 12
0.059347302 0.56626314 0.027842728 36
0.056901962 0.56524777 -0.0093195848 11
0.077077389 0.57565451 0.026796009 37
0.0709517 0.57313716 -0.0090403464 11
0.050537467 0.56668139 0.028261416 35
0.066597283 0.57321888 -0.0091101564 11
0.0053330064 0.55060345 0.030773543 32
-0.063022971 0.52790558 0.03454173 27
0.029181004 0.56631255 0.029308135 34
0.063236594 0.58168542 0.0091101564 16
-0.065483391 0.53423095 0.03454173 27
0.0095741749 0.56525093 0.010087491 14
0.00089406967 0.56196237 0.030773543 32
0.068781078 0.5896008 0.0089705372 16
-0.067154765 0.53864121 0.03454173 27
0.015657485 0.57181036 0.0099478718 14
-0.067958593 0.54079688 0.03454173 27
0.045005739 0.58469844 0.0093893949 15
-0.0012543201 0.56772387 0.030773543 32
0.0067681074 0.57281643 0.010087491 14
0.024326622 0.57918984 0.029308135 34
0.021139681 0.58011973 0.0098082526 14
0.023663759 0.58102596 0.029308135 34
0.0092071295 0.57785761 0.010017681 14
-0.071060002 0.54933888 0.03454173 27
0.012312949 0.58107233 0.0099478718 14
0.04191035 0.59336269 0.0093893949 15
-0.053257644 0.56263494 0.011134636 12
0.0028226376 0.58404529 0.010087491 14
-0.020570099 0.57831442 0.010506349 13
-0.040213704 0.57400519 0.010855397 13
-0.01049453 0.58604389 0.010296919 14
-0.014969528 0.5868662 0.010366729 13
-0.00037014484 0.59371918 0.010087491 14
-0.012421191 0.59202152 0.010296919 14
-0.016856253 0.59279251 0.010366729 13
-0.017471373 0.59477228 0.010366729 13
-0.025730491 0.59442091 0.010506349 13
-0.045424759 0.59045744 0.010855397 13
-0.038381636 0.59481943 0.010715778 13
-0.050531507 0.59359556 0.010925206 13
-0.051143646 0.59569287 0.010925206 13
-0.063252866 0.59438419 0.011134636 12
-0.044618845 0.601964 0.010785587 13
-0.045230746 0.60414445 0.010785587 13
-0.049662411 0.60516322 0.010855397 13
-0.065674245 0.60307109 0.011134636 12
-0.081707776 0.60108882 0.011413874 12
-0.089998543 0.60114402 0.011553493 11
-0.082842886 0.60539263 0.011413874 12
-0.095007002 0.60451031 0.011623302 11
-0.087826014 0.60872364 0.011483683 12
-0.076742828 0.61385161 0.011274255 12
-0.08699435 0.61365706 0.011448778 24
-0.093394458 0.61458421 0.011553493 11
-1.0427079 1.1339012 0.028517231 3
-1.0154555 1.1276746 0.084156215 5
-1.0174656 1.1281338 0.14066938 6
-1.0219491 1.1349365 0.028168185 10
-0.9927966 1.1281686 0.083004825 15
-1.0162058 1.1336031 0.14066938 26
-0.98757845 1.1326182 0.027574802 21
-1.0070884 1.1372193 0.083842203 82
-1.0129879 1.1386106 0.14049506 81
-0.99220186 1.1391114 0.027679516 37
-0.99809247 1.1405213 0.083423518 100
-1.0156324 1.1447192 0.14084367 87
-0.98896092 1.1440202 0.027644612 42
-0.97155982 1.1397911 0.082062781 100
-1.0085065 1.1487705 0.14032075 91
-0.99728662 1.152055 0.027819136 25
-0.97407228 1.146323 0.08227212 100
-0.99743646 1.152092 0.13944919 92
-0.9707275 1.151134 0.027365373 27
-0.98243612 1.1540685 0.082795486 56
-0.99609321 1.1574912 0.13944919 84
-0.96357375 1.1549612 0.027260659 38
-0.986893 1.1608922 0.083109498 35
-0.99086946 1.1619036 0.13910057 78
-0.96028453 1.1597426 0.027225753 61
-0.9777835 1.1642584 0.082690813 48
-0.98370451 1.1657863 0.13857763 91
-0.9647184 1.1665313 0.027330469 67
-0.96480507 1.166554 0.082062781 100
-0.98231357 1.1711376 0.13857763 89
-0.96332508 1.1718163 0.027330469 75
-0.95569021 1.1697891 0.081644088 92
-0.96935004 1.173416 0.13753176 98
-0.95039815 1.173715 0.027121039 83
-0.94857019 1.173223 0.081330076 96
-0.96030802 1.1763815 0.13683452 100
-0.94319218 1.1773709 0.027016325 93
-0.95486087 1.1805544 0.081748761 100
-0.9608025 1.1821753 0.13700883 99
-0.94176108 1.1825807 0.027016325 93
-0.94379359 1.1831428 0.081225403 100
-0.97855753 1.1927575 0.13875194 92
-0.9557156 1.1921035 0.027295563 92
-0.93464988 1.1861981 0.080806717 90
-0.95980662 1.1932504 0.13718314 94
-0.95238394 1.1965482 0.027260659 74
-0.93710428 1.1922101 0.081016064 82
-0.95264477 1.1966223 0.1366602 100
-0.95280761 1.2023427 0.027295563 59
-0.93946022 1.1985028 0.081225403 48
-0.93965811 1.1985598 0.13561434 100
-0.93585521 1.2033687 0.027016325 44
-0.92829281 1.2011631 0.080702044 22
-0.94764084 1.2068061 0.13648589 87
-0.92666239 1.2062862 0.026876707 68
-0.9172017 1.203491 0.080178685 28
-0.95183915 1.2137247 0.13700883 84
-0.9290393 1.2123265 0.026946515 78
-0.91001564 1.2066373 0.079864666 31
-0.93890637 1.2152774 0.13596296 92
-0.93131393 1.2186459 0.027016325 85
-0.92377466 1.2163625 0.080702044 74
-0.9278087 1.2175843 0.13509139 100
-0.91444439 1.2191234 0.026737086 89
-0.91647917 1.2197474 0.080388032 100
-0.92052287 1.2209876 0.13456847 99
-0.90140921 1.2206745 0.026527658 85
-0.91680771 1.2254559 0.080492698 88
-0.92274517 1.2272996 0.1349171 80
-0.89982718 1.2257382 0.026527658 88
-0.89615554 1.224584 0.07944598 76
-0.91733855 1.2312427 0.13456847 56
-0.9059307 1.2329674 0.026667276 81
-0.90035015 1.2311928 0.07976 76
-0.9195984 1.2373135 0.1349171 43
-0.90430576 1.2380466 0.026667276 83
-0.9044351 1.2380884 0.080074012 84
-0.90088886 1.2369471 0.13334829 48
-0.89133662 1.2391531 0.026457848 93
-0.89527816 1.2404361 0.079655327 100
-0.90501612 1.2436059 0.13387123 57
-0.87441367 1.2394255 0.02617861 96
-0.90113181 1.2482307 0.080074012 100
-0.90516275 1.2495592 0.13404553 77
-0.88043767 1.2466753 0.02631823 100
-0.89006382 1.2498831 0.079550654 100
-0.91112536 1.2569015 0.13474278 82
-0.88255495 1.2529432 0.026388038 99
-0.87513179 1.2504406 0.078817949 100
-0.90564078 1.2607259 0.13439415 77
-0.8809455 1.257691 0.026388038 93
-0.87731165 1.2564526 0.079027295 100
-0.9021197 1.2649076 0.13421984 89
-0.87150115 1.2605724 0.02624842 92
-0.8773213 1.262581 0.079131968 100
-0.88325816 1.2646298 0.13265105 100
-0.86609036 1.2639663 0.02617861 79
-0.87190837 1.2659957 0.078922622 99
-0.89665979 1.2746297 0.13404553 66
-0.86804169 1.2704843 0.02624842 79
-0.85501367 1.2658862 0.078085244 65
-0.89480048 1.2799287 0.13404553 36
-0.86637431 1.2751839 0.02624842 85
-0.84959918 1.2692008 0.077875905 25
-0.9024846 1.2880635 0.1349171 36
-0.86827523 1.2817292 0.02631823 100
-0.85903233 1.2783943 0.078503937 34
-0.8762123 1.2845931 0.13265105 30
-0.85529798 1.28232 0.0261088 96
-0.8592152 1.2837481 0.07860861 78
-0.86513871 1.2859076 0.13177948 16
-0.84590596 1.2847002 0.025969181 100
-0.85919672 1.2896006 0.078713275 100
-0.87445444 1.2952266 0.13282534 11
-0.84044367 1.2879303 0.025899371 100
-0.83874959 1.2872992 0.077666558 95
-0.8913756 1.3069019 0.13456847 1
-0.84246165 1.2939467 0.025969181 100
-0.82954925 1.2890881 0.077247873 46
-0.88585776 1.3102756 0.13421984 1
-0.83697802 1.2971406 0.025899371 83
-0.82408637 1.2922409 0.077038527 54
-0.84308511 1.2994616 0.130385 11
-0.82934421 1.3003094 0.025794657 71
-0.83884901 1.3039637 0.077980578 59
-0.8559193 1.3105266 0.13177948 48
-0.83130628 1.3063282 0.025864467 74
-0.84079438 1.3100121 0.078189917 68
-0.85040456 1.3137436 0.13143086 100
-0.82560843 1.309926 0.025794657 90
-0.8183549 1.3070791 0.077038527 63
-0.83727437 1.314505 0.130385 97
-0.82566935 1.3152215 0.025829561 100
-0.81842309 1.3123496 0.0771432 82
-0.83916551 1.3205705 0.13073361 97
-0.82366174 1.32026 0.025829561 100
-0.81828016 1.3181043 0.077247873 95
-0.8223421 1.3197314 0.12933913 99
-0.81070656 1.3203137 0.025620133 100
-0.82571286 1.3263828 0.077771232 97
-0.82235867 1.3250262 0.12951343 100
-0.80517155 1.3233111 0.025550323 100
-0.82386023 1.3309417 0.077771232 97
-0.82788879 1.3325865 0.13021068 100
-0.80078858 1.3215216 0.17914793 21
-0.80323189 1.3280382 0.025550323 100
-0.80158311 1.3273584 0.076619841 100
-0.82407469 1.3366332 0.13003637 100
-0.77683312 1.317152 0.17622307 16
-0.80856091 1.3360708 0.025689943 100
-0.78846949 1.3276993 0.075991809 100
-0.81831032 1.3401331 0.12968774 100
-0.78031594 1.324302 0.17695428 18
-0.80657667 1.3408096 0.025689943 100
-0.79756016 1.3370157 0.076619841 100
-0.80529326 1.3402696 0.12864187 100
-0.78935128 1.3335617 0.17841671 21
-0.78985232 1.3392856 0.025410704 100
-0.79741091 1.3424971 0.076724514 81
-0.79779321 1.3426596 0.12811895 100
-0.77641374 1.3335757 0.17695428 16
-0.80990952 1.35342 0.025829561 57
-0.82293648 1.3590087 0.07829459 40
-0.80127901 1.3497174 0.12864187 41
-0.77443844 1.3382024 0.17695428 9
-0.81163758 1.3595154 0.025899371 86
-0.80264717 1.355623 0.077247873 82
-0.82128984 1.3636942 0.13073361 41
-0.77619034 1.3441687 0.17744176 7
-0.79857761 1.3594594 0.025689943 100
-0.80242485 1.361141 0.077352546 100
-0.8228603 1.3700733 0.13108224 100
-0.78327268 1.3527696 0.17866045 28
-0.80738419 1.3692439 0.025899371 100
-0.80024904 1.3660939 0.077352546 100
-0.8115384 1.3710778 0.13021068 100
-0.78657573 1.3600576 0.17939167 35
-0.78884548 1.3666525 0.025585229 100
-0.80363303 1.3732425 0.077666558 100
-0.80215245 1.3725827 0.12951343 100
-0.78088158 1.3631034 0.17890419 31
-0.78868335 1.371909 0.025620133 100
-0.81437629 1.3834612 0.078399263 100
-0.80741543 1.3803315 0.13021068 100
-0.76985496 1.3634431 0.1776855 22
-0.78839511 1.3774047 0.025655037 100
-0.80131429 1.3832676 0.077771232 100
-0.81616241 1.3900063 0.13125655 100
-0.76958305 1.3688672 0.17792924 18
-0.80081111 1.3887348 0.025934275 100
-0.80098122 1.3888128 0.077875905 100
-0.82485837 1.3997495 0.13230242 100
-0.77109402 1.375123 0.17841671 17
-0.80590361 1.3968027 0.026073895 100
-0.80969042 1.3985531 0.078503937 100
-0.80094975 1.3945125 0.13021068 100
-0.77257746 1.3813968 0.17890419 12
-0.79294354 1.3962249 0.025864467 100
-0.80940872 1.4039026 0.07860861 100
-0.79887134 1.398989 0.13021068 100
-0.76874369 1.3849403 0.17866045 7
-0.78894001 1.4000573 0.025829561 100
-0.81080204 1.4103448 0.078817949 100
-0.80027312 1.4053903 0.1305593 100
-0.7773661 1.3946111 0.18012288 5
-0.79215175 1.4073005 0.025934275 100
-0.7995376 1.4108076 0.07829459 100
-0.8088457 1.4152274 0.13160518 100
-0.7697981 1.3966862 0.17939167 3
-0.79352576 1.4137096 0.026004085 100
-0.79549128 1.4146514 0.078189917 100
-0.81377238 1.4234102 0.13230242 100
-0.79667169 1.4210066 0.0261088 100
-0.79862732 1.421952 0.078503937 100
-0.80430812 1.4246981 0.13160518 100
-0.79079646 1.4239502 0.026038991 100
-0.80352396 1.4301577 0.078922622 100
-0.80201453 1.4294215 0.13160518 100
-0.78491706 1.4268606 0.025969181 100
-0.80479544 1.4366419 0.079131968 100
-0.80685526 1.4376554 0.13230242 100
-0.78978068 1.4350729 0.0261088 100
-0.79351526 1.4369268 0.07860861 100
-0.81165487 1.4459313 0.13299966 100
-0.79817921 1.4451178 0.02631823 100
-0.78760737 1.4398239 0.078399263 100
-0.81285006 1.4524645 0.13334829 100
-0.80295402 1.4534262 0.026457848 100
-0.80130559 1.4525936 0.079341307 100
-0.8033461 1.4536242 0.13265105 100
-0.79343313 1.4545133 0.02631823 100
-0.80247384 1.4591198 0.079550654 100
-0.79562587 1.4556305 0.1321281 100
-0.78759843 1.4571371 0.02624842 100
-0.80551082 1.4663389 0.079864666 100
-0.80752259 1.4673724 0.1335226 100
-0.78874272 1.4636419 0.02631823 100
-0.79775184 1.4683099 0.079550654 100
-0.81038707 1.4748565 0.13404553 100
-0.79706997 1.4736326 0.026527658 100
-0.79188818 1.4709258 0.079341307 100
-0.81334025 1.4821312 0.13456847 100
-0.79094392 1.4767004 0.026457848 93
-0.79284388 1.4777018 0.079550654 100
-0.79838282 1.4806209 0.13334829 100
-0.77623135 1.474576 0.026213514 33
-0.78872591 1.4812138 0.07944598 29
-0.79074043 1.4822841 0.13282534 65
0.12306452 1.2983518 0.13203983 5
0.15831679 1.2582017 0.010925206 13
0.13879624 1.2825325 0.03443706 27
0.098654032 1.3325665 0.063100755 19
0.117342 1.3092735 0.10950413 10
0.14334011 1.2768688 0.12631555 17
0.18537045 1.2244815 0.13452072 7
0.14742687 1.271775 0.17237349 7
0.15254775 1.2689506 0.011134636 50
0.17792025 1.2370987 0.031296901 62
0.15399984 1.2671276 0.055605363 49
0.14679235 1.2761757 0.07945881 14
0.16230434 1.2567024 0.09855371 24
0.14878157 1.2736785 0.12517071 78
0.18331653 1.2303243 0.13587044 15
0.14918086 1.2731773 0.17237349 14
0.15801322 1.2656295 0.011029921 100
0.17088032 1.2493603 0.032029606 91
0.15450162 1.2700696 0.055779677 98
0.16703278 1.2542253 0.075802729 30
0.17748478 1.2410096 0.095112152 38
0.15784934 1.2658367 0.122881 100
0.17888132 1.2392439 0.13811995 45
0.15453485 1.2700276 0.17082056 36
0.16715556 1.2575582 0.010820492 100
0.167622 1.2569642 0.032448292 100
0.15132773 1.2777152 0.056476921 100
0.15523979 1.2727332 0.078483857 28
0.17669126 1.2454144 0.095737889 25
0.16806987 1.2563939 0.12020966 100
0.19255668 1.2252095 0.13362093 46
0.15747577 1.2698855 0.17030293 43
0.16754472 1.260402 0.010855397 100
0.15941283 1.270829 0.03328567 86
0.15546408 1.2758923 0.056128297 100
0.17766231 1.2474287 0.074340299 30
0.17584023 1.249765 0.096363634 25
0.18055105 1.2437246 0.1167751 100
0.18208393 1.2417591 0.13811995 37
0.14725524 1.2864181 0.17547931 42
0.17538011 1.2538283 0.010680873 80
0.19050959 1.2342882 0.030773543 64
0.15967193 1.2741157 0.055779677 49
0.18054643 1.2471559 0.07409656 30
0.17267978 1.2573159 0.097615108 24
0.18100497 1.2465637 0.11715672 39
0.19327736 1.2307137 0.13452072 31
0.14551216 1.2924032 0.17703223 27
0.1673215 1.2678163 0.010960111 77
0.17874286 1.2529585 0.031924933 30
0.16629109 1.2691567 0.055082429 50
0.18826339 1.2405735 0.072877869 47
0.18401432 1.2461009 0.095112152 38
0.17668816 1.2556313 0.11906482 13
0.2020137 1.2226861 0.13182132 23
0.14616081 1.2953436 0.17754987 54
0.17512742 1.2612008 0.010785587 52
0.16831395 1.2701285 0.032971654 29
0.16440958 1.2752445 0.055605363 49
0.18388659 1.2497234 0.07409656 61
0.19886115 1.2301022 0.091670595 54
0.18910527 1.2428854 0.11563025 13
0.20123148 1.2269963 0.13272113 31
0.1690934 1.2691072 0.16823238 60
0.17925957 1.2593186 0.010715778 53
0.17247435 1.2682741 0.032762308 29
0.17580125 1.263883 0.054210871 51
0.17117772 1.2699853 0.077021427 87
0.19331172 1.240772 0.093547814 52
0.19905746 1.2331885 0.11295892 13
0.21224362 1.2157848 0.1291219 48
0.17900452 1.2596552 0.16460891 69
0.18818218 1.2510213 0.010506349 40
0.15500653 1.2951269 0.03443706 27
0.17992282 1.2620018 0.053862248 51
0.18843785 1.2506814 0.073852822 93
0.19614461 1.2404356 0.093234941 53
0.20893747 1.223428 0.1102876 14
0.20443037 1.2294199 0.13272113 39
0.17142582 1.2732981 0.16875002 81
0.18986347 1.2522813 0.010506349 68
0.18074214 1.2644962 0.032343622 30
0.18402666 1.2600977 0.053513627 52
0.1913057 1.25035 0.073609084 77
0.19660699 1.2432506 0.093547814 52
0.19525167 1.2450657 0.11524864 13
0.20836812 1.2275006 0.13182132 31
0.17318496 1.2746165 0.16875002 66
0.18083134 1.2679933 0.010820492 78
0.19436467 1.2497374 0.031296901 62
0.17506102 1.2757773 0.055082429 50
0.19534895 1.2484097 0.073121607 78
0.20061386 1.2413075 0.092922069 66
0.20158878 1.2399924 0.11372216 20
0.2169303 1.2192973 0.1291219 32
0.18070102 1.2681692 0.16616182 76
0.18968341 1.2596155 0.010611063 81
0.20669571 1.2364984 0.030354854 65
0.18509525 1.2658501 0.053862248 77
0.19466788 1.2528424 0.073609084 93
0.20928618 1.2329783 0.091044858 81
0.19624957 1.2506931 0.11601187 13
0.21619058 1.2235963 0.13002171 24
0.18816742 1.2616755 0.16357364 69
0.19139469 1.2608702 0.010611063 94
0.20950437 1.2360811 0.030250182 65
0.185653 1.2687297 0.054036561 77
0.19869748 1.2508739 0.073121607 78
0.20973909 1.2357599 0.09135773 94
0.20951092 1.2360722 0.11219569 14
0.22467333 1.2153174 0.1273223 16
0.19216508 1.2598157 0.16253836 70
0.19545829 1.2588813 0.010541254 95
0.21347848 1.2340331 0.03004084 66
0.19090518 1.2651597 0.053513627 100
0.19338575 1.2617393 0.074584037 91
0.21368638 1.2337465 0.090731993 95
0.21344507 1.2340792 0.11143246 14
0.24224666 1.1943644 0.12102367 17
0.1950112 1.2594979 0.16202073 70
0.1995036 1.2568703 0.010471444 96
0.21043271 1.2416887 0.030459527 65
0.19030768 1.2696441 0.053862248 100
0.21134147 1.2404263 0.071171694 65
0.20722839 1.2461398 0.092922069 92
0.21506706 1.2352512 0.11143246 14
0.24372986 1.195436 0.12102367 17
0.19446465 1.2638698 0.163056 70
0.20112005 1.2580298 0.010471444 96
0.21896785 1.2330635 0.029831495 66
0.18501443 1.2805591 0.054908119 100
0.20828557 1.2480063 0.072146654 79
0.21914834 1.232811 0.090106249 96
0.20519429 1.2523305 0.11524864 20
0.23494264 1.2107172 0.12507279 16
0.19385737 1.2681892 0.16409127 69
0.20051122 1.2625062 0.010541254 95
0.21249539 1.245618 0.030564198 97
0.20063508 1.2623317 0.05281638 100
0.2099562 1.2491963 0.072146654 79
0.21619317 1.240407 0.09135773 100
0.20233542 1.2599356 0.1167751 26
0.22746086 1.2245283 0.128672 16
0.19671655 1.2678539 0.16357364 69
0.2045356 1.2604536 0.010471444 96
0.21415767 1.2467932 0.030564198 97
0.20465046 1.2602905 0.052467756 100
0.20705843 1.2568719 0.073121607 100
0.21783724 1.2415693 0.09135773 94
0.20743942 1.256331 0.11563025 60
0.22456062 1.2320242 0.13047162 32
0.20401892 1.2611871 0.16098544 80
0.21083307 1.255101 0.010331824 98
0.22154623 1.2397783 0.03004084 99
0.19951409 1.2712903 0.053513627 100
0.21558481 1.2483047 0.071659178 80
0.21608964 1.2475827 0.092296332 100
0.21138903 1.2543058 0.11486702 100
0.22505873 1.2347544 0.13092151 64
0.20573559 1.2623918 0.16098544 80
0.20796803 1.2628534 0.010471444 96
0.22774294 1.2343585 0.029622151 100
0.20353794 1.2692369 0.053165004 100
0.22404712 1.2396841 0.07019674 99
0.22226372 1.2422539 0.091044858 100
0.22539428 1.2377429 0.11066922 85
0.23223829 1.227881 0.128672 73
0.20745647 1.2635906 0.16098544 72
0.21422794 1.257457 0.010331824 98
0.22596687 1.2404151 0.029936166 99
0.20528272 1.2704432 0.053165004 100
0.21667996 1.2538973 0.072146654 100
0.22727591 1.2385147 0.090106249 100
0.21811941 1.2518076 0.11372216 100
0.23162761 1.232197 0.12957181 88
0.20479798 1.271147 0.163056 70
0.21593153 1.2586261 0.010331824 84
0.22873813 1.2398945 0.029831495 99
0.20928067 1.2683541 0.05281638 100
0.22397295 1.2468643 0.070927955 65
0.23002815 1.2380077 0.089793384 100
0.21980327 1.2529631 0.11372216 89
0.2332429 1.2333056 0.12957181 96
0.21309134 1.2627803 0.15995017 72
0.21876204 1.2581346 0.010296919 56
0.23598769 1.2327497 0.029308135 68
0.216616 1.2612971 0.051944822 81
0.21783704 1.2594976 0.072634131 78
0.23610049 1.2325834 0.08854191 100
0.22479826 1.2492392 0.1125773 100
0.23157939 1.239246 0.13092151 100
0.21698299 1.2607563 0.15891489 73
0.22493619 1.2526534 0.0101573 42
0.20971248 1.2752576 0.031924933 30
0.21054214 1.2740257 0.053165004 52
0.22841892 1.2474823 0.070684217 81
0.22999284 1.2451453 0.090731993 100
0.22756982 1.2487431 0.11219569 100
0.23213071 1.241971 0.13137141 94
0.21330228 1.2699274 0.16150309 86
0.21773285 1.2670851 0.010436539 41
0.22701693 1.2531958 0.030459527 32
0.21008921 1.2785203 0.053513627 52
0.22788131 1.2519026 0.071171694 81
0.23714209 1.2380481 0.089167647 98
0.23251593 1.244969 0.11105084 91
0.23702896 1.2382174 0.13002171 100
0.21934366 1.2646753 0.15943253 73
0.21947002 1.2682419 0.010436539 41
0.22428915 1.2609775 0.030878214 31
0.20746067 1.2863448 0.054210871 51
0.23834446 1.2397906 0.069221787 83
0.23659375 1.2424295 0.089793384 100
0.23417583 1.2460743 0.11105084 91
0.2429744 1.2328113 0.12822211 97
0.21786857 1.2706559 0.16098544 72
0.22670937 1.2610416 0.010262015 28
0.21062893 1.285466 0.032343622 30
0.22241247 1.2675681 0.052119136 54
0.23343664 1.2508236 0.070684217 98
0.24367604 1.2352712 0.088229038 98
0.23260078 1.2520932 0.11219569 91
0.24887821 1.2273697 0.12642249 82
0.22811678 1.2589039 0.15684435 82
0.23153675 1.2570338 0.0101573 28
0.20569173 1.2965593 0.032971654 29
0.23706177 1.2485843 0.050027397 57
0.2251713 1.2667687 0.072877869 100
0.24081498 1.2428443 0.089480512 97
0.24056348 1.243229 0.10990598 92
0.24818358 1.2315754 0.1273223 89
0.22859704 1.2615296 0.15736198 90
0.23759285 1.2514327 0.010017681 43
0.24667108 1.2374427 0.029203463 34
0.23222694 1.2597017 0.051073264 55
0.23879367 1.2495821 0.07019674 82
0.24569327 1.2389495 0.08854191 84
0.24756071 1.2360718 0.10799789 87
0.24237108 1.2440692 0.13047162 96
0.22610837 1.2691307 0.15943253 73
0.2393595 1.2525744 0.010017681 43
0.25271058 1.2318337 0.028784776 34
0.22108293 1.2809668 0.053165004 52
0.24270245 1.2473812 0.069709264 83
0.24741408 1.2400618 0.08854191 84
0.24502039 1.2437804 0.10952436 85
0.2557134 1.2271689 0.12552269 90
0.23003125 1.2670656 0.15839726 73
0.24104589 1.2536559 0.010017681 43
0.2478734 1.2429676 0.029412808 67
0.22823134 1.2737164 0.052293446 80
0.2411648 1.2534697 0.070440479 65
0.25118357 1.2377857 0.087916173 70
0.24667603 1.2448421 0.10952436 78
0.2604582 1.2232666 0.12417299 83
0.22864836 1.2730637 0.15995017 72
0.23631239 1.2648652 0.01022711 70
0.24738759 1.2473931 0.029622151 100
0.22999161 1.2748365 0.052293446 80
0.23754036 1.2629279 0.071659178 64
0.25493342 1.2354891 0.087290429 71
0.24202883 1.255847 0.11181407 98
0.25578222 1.2341501 0.12687239 90
0.23454347 1.2676557 0.15787962 65
0.24442995 1.255801 0.010017681 58
0.24692905 1.2518278 0.029831495 99
0.23918146 1.264145 0.051073264 83
0.24877527 1.2488927 0.069465525 49
0.25866359 1.2331719 0.086664692 71
0.25836083 1.2336533 0.10647142 81
0.26051691 1.2302256 0.12552269 90
0.24245405 1.2589422 0.15477379 67
0.24824515 1.2534719 0.0099478718 87
0.25284278 1.2461054 0.029412808 100
0.23879841 1.2686074 0.051421888 82
0.25255087 1.2465732 0.068978049 50
0.25819033 1.2375376 0.087290429 57
0.24958614 1.2513233 0.1102876 99
0.25696611 1.2394991 0.1277722 89
0.2390483 1.2682071 0.15736198 74
0.2478289 1.2579224 0.010017681 72
0.2545065 1.2471399 0.029412808 100
0.23424667 1.2798538 0.052467756 80
0.25421622 1.2476087 0.068978049 50
0.25774398 1.2419122 0.087916173 70
0.25747013 1.2423544 0.10799789 79
0.26373693 1.2322353 0.12552269 99
0.23570356 1.2775013 0.15995017 64
0.24936324 1.2588693 0.010017681 87
0.25600696 1.2480658 0.029412808 100
0.24315581 1.2689632 0.051247578 82
0.25779787 1.2451535 0.068490572 50
0.26129755 1.2394627 0.087290429 71
0.24764284 1.2616668 0.11219569 84
0.27029461 1.2248325 0.12327318 85
0.23527554 1.2817774 0.16098544 64
0.2521131 1.2582086 0.0099827768 87
0.26183867 1.2422694 0.028994121 100
0.24489939 1.2700312 0.051247578 82
0.26359406 1.2393924 0.067515619 51
0.2670536 1.2337226 0.086038955 58
0.24629319 1.2677469 0.11334054 96
0.26782387 1.2324601 0.12507279 100
0.24712613 1.2663819 0.15580906 67
0.25908098 1.250743 0.0098082526 74
0.25633329 1.2552836 0.029726824 100
0.25704929 1.2541003 0.049504463 86
0.25298354 1.2608191 0.070440479 49
0.27182326 1.2296865 0.085100345 58
0.26641533 1.238623 0.10647142 73
0.26952079 1.2334913 0.12507279 100
0.25694889 1.2542663 0.15166797 69
0.26076084 1.2517556 0.0098082526 59
0.2590571 1.2545934 0.029622151 100
0.25361311 1.2636609 0.05037602 100
0.26082945 1.2516414 0.068978049 50
0.26834556 1.2391226 0.086664692 57
0.26097891 1.2513924 0.10914274 92
0.27114037 1.2344675 0.12507279 83
0.2467083 1.2751615 0.15787962 65
0.26551422 1.2476083 0.0097035384 90
0.26483876 1.2487423 0.029203463 100
0.24820098 1.2766746 0.051596198 82
0.26048073 1.2560587 0.069465525 49
0.26796305 1.2434971 0.087290429 57
0.26366574 1.2507117 0.10876112 72
0.27974415 1.2237184 0.12192347 85
0.2504507 1.2728977 0.15684435 66
0.26209649 1.2572063 0.0098780617 73
0.26854378 1.2462958 0.028994121 100
0.25199866 1.2742944 0.051247578 82
0.26823854 1.2468123 0.068003096 51
0.27464235 1.2359755 0.08572609 58
0.26334789 1.2550886 0.10952436 85
0.28331238 1.2213036 0.12102367 86
0.25810486 1.2639612 0.15373851 68
0.26278761 1.2599335 0.0099129668 87
0.27020809 1.2472754 0.028994121 100
0.25577602 1.271894 0.050898954 83
0.26187325 1.2614932 0.069953002 49
0.27826861 1.2335255 0.085100345 58
0.26702869 1.2526989 0.10876112 79
0.28291824 1.225594 0.12192347 85
0.26278761 1.2599335 -0.0099129668 87
0.25983086 1.2649771 0.15373851 68
0.26248899 1.2643902 0.0099827768 87
0.26986769 1.2517022 0.029203463 100
0.26554263 1.2591393 0.049504463 100
0.26359063 1.2624959 0.069953002 49
0.27690911 1.2395941 0.086038955 58
0.27068928 1.2502894 0.10799789 79
0.27765253 1.2383157 0.12507279 83
0.26058924 1.2676569 0.15425615 75
0.27620739 1.2446052 0.0095639192 91
0.26955479 1.2561371 0.029412808 100
0.26924297 1.2566776 0.049155839 87
0.26729539 1.2600536 0.069465525 49
0.27953705 1.2388334 0.08572609 58
0.27432957 1.2478603 0.10723466 81
0.2851316 1.2291355 0.12237337 76
0.26421648 1.2653909 -0.0099827768 86
0.26522419 1.263644 0.15270324 68
0.27389297 1.2525005 0.0097035384 90
0.27918929 1.2432451 0.028575432 100
0.26500612 1.2680304 0.050201707 85
0.26999366 1.2593145 0.069221787 67
0.2801941 1.2414892 0.086038955 58
0.2740491 1.2522277 0.10799789 87
0.29351109 1.2182176 0.11922406 87
0.26503009 1.2679886 0.15373851 68
0.27450711 1.2551523 0.0097384425 75
0.27977389 1.2458774 0.028680105 100
0.26764306 1.2672402 0.050027397 85
0.27651894 1.2516094 0.068003096 51
0.2856608 1.2355103 0.084787481 59
0.28049693 1.2446041 0.1060898 73
0.29211202 1.2241495 0.12057377 77
0.26477519 1.2722906 0.15477379 67
0.27816498 1.2526264 0.0096686333 75
0.27947634 1.2502981 0.028889447 100
0.2684027 1.2699587 0.050201707 85
0.27333078 1.2612092 0.069221787 67
0.28922617 1.2329879 0.084161744 74
0.27637443 1.2558054 0.10837951 87
0.29082984 1.2301407 0.12192347 85
0.27522093 1.2578534 -0.0097733475 88
0.27032247 1.2665503 0.15270324 68
0.28375238 1.2465893 0.0095290141 92
0.27920637 1.2547268 0.029098792 100
0.27986661 1.2535449 0.048458595 88
0.28182411 1.250041 0.067515619 51
0.28795367 1.2390689 0.085100345 58
0.28190184 1.2499018 0.10685304 81
0.29148719 1.2327439 0.12237337 76
0.27107394 1.269284 -0.0099827768 96
0.28147924 1.2506583 0.14752686 71
0.2825101 1.2527633 0.0096337283 90
0.28283602 1.2521751 0.028889447 100
0.27769366 1.2614559 0.049155839 87
0.28350142 1.2509742 0.067515619 51
0.29055002 1.2382529 0.084787481 59
0.28453013 1.2491175 0.10647142 73
0.29215959 1.235348 0.12282328 85
0.27281845 1.2702546 -0.0099827768 86
0.27754098 1.2617315 0.15063268 70
0.28716958 1.2484823 0.0095290141 76
0.29037452 1.2426478 0.028261416 100
0.27661905 1.2676895 0.049678773 86
0.2871775 1.2484679 0.067028143 69
0.28941488 1.2443948 0.08572609 58
0.28439757 1.2535287 0.10723466 81
0.27562475 1.2694997 0.15270324 68
0.28405827 1.258177 0.0097035384 90
0.29011503 1.2470589 0.02847076 100
0.27740484 1.2703904 0.049853086 85
0.28694999 1.2528689 0.067515619 51
0.29296237 1.2418321 0.085100345 58
0.28326944 1.259625 0.10837951 79
0.28214502 1.2616891 -0.0097733475 88
0.27921835 1.2670615 0.15166797 69
0.28282619 1.2643338 0.0098082526 74
0.28979915 1.2514322 0.028680105 100
0.28474966 1.260775 0.048807215 88
0.28477728 1.2607238 0.068490572 50
0.29828539 1.2357306 0.083848871 59
0.28676149 1.2570525 0.10761628 79
0.2818754 1.266093 -0.0098431576 87
0.28362375 1.2628582 0.15011504 78
0.29211056 1.2511634 0.0095290141 92
0.29525527 1.2452961 0.028261416 100
0.28458199 1.26521 0.049155839 87
0.28461632 1.265146 0.068978049 50
0.29617998 1.2435708 0.085100345 58
0.29217297 1.2510469 0.1060898 73
0.28171942 1.270551 -0.0099129668 87
0.29173398 1.251866 0.14649157 72
0.29379171 1.2520607 0.0095290141 76
0.2987906 1.2426552 0.028052073 100
0.29846802 1.2432621 0.046889789 91
0.2956627 1.2485404 0.066540658 52
0.2966179 1.2467432 0.10494494 75
0.28979099 1.2595881 0.14856213 79
0.29454365 1.2547212 0.0095639192 91
0.29671726 1.2505968 0.02847076 100
0.28711674 1.2688135 0.049330149 87
0.29363263 1.2564498 0.067515619 51
0.29828358 1.2476248 0.10494494 75
0.28522044 1.2724116 -0.0099129668 87
0.28699809 1.2690387 0.15115032 77
0.29253262 1.2626991 0.0097035384 90
0.2851685 1.2767913 0.050027397 85
0.29533222 1.2573417 0.067515619 51
0.29449674 1.2589405 0.10723466 81
0.28882807 1.2697883 -0.0098431576 87
0.28784692 1.2716658 0.15166797 69
0.29977375 1.2529416 0.0094941091 92
0.29427183 1.2635604 0.048632905 88
0.29520845 1.2617528 0.068003096 51
0.28781441 1.2760234 -0.0099478718 100
0.28959969 1.2725778 0.15166797 69
0.29963788 1.2573612 0.047935657 59
0.29874068 1.2591077 0.067515619 51
0.29049608 1.2751569 -0.0099129668 100
0.29135346 1.2778416 -0.0099478718 100
0.29662162 1.2674978 0.14959741 78
0.29945433 1.2662113 0.048632905 59
0.29661828 1.2718282 0.15063268 70
0.29401007 1.281423 -0.0099827768 100
0.29837155 1.2727096 0.15063268 78
0.29937962 1.2840756 -0.0099827768 100
