# .PCD v0.7 - Point Cloud Data file format
VERSION 0.7
FIELDS x y z intensity
SIZE 4 4 4 4
TYPE F F F F
COUNT 1 1 1 1
WIDTH 793
HEIGHT 1
VIEWPOINT 0 0 0 1 0 0 0
POINTS 793
DATA ascii
-1.1722701 0.16496046 0.020663649 25
-1.1273308 0.15863666 0.05966299 30
-1.1202561 0.16143136 0.019756123 5
-1.0365728 0.15325262 0.018290121 6
-1.0241685 0.15507378 0.018080693 5
-1.0374538 0.16079174 0.018325027 1
-0.29927 0.97703803 0.01783636 1
-0.2832835 0.93591833 0.017068453 1
-0.28328505 0.94844663 0.017277882 2
-0.28240207 0.95705259 0.017417502 2
-0.27905962 0.95803255 0.017417502 1
-0.27145818 0.94357866 0.017138263 5
-0.26745215 0.94264352 0.017103359 4
-0.26702195 0.95315307 0.017277882 1
-0.26172751 0.94632393 0.017138263 1
-0.2628012 0.96261942 0.017417502 1
-0.25079516 0.9327237 0.016859025 1
-0.24872644 0.9374159 0.016928835 2
-0.24984072 0.95573336 0.017242977 3
-0.24367404 0.94493854 0.017033549 6
-0.23840381 0.93803102 0.016893929 3
-0.23772259 0.94851494 0.017068453 2
-0.21144718 0.89728212 0.016091119 2
-0.21086626 0.90973938 0.016300548 2
-0.20250744 0.88703918 0.015881689 5
-0.19984813 0.88969171 0.015916595 7
-0.19991924 0.90401721 0.016160928 10
-0.1898104 0.87347841 0.015602452 9
-0.18816724 0.87996954 0.015707165 8
-0.18247485 0.86891127 0.015497737 8
-0.18282834 0.88517845 0.015776975 7
-0.17655618 0.87013316 0.015497737 8
-0.17601664 0.88248026 0.015707165 8
-0.16986074 0.86738992 0.015427927 8
-0.16547227 0.86009371 0.015288308 8
-0.16216853 0.86072272 0.015288308 8
-0.16149576 0.87305379 0.015497737 8
-0.15773351 0.86967701 0.015427927 8
-0.15204601 0.85444516 0.015148689 8
-0.14891329 0.85499668 0.015148689 8
-0.14660037 0.85945374 0.015218498 8
-0.1429407 0.85601544 0.015148689 8
-0.14124165 0.86440331 0.015288308 8
-0.13616295 0.85104483 0.015043974 12
-0.13319142 0.85151494 0.015043974 10
-0.12991615 0.84999794 0.01500907 9
-0.12842445 0.86033517 0.015183593 11
-0.12555827 0.86277896 0.015218498 12
-0.12029731 0.84737325 0.01493926 13
-0.11748665 0.84776747 0.01493926 9
-0.18383136 1.3614357 0.023979606 10
-0.18585528 1.4136175 0.024887132 15
0.053333521 0.00050479174 0.015986403 123
0.05561471 0.0098757148 0.047521047 41
0.043098867 0.0024106503 0.016056214 8
0.04701829 0.0083457232 0.047835063 100
0.041043401 0.0051177144 0.048149079 88
0.046162128 0.018511415 0.047416378 79
0.045778036 0.023584723 0.047207031 40
0.038680553 0.018744886 0.047625721 19
0.036061287 0.020534337 0.047625721 19
0.026768804 0.012382209 0.048253752 8
0.024127424 0.014213204 0.048253752 8
0.030663967 0.029137135 0.047416378 9
-0.54039103 0.57420057 0.019337267 10
-0.55492169 0.57596773 0.019581599 47
-0.55752975 0.57929349 0.019616505 56
-0.5444178 0.58567888 0.019372171 35
-0.53910404 0.59028578 0.019267457 35
-0.54172963 0.59396046 0.019302361 42
-0.54230732 0.59758174 0.019302361 49
-0.54682559 0.6005944 0.019372171 50
-0.53156322 0.60662198 0.019092932 49
-0.54009622 0.60961175 0.019232552 49
-0.54656011 0.61237395 0.019337267 40
-0.58076924 0.61148322 0.019930648 29
-0.60308236 0.61225235 0.0203146 19
-0.6135909 0.61536384 0.020489125 16
-0.64979368 0.61459982 0.021117412 16
-0.70590883 0.61200982 0.022094747 17
-0.74016863 0.61204433 0.022688128 25
-0.73276931 0.61749309 0.02254851 9
-1.048301 1.1363534 0.028621947 5
-1.0015779 1.1256437 0.083423518 5
-1.0366354 1.1336794 0.14241248 6
-1.0217578 1.1357595 0.028168185 10
-1.0081711 1.1325978 0.083842203 28
-1.0179558 1.1348747 0.14084367 39
-0.98738843 1.1334232 0.027574802 30
-1.0030086 1.1371157 0.083632857 88
-1.0166726 1.1403457 0.14084367 81
-0.98027712 1.137387 0.027470088 38
-0.99977559 1.1420681 0.083528183 100
-1.0173078 1.1462772 0.14101799 87
-0.98481375 1.1441473 0.027574802 41
-0.97324175 1.1413263 0.082167454 100
-1.0082419 1.1498584 0.14032075 91
-0.99708635 1.1528652 0.027819136 23
-0.98356885 1.1495199 0.082795486 99
-0.99723619 1.1529022 0.13944919 91
-0.97246712 1.1524173 0.027400278 27
-0.98223478 1.1548707 0.082795486 46
-0.99202543 1.15733 0.13910057 82
-0.9633047 1.1560178 0.027260659 42
-0.98661977 1.1619651 0.083109498 33
-0.9905954 1.1629792 0.13910057 80
-0.96388394 1.161799 0.027295563 61
-0.97944146 1.1658252 0.082795486 63
-0.98535663 1.1673561 0.13875194 94
-0.96637541 1.1680965 0.027365373 67
-0.96066433 1.1665971 0.081853434 100
-0.98396021 1.172713 0.13875194 91
-0.96311444 1.1726086 0.027330469 75
-0.95548064 1.1705774 0.081644088 88
-0.97106403 1.1747239 0.13770607 99
-0.95204657 1.1752832 0.027155945 81
-0.96178633 1.1779113 0.082062781 100
-0.96002394 1.1774358 0.13683452 100
-0.94683653 1.1792073 0.027086135 93
-0.95657223 1.1818689 0.081853434 100
-0.96443015 1.1840172 0.13735744 100
-0.94918066 1.1857595 0.027155945 93
-0.94158024 1.1836518 0.081120729 100
-0.97058231 1.1916947 0.1380547 91
-0.94779366 1.1907287 0.027155945 92
-0.93635458 1.1875155 0.08091139 90
-0.95958477 1.1940408 0.13718314 98
-0.95585746 1.1989548 0.027330469 71
-0.927131 1.1907718 0.080492698 76
-0.95227188 1.1979334 0.1366602 100
-0.95634812 1.2045002 0.027365373 52
-0.93340367 1.1978819 0.08091139 38
-0.93935853 1.1995996 0.13561434 99
-0.93570381 1.2038872 0.027016325 48
-0.93581086 1.2039186 0.081120729 24
-0.9513132 1.2084459 0.13683452 84
-0.92850393 1.2071109 0.026911611 71
-0.91904134 1.2043133 0.080283359 28
-0.94602972 1.2122923 0.13648589 85
-0.92689186 1.2125269 0.026911611 75
-0.90978676 1.2074016 0.079864666 36
-0.93676442 1.2154851 0.13578865 98
-0.92350262 1.2168417 0.026876707 78
-0.91788477 1.2151381 0.080388032 84
-0.92765242 1.2181001 0.13509139 100
-0.91038603 1.2187154 0.026667276 88
-0.91815263 1.2211018 0.080492698 100
-0.92028648 1.2217574 0.13456847 99
-0.90125185 1.2211812 0.026527658 85
-0.91664857 1.2259679 0.080492698 82
-0.92448801 1.2284051 0.13509139 73
-0.9034031 1.2276986 0.026597468 83
-0.90353733 1.2277408 0.079864666 72
-0.91519648 1.2314124 0.13439415 50
-0.90187734 1.2325157 0.026597468 83
-0.89249629 1.2295272 0.079341307 82
-0.91555673 1.2368734 0.13456847 43
-0.91150874 1.2417728 0.026806897 83
-0.90022463 1.2381303 0.079864666 91
-0.90427297 1.2394371 0.13369691 47
-0.89092666 1.2404108 0.026457848 96
-0.8986643 1.2429368 0.079864666 100
-0.91028434 1.2467303 0.13439415 63
-0.87788314 1.2416743 0.02624842 100
-0.90079755 1.2492436 0.080074012 100
-0.91050321 1.2524498 0.13456847 80
-0.8801046 1.2476737 0.02631823 99
-0.8840453 1.2489901 0.079236634 100
-0.90700549 1.256659 0.13439415 84
-0.88204843 1.254443 0.026388038 99
-0.87841171 1.2532128 0.079027295 100
-0.9089008 1.2635269 0.13474278 78
-0.88043398 1.2591892 0.026388038 96
-0.87680143 1.257947 0.079027295 100
-0.88840419 1.261915 0.13299966 97
-0.86729306 1.2605047 0.02617861 89
-0.87311608 1.26252 0.078922622 100
-0.88470882 1.2665321 0.13282534 97
-0.8656587 1.2652019 0.02617861 79
-0.87147492 1.2672365 0.078922622 91
-0.90186077 1.2778655 0.13456847 56
-0.86023813 1.2685606 0.0261088 78
-0.85287076 1.2659562 0.077980578 53
-0.89265484 1.280021 0.13387123 38
-0.86216706 1.2750729 0.02617861 88
-0.85104364 1.2710946 0.077980578 19
-0.89827996 1.2879889 0.13456847 40
-0.86782807 1.2829667 0.02631823 96
-0.86422259 1.2816622 0.078817949 48
-0.87201566 1.2844818 0.13230242 24
-0.85091525 1.2826622 0.026038991 96
-0.85483521 1.2840967 0.078399263 89
-0.85702318 1.2848973 0.13108224 15
-0.8381328 1.2826598 0.025829561 100
-0.86079794 1.2910304 0.078817949 100
-0.87604827 1.2966626 0.13299966 7
-0.83999115 1.2891434 0.025899371 100
-0.83829767 1.2885109 0.077666558 80
-0.87224191 1.3011887 0.13282534 1
-0.84191221 1.2954047 0.025969181 100
-0.82713634 1.2898271 0.0771432 46
-0.85919493 1.3019283 0.13177948 1
-0.84558183 1.3026419 0.026073895 75
-0.83455175 1.298432 0.077666558 53
-0.84420592 1.3021166 0.1305593 13
-0.83270568 1.3027101 0.025864467 71
-0.83474845 1.3034971 0.077771232 59
-0.84438652 1.3072103 0.13073361 52
-0.82515389 1.3055971 0.025759751 78
-0.83836704 1.3107435 0.078085244 63
-0.85354739 1.3166559 0.13177948 100
-0.82718652 1.3113779 0.025829561 96
-0.81993228 1.3085262 0.0771432 61
-0.84626037 1.3188758 0.13125655 100
-0.82519311 1.3164219 0.025829561 99
-0.81609315 1.3128061 0.077038527 90
-0.84238762 1.323254 0.13108224 97
-0.82708532 1.3224683 0.025899371 100
-0.82355386 1.3210516 0.077561885 97
-0.82760149 1.3226753 0.12986206 100
-0.80651945 1.3199983 0.025550323 100
-0.82522684 1.3275831 0.077771232 97
-0.82925934 1.329218 0.13021068 100
-0.80468816 1.3244936 0.025550323 100
-0.81967336 1.3306272 0.077561885 97
-0.81449002 1.3285055 0.1289905 100
-0.8026467 1.329455 0.025550323 100
-0.80653566 1.3310635 0.076933853 100
-0.81611603 1.3350259 0.12933913 100
-0.77075619 1.3162651 0.17549185 16
-0.80437607 1.3357147 0.025620133 100
-0.79166824 1.3304067 0.076201156 100
-0.82148927 1.3428628 0.13003637 100
-0.7706731 1.3216372 0.17573559 16
-0.80597824 1.3422298 0.025689943 100
-0.78408486 1.3329909 0.075887136 99
-0.8083666 1.3432379 0.1289905 100
-0.78510255 1.3334203 0.17792924 24
-0.79313439 1.3417873 0.025480513 89
-0.80252391 1.3457847 0.077038527 72
-0.79922622 1.3443809 0.12829325 93
-0.77236706 1.3329465 0.17646681 16
-0.81307393 1.3561865 0.025899371 57
-0.82425672 1.3609957 0.078399263 46
-0.81907576 1.3587675 0.130385 31
-0.77394205 1.3393579 0.17695428 5
-0.80939108 1.35967 0.025864467 90
-0.80407029 1.357362 0.077352546 97
-0.83915335 1.3725802 0.13247673 58
-0.7666834 1.3411446 0.17622307 15
-0.80538911 1.3638461 0.025829561 100
-0.8055672 1.363924 0.077561885 100
-0.82233614 1.3712711 0.13108224 100
-0.7900365 1.3571194 0.17963541 33
-0.80524141 1.3691459 0.025864467 100
-0.79811007 1.3659933 0.077247873 100
-0.81486791 1.3734018 0.1305593 100
-0.79716009 1.3655732 0.18085411 42
-0.79208046 1.3692175 0.025655037 100
-0.80685896 1.3758159 0.077875905 100
-0.80537003 1.3751512 0.12986206 100
-0.78227979 1.3648417 0.17914793 29
-0.79555577 1.3761287 0.025759751 100
-0.81394774 1.3844137 0.078399263 100
-0.80698901 1.381279 0.13021068 100
-0.76582044 1.3627338 0.17719802 22
-0.78979105 1.3791665 0.025689943 100
-0.80088586 1.3842111 0.077771232 100
-0.81572932 1.39096 0.13125655 100
-0.75651509 1.3640368 0.17622307 16
-0.79845327 1.3890791 0.025899371 100
-0.80044061 1.3899914 0.077875905 100
-0.80982286 1.3942988 0.13090792 100
-0.77778167 1.3795886 0.17939167 17
-0.80535609 1.3979857 0.026073895 100
-0.80189258 1.3963809 0.078085244 100
-0.80763537 1.3990417 0.13090792 100
-0.77564579 1.3842198 0.17939167 10
-0.79228705 1.3976308 0.025864467 100
-0.80512565 1.403634 0.078399263 100
-0.79460222 1.3987134 0.12986206 100
-0.76989716 1.3871617 0.17890419 8
-0.79189652 1.4031658 0.025899371 100
-0.81193703 1.4126217 0.078922622 100
-0.80321068 1.4085044 0.13090792 100
-0.76055378 1.388377 0.17792924 3
-0.79159516 1.4084716 0.025934275 100
-0.80078131 1.4128432 0.078399263 100
-0.80828208 1.4164129 0.13160518 100
-0.79476613 1.4157475 0.026038991 100
-0.79492825 1.4158254 0.078189917 100
-0.81679374 1.4263251 0.13265105 100
-0.79790276 1.4230534 0.026143705 100
-0.79805785 1.4231286 0.078503937 100
-0.80911535 1.4284859 0.1321281 100
-0.79022533 1.4251199 0.026038991 100
-0.80115288 1.4304615 0.078817949 100
-0.80143851 1.4306011 0.13160518 100
-0.78804547 1.4295607 0.026038991 99
-0.80791253 1.4393537 0.079341307 100
-0.8063888 1.4386027 0.13230242 100
-0.78931612 1.4360081 0.0261088 100
-0.80199105 1.442311 0.079131968 100
-0.81118256 1.4468818 0.13299966 100
-0.79782552 1.4458237 0.02631823 100
-0.79261261 1.4432099 0.078713275 100
-0.81071156 1.4522849 0.13317397 100
-0.79902714 1.4523294 0.026388038 100
-0.79738349 1.4514982 0.079131968 100
-0.79765421 1.451635 0.1321281 100
-0.79307455 1.4552166 0.02631823 100
-0.80211288 1.4598279 0.079550654 100
-0.80059093 1.4590514 0.13265105 100
-0.79067451 1.4599007 0.02631823 100
-0.81035215 1.4700267 0.080178685 100
-0.80703539 1.4683199 0.1335226 100
-0.79168636 1.4666529 0.026388038 100
-0.7935968 1.4676449 0.079341307 100
-0.81330794 1.4778796 0.13439415 100
-0.79987532 1.4768982 0.026597468 100
-0.78938407 1.4714041 0.079236634 100
-0.8178888 1.4863313 0.13509139 100
-0.79386312 1.479738 0.026527658 88
-0.79222578 1.4788734 0.079550654 100
-0.80304748 1.4845886 0.13387123 100
-0.78647667 1.4818145 0.13247673 45
0.12106061 1.3017803 0.13280307 5
0.16240862 1.2537931 0.010820492 26
0.13915417 1.2828195 0.03443706 27
0.13392726 1.2893436 0.058220036 22
0.13006949 1.2941589 0.10637543 10
0.14983162 1.2694918 0.12440746 24
0.20761964 1.1973605 0.12642249 8
0.14294577 1.2780867 0.17444403 7
0.15787551 1.2629681 0.010995016 64
0.16581321 1.2529891 0.032343622 60
0.14318439 1.2814374 0.057174169 47
0.15456033 1.2671359 0.077996381 14
0.17002243 1.2476972 0.096676499 25
0.15524408 1.2662762 0.12326261 85
0.18970358 1.2229546 0.13362093 23
0.14712703 1.2764807 0.17340876 21
0.15959868 1.2643337 0.010995016 100
0.16997722 1.2511923 0.032134276 100
0.14991146 1.2765999 0.056476921 96
0.16367999 1.259166 0.076533951 14
0.17781371 1.2412696 0.095112152 38
0.15332848 1.2722733 0.12440746 100
0.18283239 1.2349148 0.13677025 45
0.15129206 1.2748518 0.17237349 49
0.17119768 1.2531044 0.010715778 100
0.17042682 1.2540877 0.032238949 100
0.16151729 1.2654504 0.055082429 100
0.16661471 1.2589494 0.076290213 29
0.18189877 1.2394569 0.094486415 26
0.17325512 1.2504805 0.1186832 100
0.19287458 1.225459 0.13362093 38
0.15305677 1.2762405 0.17237349 42
0.1679728 1.2607355 0.010855397 100
0.17457268 1.2522576 0.032029606 91
0.164473 1.2652313 0.054908119 100
0.16100731 1.2696831 0.077752642 28
0.1665515 1.2625613 0.098866582 36
0.1821706 1.2424977 0.11639348 100
0.19207242 1.2297782 0.13452072 31
0.15007946 1.2837205 0.17444403 42
0.16968814 1.2620661 0.010855397 65
0.18847215 1.2377625 0.030982886 63
0.16011202 1.274456 0.055779677 49
0.18339086 1.2443368 0.073609084 31
0.16827318 1.2638967 0.098866582 24
0.18176246 1.2464437 0.13901976 22
0.14596823 1.2927561 0.17703223 27
0.17384276 1.2602177 0.010785587 65
0.18645957 1.2437751 0.031296901 31
0.15944949 1.2789752 0.056128297 48
0.18504882 1.2456136 0.073609084 62
0.18322742 1.2479874 0.095425025 51
0.18547818 1.245054 0.11639348 13
0.20240888 1.2229896 0.13182132 23
0.15485165 1.2849674 0.1739264 63
0.17070904 1.2678906 0.010925206 52
0.18085369 1.2545738 0.031924933 30
0.17209482 1.2660714 0.054559495 50
0.18310243 1.251622 0.074340299 46
0.19447458 1.2366939 0.092922069 53
0.18237981 1.2525705 0.11791996 13
0.20635405 1.2210997 0.13092151 48
0.17304116 1.2648292 0.16667947 67
0.17486179 1.2660216 0.010855397 39
0.15363312 1.294091 0.03443706 27
0.17623237 1.2642094 0.054210871 51
0.18718067 1.2497331 0.073852822 62
0.19848892 1.2347809 0.092296332 53
0.19946179 1.2334945 0.11295892 13
0.19970232 1.2331766 0.13407083 46
0.17943195 1.2599788 0.16460891 69
0.17650872 1.2672629 0.010855397 52
0.17216587 1.2730449 0.032971654 29
0.18146294 1.2606668 0.053687938 52
0.19235003 1.246172 0.073121607 78
0.20596379 1.2280467 0.090731993 54
0.20217979 1.2330847 0.1125773 13
0.20709187 1.2265447 0.13182132 39
0.1833792 1.2581155 0.16357364 69
0.18772477 1.2556756 0.010576159 54
0.18100113 1.2646894 0.032343622 30
0.17713577 1.2698715 0.054559495 50
0.19511792 1.2457641 0.072877869 47
0.18740612 1.2561028 0.096050762 76
0.19550046 1.2452513 0.11524864 13
0.21326837 1.2214313 0.13002171 32
0.1838448 1.2608771 0.16409127 69
0.18933731 1.2568743 0.010576159 67
0.21830928 1.2177638 0.029203463 34
0.17642355 1.2743071 0.054908119 75
0.19551596 1.2485335 0.073121607 78
0.20313007 1.2382548 0.092296332 80
0.20292148 1.2385365 0.11334054 13
0.21824715 1.2178476 0.128672 32
0.18087494 1.268298 0.16616182 76
0.18520218 1.2662489 0.010750682 92
0.21876967 1.2205857 0.029308135 68
0.186535 1.2644358 0.053687938 78
0.19374499 1.2546278 0.073852822 93
0.20835865 1.2347482 0.09135773 94
0.21278086 1.2287326 0.11066922 14
0.2198908 1.2190607 0.128672 24
0.18842489 1.2618649 0.16357364 69
0.19392416 1.2577652 0.010541254 81
0.19553563 1.2555578 0.031506244 62
0.18112808 1.2752937 0.054733805 75
0.20237672 1.2461866 0.072390392 47
0.21223113 1.2326877 0.090731993 95
0.21314636 1.231434 0.11105084 14
0.240915 1.1933955 0.12102367 8
0.19119704 1.2615008 0.163056 70
0.19814536 1.2558895 0.010471444 96
0.206774 1.243974 0.03066887 64
0.19008237 1.267024 0.053687938 100
0.20770055 1.2426944 0.071659178 80
0.2070587 1.2435808 0.092609204 100
0.21722355 1.2295437 0.1102876 14
0.23797116 1.2008926 0.12282328 17
0.19195384 1.2644397 0.16357364 69
0.19742364 1.2603006 0.010541254 95
0.21417788 1.2370019 0.030145511 98
0.19056934 1.2698324 0.053862248 100
0.20695207 1.2470503 0.072146654 63
0.20286465 1.2527343 0.094173551 100
0.22333407 1.224269 0.10876112 14
0.23029998 1.2145821 0.12642249 16
0.19472328 1.2640558 0.163056 70
0.19690001 1.2648453 0.010611063 81
0.21589178 1.2382295 0.030145511 98
0.1900892 1.2743901 0.054210871 100
0.21100891 1.2450726 0.071659178 96
0.21725756 1.2363155 0.090731993 100
0.2021943 1.2574255 0.11639348 19
0.2455146 1.1967152 0.12102367 17
0.19317016 1.2700723 0.16460891 69
0.20085514 1.2627501 0.010541254 95
0.21282753 1.2458534 0.030564198 97
0.20097888 1.2625755 0.05281638 100
0.20570016 1.2559123 0.073121607 78
0.224516 1.2293575 0.089167647 100
0.20721772 1.2537706 0.11524864 27
0.22665161 1.2263434 0.1291219 24
0.20488238 1.2570665 0.15995017 72
0.20726398 1.2574831 0.010401634 97
0.21572259 1.2454522 0.030459527 97
0.20507842 1.2605917 0.052467756 100
0.20976686 1.2539232 0.072634131 63
0.2227934 1.2353952 0.090106249 96
0.2033473 1.2630539 0.11715672 79
0.22608474 1.2307138 0.13002171 40
0.20444769 1.2614888 0.16098544 72
0.21117181 1.2553377 0.010331824 98
0.21844438 1.2449205 0.030354854 97
0.20670721 1.2617328 0.052467756 100
0.21591881 1.248538 0.071659178 80
0.21981543 1.2429565 0.09135773 100
0.21397489 1.2513225 0.11410378 100
0.22538328 1.2349812 0.13092151 80
0.20386773 1.2658 0.16202073 70
0.2127831 1.2564586 0.010331824 100
0.22798613 1.2345272 0.029622151 100
0.20152923 1.2726932 0.053513627 100
0.21976939 1.2463804 0.071171694 81
0.21800947 1.2489192 0.092296332 100
0.21669134 1.2508208 0.11372216 89
0.22803721 1.2344536 0.13047162 88
0.20661435 1.2653575 0.16150309 78
0.20759538 1.2674575 0.010541254 95
0.22160146 1.2471089 0.030354854 97
0.20093882 1.2771283 0.053862248 100
0.225853 1.2409322 0.07019674 82
0.22295946 1.245136 0.09135773 100
0.21272197 1.2600093 0.11563025 100
0.23178896 1.2323081 0.12957181 96
0.20935422 1.2649021 0.16098544 72
0.21167645 1.2654064 0.010471444 82
0.22898421 1.2400627 0.029831495 66
0.21178889 1.2652417 0.052467756 100
0.22086415 1.2519529 0.071659178 80
0.22915924 1.2398064 0.090106249 100
0.2178418 1.2563784 0.1144854 100
0.23128751 1.2366899 0.13047162 96
0.2133494 1.2629566 0.15995017 72
0.22117695 1.25494 0.01022711 42
0.21485221 1.2642676 0.031296901 31
0.20672405 1.2762548 0.053513627 78
0.22469231 1.2497556 0.071171694 81
0.23737061 1.231058 0.088229038 98
0.22606739 1.2477278 0.11219569 100
0.23174322 1.2393572 0.13092151 96
0.21932271 1.2576746 0.15787962 73
0.22304142 1.256199 0.01022711 42
0.21675253 1.2655509 0.031296901 31
0.2197887 1.2610359 0.051770512 54
0.22653684 1.2510011 0.071171694 81
0.23032463 1.2453686 0.090731993 95
0.23009524 1.2457097 0.11143246 100
0.2346352 1.2389586 0.13047162 96
0.21904159 1.2621469 0.15891489 73
0.21577239 1.2705852 0.010506349 40
0.22616094 1.2550259 0.030564198 32
0.22031251 1.2637852 0.051944822 54
0.22703138 1.2537222 0.071415432 100
0.23299965 1.2447833 0.090419121 100
0.23494497 1.2418697 0.1102876 92
0.23943835 1.2351397 0.1291219 96
0.21316639 1.2744882 0.16253836 70
0.21981794 1.2684726 0.010436539 27
0.23235258 1.2495492 0.030145511 32
0.21002176 1.2832618 0.053862248 51
0.23428762 1.2466278 0.07019674 99
0.23692366 1.2426482 0.089793384 100
0.23233992 1.2495682 0.11181407 91
0.24222142 1.2346503 0.128672 89
0.21821818 1.2708876 0.16098544 72
0.22147274 1.2695647 0.010436539 27
0.20980147 1.2873123 0.032448292 29
0.21610463 1.2777276 0.053165004 52
0.2282348 1.2592822 0.071902916 48
0.24500507 1.233781 0.087916173 84
0.23393199 1.2506189 0.11181407 84
0.24376395 1.2356683 0.128672 89
0.22200394 1.268757 0.15995017 72
0.22969043 1.2606049 0.01022711 28
0.22680503 1.2650243 0.030982886 31
0.22650385 1.2654856 0.051770512 54
0.23202953 1.2570221 0.071415432 96
0.24222505 1.2414061 0.089167647 100
0.23874736 1.2467327 0.11066922 85
0.24424449 1.238313 0.1291219 96
0.23316476 1.2552834 0.15529142 75
0.23566967 1.2549522 0.010087491 43
0.22627574 1.2694453 0.03119223 31
0.22381401 1.2732433 0.052467756 53
0.23904482 1.249745 0.07019674 66
0.24056673 1.2473969 0.090106249 96
0.24566913 1.239525 0.10876112 94
0.24261937 1.2442302 0.13047162 96
0.2316235 1.2611947 0.15684435 74
0.24177518 1.249373 0.0099478718 73
0.25295246 1.2319894 0.028784776 69
0.23212591 1.2643802 0.051421888 55
0.24402604 1.2458723 0.069465525 49
0.24979693 1.236897 0.087916173 84
0.24526849 1.24394 0.10952436 85
0.25489888 1.2289621 0.12597258 99
0.23238117 1.2639832 0.15736198 74
0.2347593 1.2638772 0.01022711 70
0.24696392 1.2447566 0.029517479 67
0.23055115 1.2704699 0.051944822 54
0.24346969 1.2502309 0.069953002 49
0.24922121 1.2412201 0.08854191 70
0.25317961 1.2350187 0.10723466 73
0.25537398 1.2315809 0.12642249 99
0.22570577 1.278061 0.16150309 70
0.23665795 1.265084 0.01022711 70
0.2455847 1.2509797 0.029831495 99
0.23247516 1.2716928 0.051944822 81
0.24319264 1.2547591 0.070440479 49
0.25737131 1.2323567 0.086664692 71
0.24236807 1.2560619 0.11181407 84
0.25610632 1.2343553 0.12687239 99
0.234891 1.2678758 0.15787962 65
0.25000343 1.2474947 0.0098431576 88
0.24293128 1.2587512 0.030250182 98
0.2415601 1.2609336 0.05072464 84
0.24480185 1.2557738 0.070440479 65
0.25470263 1.240015 0.087916173 70
0.25129265 1.2454426 0.10914274 85
0.25764781 1.2353274 0.12687239 90
0.23859918 1.2656465 0.15684435 66
0.25696152 1.2400541 0.0096686333 90
0.24886566 1.2530406 0.029831495 99
0.24538374 1.2586257 0.05037602 84
0.25280043 1.2467289 0.068978049 50
0.25948021 1.2360141 0.086977564 57
0.25295407 1.2464825 0.10914274 85
0.26133576 1.2330376 0.12597258 90
0.23828721 1.2700092 0.15787962 65
0.24694696 1.2597282 0.010052586 86
0.24836716 1.2574332 0.03004084 99
0.24071521 1.2697986 0.051421888 82
0.25124922 1.2527759 0.069709264 33
0.25582981 1.2453737 0.08854191 56
0.25453576 1.2474649 0.10914274 78
0.27005103 1.2223926 0.12282328 93
0.23791388 1.2743256 0.15891489 65
0.24351379 1.2693572 0.01022711 84
0.25851375 1.2449178 0.029203463 100
0.24150693 1.2726269 0.051596198 82
0.25405908 1.2521758 0.069465525 49
0.26584056 1.2329803 0.086038955 58
0.25320685 1.2535644 0.1102876 99
0.27171099 1.2234156 0.12282328 85
0.2417855 1.2721732 0.15787962 65
0.24413103 1.2720785 0.010262015 84
0.25801203 1.2492931 0.029412808 100
0.24524856 1.2702441 0.051247578 100
0.2535941 1.2565451 0.069953002 49
0.26326656 1.2406679 0.087290429 57
0.25787628 1.249516 0.10914274 71
0.26814681 1.2326571 0.12507279 83
0.25349438 1.2567087 -0.0099478718 86
0.24747273 1.2665932 0.15580906 67
0.25010973 1.26635 0.010122396 85
0.25977069 1.25036 0.029412808 100
0.24914473 1.2679472 0.050898954 83
0.25948557 1.250832 0.068978049 67
0.27010119 1.2332621 0.08572609 58
0.25963575 1.2505834 0.10914274 85
0.27085218 1.2320191 0.12462288 92
0.25129291 1.2643917 0.15477379 67
0.25587103 1.2604818 0.0099827768 87
0.25931087 1.2547456 0.029622151 100
0.25284696 1.2655246 0.05055033 84
0.26516533 1.244983 0.068003096 51
0.26859123 1.23927 0.086664692 57
0.26325038 1.2481762 0.10837951 79
0.2763947 1.2262571 0.12282328 76
0.24995345 1.2703499 0.1563267 74
0.25562644 1.264994 0.010052586 86
0.26415217 1.2506579 0.029308135 100
0.25059158 1.2734603 0.051247578 82
0.26893747 1.2426114 0.067515619 51
0.27031308 1.2402983 0.086664692 71
0.26199439 1.2542863 0.10952436 85
0.2770727 1.2289318 0.12327318 85
0.25080186 1.2731066 0.15684435 66
0.26540092 1.2521906 0.0097733475 89
0.26879323 1.2464432 0.028994121 100
0.25226274 1.2744503 0.051247578 100
0.27050626 1.2435408 0.067515619 51
0.26986605 1.2446254 0.087290429 71
0.26459983 1.2535479 0.10914274 78
0.28156766 1.2247996 0.12192347 85
0.26031879 1.2608012 -0.0099478718 86
0.25247186 1.274096 0.15684435 66
0.25908929 1.2670372 0.010052586 86
0.27356797 1.2422994 0.028680105 100
0.25813931 1.2686602 0.05055033 84
0.26823282 1.2514149 0.068490572 50
0.27759445 1.23542 0.085413218 73
0.26439065 1.2579794 0.10990598 78
0.28028327 1.230826 0.12327318 76
0.26017651 1.2651795 0.15373851 68
0.26676539 1.2576241 0.0098431576 88
0.26911679 1.2535758 0.029308135 100
0.25979453 1.2696253 0.05055033 100
0.26783672 1.2557796 0.068978049 50
0.28112367 1.2329044 0.084787481 59
0.26798257 1.2555286 0.10914274 85
0.2827917 1.2300328 0.12282328 76
0.26764199 1.256115 0.15063268 70
0.27254668 1.2517276 0.0097035384 90
0.26889741 1.2580636 0.029517479 100
0.26958281 1.2568736 0.049155839 87
0.27160057 1.2533703 0.068490572 50
0.27887851 1.2407339 0.086038955 58
0.27172369 1.2531564 0.10837951 94
0.28350699 1.2326977 0.12327318 76
0.26364055 1.2671908 0.15373851 68
0.27414566 1.252645 0.0097035384 90
0.2764639 1.2485889 0.028889447 100
0.26328963 1.2716391 0.05055033 84
0.27517509 1.2508439 0.068003096 51
0.27848059 1.2450604 0.086664692 57
0.27819842 1.2455541 0.10647142 81
0.28600982 1.231887 0.12282328 85
0.2614564 1.2748466 0.15580906 67
0.27287343 1.2588238 0.0098082526 89
0.28207621 1.2425909 0.02847076 100
0.26111197 1.2795699 0.051247578 82
0.27489719 1.255254 0.068490572 50
0.28403741 1.2391316 0.085413218 58
0.27501887 1.2550395 0.10837951 79
0.29819566 1.2141578 0.11787435 88
0.26703143 1.2691284 0.15373851 68
0.27449596 1.25974 0.0098082526 74
0.28364483 1.2434769 0.02847076 100
0.26964137 1.2683697 0.050027397 85
0.2755346 1.2578938 0.068734311 84
0.29334271 1.2262378 0.082910269 60
0.27662882 1.2559485 0.10837951 79
0.29107079 1.2302763 0.12192347 85
0.27351552 1.2614828 -0.0098431576 87
0.27247685 1.2633293 0.15166797 69
0.27726683 1.2590001 0.0097733475 89
0.28149056 1.2514272 0.028889447 100
0.27438134 1.2641737 0.049504463 86
0.27635771 1.2606301 0.068978049 50
0.28924343 1.2375265 0.084787481 73
0.28319323 1.2483742 0.10647142 73
0.29560721 1.2261165 0.12057377 77
0.27434471 1.2642393 -0.0098780617 97
0.27805087 1.2575943 0.14959741 70
0.28373116 1.2511536 0.0095988233 76
0.28889093 1.2418298 0.028261416 100
0.27505687 1.2668282 0.049678773 86
0.28471446 1.2493768 0.067271881 51
0.28696933 1.2453022 0.086038955 58
0.28478104 1.2492564 0.10647142 81
0.29334685 1.2337779 0.12237337 76
0.27598518 1.2651508 -0.0098780617 87
0.27031529 1.2753963 0.15477379 67
0.28357282 1.2556326 0.0096686333 90
0.28485808 1.2532899 0.028889447 100
0.2768797 1.2678325 0.049678773 86
0.28742805 1.2486055 0.067028143 51
0.28966329 1.2445312 0.08572609 58
0.28748369 1.248504 0.1060898 81
0.29973501 1.2261728 0.12012386 77
0.27588633 1.2696433 0.15270324 68
0.28900874 1.249488 0.0095290141 76
0.29219127 1.2436411 0.028261416 100
0.27853206 1.2687355 0.049678773 86
0.28711855 1.2529607 0.067515619 51
0.2940715 1.2401868 0.084787481 59
0.28813332 1.2510962 0.10647142 81
0.27385041 1.2773366 0.15477379 67
0.27652439 1.2768393 0.010052586 86
0.29392898 1.2445829 0.028261416 100
0.28225404 1.2662203 0.049330149 87
0.28889045 1.2539209 0.067515619 51
0.2995486 1.2341678 0.083536007 60
0.28337255 1.2641474 0.10914274 78
0.28507051 1.2610005 -0.0097384425 88
0.2858026 1.2596437 0.14907977 78
0.29330626 1.2495353 0.0094941091 92
0.29550415 1.2454294 0.028261416 100
0.29800522 1.2407571 0.046715479 61
0.2867493 1.2617846 0.068490572 50
0.29613101 1.2442584 0.10456333 75
0.28481272 1.2654023 -0.0098082526 88
0.28651607 1.2622203 0.14959741 78
0.29975188 1.2416408 0.0093195848 93
0.29350394 1.2534162 0.028680105 100
0.28759247 1.2645575 0.048981529 87
0.29413602 1.2522249 0.067028143 51
0.29327005 1.2538569 0.10647142 81
0.2828812 1.2734368 -0.0099478718 96
0.28288916 1.2734218 0.15270324 68
0.29572889 1.2530853 0.0095290141 76
0.29882947 1.2471945 0.028261416 100
0.28180999 1.2795296 0.05037602 84
0.29853371 1.2477565 0.10494494 75
0.28815922 1.2674668 0.15063268 70
0.29388729 1.2611505 0.0096686333 90
0.28561085 1.2770224 0.050027397 85
0.29855451 1.2522001 0.10570818 66
0.28556594 1.2771084 -0.0099827768 96
0.28649837 1.2753203 0.15270324 68
0.29827353 1.2566686 0.0095639192 91
0.29919323 1.2548904 0.047761347 60
0.29919982 1.2548778 0.067028143 51
0.29925296 1.254775 0.1060898 66
0.29092386 1.2708778 -0.0098431576 100
0.29350075 1.2658958 0.14959741 70
0.29997388 1.2575443 0.0095639192 91
0.29815984 1.2610816 0.048284281 59
0.29817635 1.2610494 0.067759357 68
0.29347023 1.2702262 0.15063268 70
0.29827267 1.2648965 0.029098792 100
0.29688215 1.2676303 0.14959741 78
0.29870775 1.2685547 0.14959741 78
0.29877564 1.2725594 0.049155839 58
0.2960434 1.2780252 0.1521856 77
0.29704213 1.2806989 -0.0099478718 100
