# .PCD v0.7 - Point Cloud Data file format
VERSION 0.7
FIELDS x y z intensity
SIZE 4 4 4 4
TYPE F F F F
COUNT 1 1 1 1
WIDTH 779
HEIGHT 1
VIEWPOINT 0 0 0 1 0 0 0
POINTS 779
DATA ascii
-1.1305219 0.1500406 0.059767663 22
-1.1565701 0.16172202 0.02038441 5
-1.1282862 0.16178457 0.019895744 5
-1.0565177 0.15507099 0.01863917 6
-1.0204022 0.15322849 0.018010883 5
-1.0416303 0.15995005 0.018394837 1
-0.37349966 1.0323443 0.019162742 1
-0.36297911 1.0148774 0.018813694 1
-0.36610284 1.0349905 0.019162742 1
-0.36248782 1.0362622 0.019162742 1
-0.35886839 1.0375212 0.019162742 1
-0.35542586 1.0387056 0.019162742 1
-0.35179794 1.0399399 0.019162742 1
-0.33548209 1.0032322 0.018464645 1
-0.32821277 0.9930051 0.018255217 1
-0.31232601 0.9561277 0.01755712 2
-0.31205803 0.96672714 0.017731644 3
-0.30321285 0.95066428 0.017417502 2
-0.30349851 0.9631604 0.01762693 2
-0.29062539 0.93366456 0.017068453 2
-0.29089046 0.94614178 0.017277882 2
-0.28526211 0.93949765 0.017138263 2
-0.27910942 0.93091041 0.016963739 3
-0.28170031 0.95100433 0.017312787 3
-0.27220523 0.93086934 0.016928835 3
-0.27449968 0.9510265 0.017277882 2
-0.27172616 0.95390207 0.017312787 3
-0.26514804 0.94329423 0.017103359 3
-0.26185372 0.94421399 0.017103359 3
-0.26172221 0.9566952 0.017312787 6
-0.25004625 0.92671257 0.016754311 6
-0.24902987 0.93526614 0.016893929 6
-0.24779478 0.94386631 0.017033549 6
-0.24650264 0.95246917 0.017173167 6
-0.23922232 0.93782264 0.016893929 5
-0.23887222 0.95028812 0.017103359 3
-0.22930425 0.92588246 0.016649596 2
0.055423349 0.002861321 0.047835063 61
0.053836644 0.0062672496 0.047730394 47
0.048985898 0.0046617389 0.047939736 30
0.043018162 0.0014135838 0.048253752 100
0.048440278 0.015663326 0.015811881 4
0.044201195 0.015016973 0.047625721 67
0.050637513 0.029943287 0.046788346 43
0.034582317 0.011870503 0.04804441 18
0.026295722 0.0054354072 0.048567768 16
0.022495627 0.0056243539 0.048672438 8
0.031362414 0.02377826 0.047625721 9
0.0195961 0.012504756 0.048463095 8
0.0099139214 0.0046627522 0.049091127 7
-0.68050617 0.5753271 0.021745699 3
-0.68513066 0.57901239 0.021815509 19
-0.69172162 0.58242893 0.021920223 42
-0.69434708 0.58647269 0.021955127 45
-0.70088655 0.58974445 0.022059841 40
-0.70348841 0.59383368 0.022094747 60
-0.68428379 0.60092413 0.021745699 76
-0.67297369 0.60682046 0.02153627 78
-0.6795128 0.61053234 0.021640984 84
-0.68799788 0.61382401 0.021780603 66
-0.71830791 0.61449605 0.022304175 30
-0.77047044 0.61277711 0.023211701 16
-0.80276757 0.61347944 0.023770178 16
-0.85696107 0.61218405 0.024712607 13
-0.89527529 0.61299282 0.025375798 4
-1.0523913 1.136408 0.028691756 5
-1.0134459 1.1275026 0.084051549 5
-1.025172 1.1301839 0.14136662 6
-1.0200012 1.1344843 0.028133279 10
-0.98890561 1.1272652 0.082795486 18
-1.0084429 1.1318009 0.13997212 32
-0.98939794 1.1336145 0.027609708 27
-1.0069602 1.1377628 0.083842203 84
-1.0206153 1.1409882 0.1411923 81
-0.98818368 1.1387174 0.027609708 38
-0.99990529 1.1415272 0.083528183 100
-1.0232513 1.1471235 0.14154093 100
-0.98487908 1.1438794 0.027574802 41
-0.97330648 1.1410604 0.082167454 100
-1.0121796 1.1505295 0.14066938 91
-0.99721998 1.1523252 0.027819136 23
-0.98176235 1.1485054 0.082690813 97
-0.99736971 1.1523621 0.13944919 91
-0.97447342 1.1526384 0.027435184 23
-0.98423904 1.1550896 0.082900152 50
-0.99209303 1.1570609 0.13910057 84
-0.96350664 1.1552254 0.027260659 41
-0.99456698 1.163131 0.083528183 33
-0.98693937 1.1611896 0.13875194 80
-0.96402055 1.1612704 0.027295563 61
-0.97764581 1.1647916 0.082690813 60
-0.98742419 1.1673187 0.13892625 89
-0.96264559 1.166553 0.027295563 68
-0.96080261 1.1660699 0.081853434 100
-0.98024625 1.1711671 0.13840333 92
-0.96318465 1.1723444 0.027330469 74
-0.96134108 1.1718543 0.081958108 90
-0.97498554 1.1754823 0.1380547 99
-0.95018655 1.1745005 0.027121039 83
-0.95028716 1.1745276 0.081434749 96
-0.96394247 1.1782095 0.13718314 100
-0.94297868 1.1781527 0.027016325 93
-0.96427852 1.1839757 0.08227212 100
-0.96058649 1.1829662 0.13700883 99
-0.94539899 1.1844298 0.027086135 93
-0.94165236 1.1833915 0.081120729 100
-0.96681577 1.1903651 0.13770607 91
-0.951644 1.1918104 0.027225753 93
-0.93250901 1.1864352 0.080702044 90
-0.9710936 1.1972737 0.13822901 94
-0.95208579 1.1975969 0.027260659 74
-0.93104631 1.1916077 0.080702044 82
-0.95426279 1.1982167 0.13683452 100
-0.95649964 1.2039744 0.027365373 52
-0.93931049 1.1990228 0.081225403 42
-0.93950838 1.1990798 0.13561434 100
-0.93961877 1.2047485 0.027086135 44
-0.92630023 1.2008615 0.080597371 22
-0.95521492 1.2093003 0.13718314 85
-0.92850393 1.2071109 0.026911611 71
-0.92287201 1.2054458 0.080492698 28
-0.94220847 1.2111626 0.13613728 85
-0.92313784 1.2111219 0.026841801 75
-0.91942972 1.2100115 0.080388032 30
-0.95020276 1.2192264 0.13700883 92
-0.92732996 1.2180023 0.026946515 78
-0.92361873 1.216877 0.080702044 80
-0.92765242 1.2181001 0.13509139 98
-0.90855271 1.2178736 0.026632372 83
-0.92014056 1.2214317 0.080597371 100
-0.91846079 1.220916 0.13439415 100
-0.90117306 1.2214344 0.026527658 88
-0.92038327 1.2274103 0.080702044 84
-0.9206031 1.2274787 0.13474278 77
-0.9034031 1.2276986 0.026597468 88
-0.90544242 1.2283407 0.079969339 70
-0.91899723 1.2326094 0.13474278 52
-0.91322809 1.2364129 0.026806897 83
-0.90383369 1.2334183 0.079969339 76
-0.91927177 1.2383394 0.1349171 43
-0.90397865 1.2390618 0.026667276 88
-0.9003064 1.2378771 0.079864666 91
-0.90814716 1.2404066 0.13404553 45
-0.88720661 1.2389188 0.026388038 96
-0.90254432 1.2439229 0.080074012 100
-0.91226166 1.2470934 0.13456847 59
-0.87796551 1.241425 0.02624842 100
-0.89708799 1.2477381 0.079864666 100
-0.9086954 1.2515702 0.13439415 78
-0.88398153 1.2486906 0.026388038 100
-0.88223439 1.2481073 0.079131968 100
-0.91087013 1.2576666 0.13474278 84
-0.88609093 1.2549728 0.026457848 93
-0.87677222 1.2518258 0.078922622 100
-0.909159 1.2627629 0.13474278 75
-0.88808829 1.2615266 0.026527658 93
-0.88066643 1.2589898 0.079236634 100
-0.89603132 1.2642415 0.13369691 91
-0.87124413 1.2613167 0.02624842 88
-0.88083845 1.2646334 0.079341307 100
-0.87923282 1.2640784 0.13230242 95
-0.86196989 1.2636349 0.0261088 81
-0.87721783 1.2689657 0.079236634 95
-0.89066488 1.273667 0.1335226 63
-0.86400884 1.2698936 0.02617861 83
-0.84722167 1.2639589 0.077666558 55
-0.90016872 1.2826773 0.13456847 40
-0.86602122 1.2761726 0.02624842 88
-0.85301179 1.2715223 0.078085244 21
-0.90212256 1.2890775 0.1349171 38
-0.868007 1.2824718 0.02631823 99
-0.86627942 1.2818475 0.078922622 44
-0.8778165 1.2860169 0.13282534 26
-0.85502952 1.2830558 0.0261088 93
-0.86269814 1.285856 0.078817949 85
-0.8686114 1.2880154 0.1321281 16
-0.83822232 1.2824175 0.025829561 100
-0.86276263 1.2914758 0.078922622 100
-0.86679453 1.292964 0.1321281 9
-0.84026271 1.2884156 0.025899371 100
-0.83669752 1.2870861 0.077561885 89
-0.88745445 1.3060129 0.13421984 1
-0.84218711 1.2946757 0.025969181 100
-0.82180148 1.286993 0.07682918 51
-0.89303213 1.3138378 0.1349171 1
-0.84782213 1.3023791 0.0261088 85
-0.83118731 1.2960435 0.077457212 51
-0.83899134 1.2990158 0.13003637 11
-0.83289152 1.3022274 0.025864467 74
-0.83679861 1.3037311 0.077875905 63
-0.85201162 1.309586 0.13143086 52
-0.82357031 1.3041523 0.025724847 72
-0.84423441 1.3121881 0.078399263 68
-0.85011965 1.3144767 0.13143086 100
-0.82728106 1.3111374 0.025829561 96
-0.81630844 1.3068264 0.076933853 65
-0.84450179 1.3179035 0.13108224 99
-0.82538372 1.3159418 0.025829561 100
-0.81999534 1.313803 0.077247873 85
-0.84813625 1.3249731 0.13160518 100
-0.83089381 1.3237164 0.025969181 100
-0.81808871 1.3185818 0.077247873 95
-0.82954711 1.3231764 0.13003637 99
-0.81041819 1.3210261 0.025620133 100
-0.81986779 1.3248537 0.077457212 95
-0.82760781 1.3279886 0.13003637 100
-0.7973817 1.3212284 0.025410704 100
-0.82346827 1.3319007 0.077771232 97
-0.81827551 1.3297763 0.12933913 100
-0.80653828 1.3305101 0.025620133 100
-0.79750198 1.3267764 0.076410495 100
-0.81999594 1.3360708 0.12968774 100
-0.81195527 1.3383222 0.025759751 100
-0.79370695 1.3307076 0.076305822 100
-0.82168907 1.342384 0.13003637 100
-0.80637735 1.3412831 0.025689943 100
-0.78999954 1.334385 0.076201156 100
-0.80509406 1.3407426 0.12864187 100
-0.78366607 1.3317175 0.1776855 26
-0.79333383 1.3413185 0.025480513 89
-0.79721099 1.3429675 0.076724514 74
-0.79575974 1.3423502 0.12794463 99
-0.78169721 1.3363695 0.1776855 18
-0.80970579 1.3538946 0.025829561 60
-0.82089561 1.3586998 0.078189917 46
-0.8175531 1.3572645 0.13021068 33
-0.77241606 1.3378813 0.17671055 7
-0.80949408 1.3594327 0.025864467 90
-0.80783767 1.3587146 0.077561885 97
-0.83194667 1.3691676 0.13177948 46
-0.77042562 1.342494 0.17671055 11
-0.80010074 1.3609673 0.025724847 100
-0.80577439 1.3634508 0.077561885 100
-0.82254595 1.370792 0.13108224 100
-0.78114885 1.3526716 0.17841671 28
-0.7980296 1.3656764 0.025724847 100
-0.80369467 1.3681797 0.077561885 100
-0.81315082 1.3723583 0.130385 100
-0.78092247 1.358117 0.17866045 35
-0.79411584 1.3695636 0.025689943 100
-0.80707043 1.3753422 0.077875905 100
-0.79830295 1.3714314 0.12916481 100
-0.78430027 1.3651853 0.17939167 36
-0.79566151 1.3758938 0.025759751 100
-0.81587607 1.3849956 0.078503937 100
-0.80346221 1.3794061 0.12986206 100
-0.76049358 1.3600593 0.17646681 20
-0.78807682 1.3781053 0.025655037 100
-0.80826622 1.3872806 0.078189917 100
-0.8122099 1.3890729 0.13090792 100
-0.75661868 1.3638088 0.17622307 16
-0.80230457 1.3902757 0.025969181 100
-0.80065697 1.3895199 0.077875905 100
-0.81366259 1.3954854 0.13125655 100
-0.76175541 1.3716766 0.17719802 15
-0.79831642 1.3941523 0.025934275 100
-0.80573612 1.3975869 0.07829459 100
-0.80785483 1.3985677 0.13090792 100
-0.77045578 1.3812551 0.17866045 12
-0.79250604 1.3971622 0.025864467 100
-0.80896586 1.4048516 0.07860861 100
-0.80204219 1.4016171 0.1305593 100
-0.77011257 1.3867009 0.17890419 8
-0.79030865 1.4018447 0.025864467 100
-0.8031283 1.4078881 0.078399263 100
-0.80703789 1.4097311 0.13125655 100
-0.7733385 1.3938446 0.17963541 5
-0.79351228 1.4090964 0.025969181 100
-0.80630428 1.4151814 0.078713275 100
-0.8119933 1.4178876 0.13195379 100
-0.77473813 1.4001656 0.18012288 3
-0.79330105 1.4141786 0.026004085 100
-0.80246979 1.4185755 0.07860861 100
-0.81354421 1.4238863 0.13230242 100
-0.79644436 1.4214766 0.0261088 100
-0.79839975 1.4224226 0.078503937 100
-0.80049247 1.4234352 0.13125655 100
-0.79045385 1.4246521 0.026038991 100
-0.80497271 1.4317428 0.079027295 100
-0.80166906 1.4301293 0.13160518 100
-0.7881605 1.4293271 0.026038991 100
-0.79907137 1.4347031 0.078817949 100
-0.79935652 1.4348435 0.13160518 100
-0.78943223 1.4357743 0.0261088 100
-0.80031997 1.4411861 0.079027295 100
-0.81130069 1.4466442 0.13299966 100
-0.79425043 1.444031 0.02624842 100
-0.79618341 1.4450003 0.078922622 100
-0.81961673 1.4567502 0.13404553 100
-0.79557699 1.4502895 0.02631823 100
-0.79750246 1.451263 0.079131968 100
-0.80310732 1.4540966 0.13265105 100
-0.79319412 1.4549823 0.02631823 100
-0.80223316 1.4595919 0.079550654 100
-0.8007111 1.4588157 0.13265105 100
-0.78356224 1.4562408 0.02617861 100
-0.80324847 1.4663712 0.07976 100
-0.80349225 1.4664966 0.13317397 100
-0.78825814 1.4645764 0.02631823 100
-0.79549128 1.4683304 0.07944598 100
-0.81696826 1.4794774 0.13474278 100
-0.80012208 1.4764268 0.026597468 100
-0.79493779 1.4737144 0.079550654 100
-0.81637341 1.4849302 0.1349171 100
-0.80825931 1.4867349 0.026806897 88
-0.79070681 1.4774727 0.07944598 100
-0.80682105 1.485976 0.13421984 99
-0.79692262 1.4867747 0.026632372 23
-0.80409735 1.4905927 0.080388032 20
-0.79727823 1.4869639 0.1335226 52
0.12818253 1.2923908 0.13051336 5
0.15589979 1.26139 0.010995016 12
0.11764273 1.3090913 0.036216483 24
0.13365537 1.2891257 0.058220036 22
0.14097196 1.280003 0.12707879 23
0.19276515 1.2154238 0.13182132 7
0.13301048 1.2899299 0.17858514 6
0.1552127 1.2659602 0.011064826 63
0.17435172 1.2419164 0.031610917 61
0.15045089 1.2719424 0.056128297 48
0.15562311 1.2654446 0.077752642 28
0.16616499 1.2522011 0.097615108 24
0.1526255 1.2692105 0.12402584 79
0.19804105 1.2121561 0.13047162 24
0.14213771 1.2823859 0.17547931 21
0.15685952 1.2672666 0.011064826 100
0.17220268 1.2478597 0.031924933 100
0.15335324 1.2717016 0.055953987 97
0.16219276 1.2605208 0.076777689 29
0.17756701 1.2410747 0.095112152 25
0.15428311 1.2705255 0.12402584 100
0.18984053 1.2255504 0.13407083 46
0.1450372 1.2822201 0.17496167 35
0.16609135 1.2592651 0.010855397 100
0.17765543 1.2445273 0.031610917 100
0.16134435 1.2653147 0.055082429 100
0.1701203 1.2541304 0.07555899 30
0.17929608 1.2424365 0.095112152 25
0.17066354 1.2534381 0.11944643 100
0.18910667 1.2299336 0.13497064 45
0.15168753 1.2776217 0.17289113 35
0.17263275 1.2542263 0.010715778 100
0.1706371 1.2567871 0.032343622 90
0.15564072 1.2760299 0.056128297 97
0.16806713 1.2600847 0.076290213 29
0.18086478 1.2436632 0.095112152 25
0.18554366 1.2376595 0.11524864 100
0.18224865 1.2418875 0.13811995 30
0.14862302 1.2850349 0.17496167 42
0.17432532 1.2555406 0.010715778 79
0.17722744 1.2517898 0.031924933 61
0.17447865 1.2553425 0.053687938 52
0.17585397 1.2535648 0.075071514 30
0.1631794 1.2699461 0.10011806 24
0.1931853 1.2311651 0.11334054 20
0.18866813 1.2370032 0.13632034 22
0.14569455 1.2925444 0.17703223 27
0.1759375 1.2567837 0.010715778 66
0.16787452 1.2672764 0.032866981 29
0.15423828 1.2850218 0.056825545 47
0.18592644 1.2437847 0.073365346 62
0.19252282 1.2352005 0.092922069 53
0.17677295 1.2556965 0.11906482 13
0.19259354 1.2351085 0.13542053 22
0.14978382 1.2908187 0.17599694 61
0.16577387 1.2741864 0.011064826 51
0.1674526 1.2719835 0.033076324 29
0.17442352 1.2628361 0.054210871 51
0.1842216 1.249979 0.07409656 30
0.20037976 1.228776 0.09135773 54
0.19062546 1.2415757 0.11524864 13
0.19564468 1.2349894 0.13497064 45
0.1729548 1.2647634 0.16667947 67
0.17951581 1.2595127 0.010715778 53
0.16068211 1.2843972 0.033809029 28
0.170048 1.2720222 0.055082429 50
0.1894092 1.2464408 0.073365346 62
0.19713458 1.2362334 0.092609204 53
0.20166963 1.2302413 0.11219569 14
0.20306876 1.2283926 0.13272113 31
0.18392432 1.2536877 0.16253836 70
0.18354413 1.2575415 0.010645968 40
0.15518987 1.2952647 0.03443706 27
0.17889747 1.2637236 0.054036561 51
0.19456929 1.2428734 0.072634131 63
0.19274822 1.2452962 0.094173551 52
0.20437735 1.2298245 0.11181407 14
0.20459077 1.2295406 0.13272113 39
0.18320885 1.2579876 0.16357364 69
0.19234002 1.2491392 0.010436539 55
0.19516522 1.2453544 0.031087559 31
0.17100221 1.2777244 0.055431053 49
0.20088914 1.2376864 0.071659178 80
0.18723646 1.2559762 0.096050762 63
0.19885775 1.2404077 0.11410378 13
0.2131108 1.2213136 0.13002171 48
0.17789546 1.2684898 0.16667947 67
0.18585223 1.2617583 0.010680873 80
0.20412451 1.2370828 0.030459527 32
0.1753259 1.2759736 0.055082429 75
0.2026875 1.2390234 0.071659178 80
0.20791399 1.2319653 0.091044858 81
0.20183492 1.2401748 0.11372216 13
0.2125268 1.2257361 0.13092151 32
0.17981225 1.269915 0.16667947 82
0.18630028 1.2645742 0.010715778 79
0.20212558 1.2430543 0.030773543 64
0.17818618 1.2756081 0.054908119 75
0.19954059 1.2465695 0.072634131 63
0.20827752 1.2346886 0.09135773 94
0.19990668 1.2460716 0.11486702 13
0.22327593 1.2142931 0.1273223 24
0.18605006 1.2649145 0.16460891 85
0.19165176 1.261058 0.010611063 81
0.21563518 1.2281926 0.029726824 67
0.19061205 1.2624826 0.053339314 78
0.19309849 1.2590754 0.074340299 92
0.21464077 1.2295552 0.090106249 96
0.20744041 1.2394222 0.11295892 13
0.2237578 1.2170618 0.1277722 16
0.19014403 1.263124 0.16357364 69
0.20266944 1.2492898 0.010331824 84
0.20426461 1.2470887 0.030878214 63
0.18289414 1.2765782 0.054733805 100
0.20171136 1.2506119 0.072877869 63
0.20689341 1.243461 0.092609204 93
0.21245503 1.2357864 0.11181407 14
0.23324671 1.2070955 0.12462288 16
0.19518209 1.2596219 0.16202073 70
0.19500256 1.2634858 0.010611063 94
0.21759537 1.2320793 0.029831495 99
0.18582815 1.2762392 0.054559495 100
0.21150571 1.2405446 0.071171694 65
0.20739463 1.2462595 0.092922069 100
0.21866888 1.2305869 0.1102876 14
0.23477438 1.2081985 0.12462288 16
0.19463706 1.2639939 0.163056 70
0.19431624 1.2679145 0.010680873 93
0.21332476 1.2413049 0.030354854 97
0.18982515 1.2742016 0.054210871 100
0.20614469 1.2513561 0.072634131 78
0.214717 1.239356 0.09135773 100
0.20764506 1.2492559 0.1144854 20
0.24302572 1.1997272 0.12192347 17
0.1940313 1.2683134 0.16409127 69
0.19605646 1.2691531 0.010680873 93
0.22536939 1.2278142 0.029412808 67
0.19619715 1.2689548 0.053513627 100
0.19290003 1.2736045 0.075802729 100
0.21521479 1.2421348 0.091670595 100
0.20932007 1.250448 0.1144854 27
0.23663718 1.2119236 0.12507279 16
0.20024267 1.2632495 0.16202073 70
0.20001617 1.2670541 0.010611063 94
0.21884033 1.2403196 0.030145511 98
0.20129487 1.265238 0.05299069 100
0.21171483 1.2504394 0.072146654 79
0.21791953 1.2416273 0.09135773 100
0.2007426 1.2660223 0.11791996 65
0.2302509 1.2241141 0.12822211 32
0.20188025 1.2644067 0.16202073 70
0.21787399 1.2453839 0.010122396 99
0.22285411 1.2382556 0.029936166 99
0.19740695 1.2746791 0.053862248 100
0.2077935 1.2598124 0.073365346 100
0.22417572 1.236364 0.090106249 96
0.20706055 1.2608615 0.11639348 100
0.22633705 1.2332704 0.13047162 64
0.20812032 1.2593447 0.15995017 72
0.21489295 1.2530549 0.010262015 84
0.22782397 1.2344148 0.029622151 100
0.19681114 1.2791196 0.054210871 100
0.22412911 1.239741 0.07019674 82
0.21896827 1.2471802 0.091983467 93
0.22323781 1.2410257 0.11143246 84
0.23120743 1.2295376 0.1291219 80
0.20754263 1.2636503 0.16098544 72
0.20986295 1.264163 0.010471444 96
0.22499868 1.2421733 0.03004084 99
0.20093882 1.2771283 0.053862248 100
0.22135094 1.2474729 0.071171694 65
0.22967947 1.2353729 0.089480512 97
0.22719267 1.2389858 0.11066922 85
0.22957915 1.2355187 0.13047162 96
0.20606825 1.2696761 0.16253836 70
0.21263185 1.2636373 0.010436539 82
0.23332793 1.2333548 0.029412808 67
0.20374665 1.2766382 0.053687938 100
0.21845579 1.2551157 0.072146654 79
0.22676605 1.2429562 0.090731993 100
0.21988755 1.2530208 0.11372216 100
0.23002505 1.2381876 0.13092151 96
0.21753749 1.2564594 0.15787962 73
0.21668792 1.2615603 0.010366729 69
0.22494027 1.2493899 0.030354854 65
0.21231487 1.2680095 0.05264207 79
0.2113235 1.2694716 0.07409656 92
0.23515338 1.2343279 0.088854775 98
0.23378009 1.2363533 0.10952436 92
0.23174322 1.2393572 0.13092151 96
0.21715432 1.2608725 0.15891489 73
0.23172104 1.2427573 0.0099478718 43
0.2164931 1.2653762 0.031296901 31
0.22732046 1.2492938 0.05055033 56
0.22517642 1.2524785 0.071415432 96
0.23117894 1.2435626 0.090419121 100
0.22874978 1.2471707 0.11181407 100
0.2333014 1.24041 0.13092151 100
0.21554732 1.2667811 0.1604678 72
0.21346366 1.2738526 0.010576159 40
0.21831098 1.2665952 0.031296901 31
0.21137336 1.2769821 0.053339314 52
0.23907524 1.2355076 0.068734311 67
0.23511112 1.2414426 0.089793384 100
0.23486263 1.2418146 0.1102876 85
0.24585146 1.2253625 0.12642249 99
0.21844336 1.2663971 0.15995017 72
0.22397763 1.2616334 0.010296919 42
0.23099771 1.2510473 0.030250182 32
0.20975307 1.2830837 0.053862248 51
0.22964972 1.25308 0.071171694 81
0.23776793 1.2408379 0.089480512 97
0.23425892 1.2461295 0.11105084 91
0.24951717 1.2231205 0.12552269 99
0.21902362 1.2691039 0.1604678 80
0.21918747 1.2728486 0.010506349 27
0.21080887 1.2855844 0.032343622 30
0.21820605 1.2743404 0.05281638 53
0.22924042 1.2575676 0.071659178 64
0.23949575 1.2419791 0.089480512 97
0.23061106 1.2554842 0.11295892 89
0.24582475 1.2323588 0.1277722 97
0.21873164 1.2735415 0.16150309 70
0.22632429 1.2655716 0.010331824 28
0.22344214 1.2699845 0.031296901 31
0.2340439 1.2537524 0.05055033 56
0.23954314 1.2453327 0.069709264 83
0.237822 1.2479678 0.090419121 96
0.23759058 1.2483221 0.11105084 100
0.24522841 1.2366281 0.128672 81
0.23202366 1.2568455 0.15580906 75
0.23784497 1.2515962 0.010017681 43
0.22301677 1.2744733 0.031506244 31
0.23465076 1.2565242 0.05072464 56
0.23688543 1.2530766 0.070684217 81
0.24379 1.2424241 0.089167647 100
0.24673694 1.2378775 0.10837951 87
0.24261937 1.2442302 0.13047162 96
0.2316235 1.2611947 0.15684435 74
0.23727956 1.2559919 0.010087491 57
0.24414513 1.2453223 0.029622151 67
0.22332835 1.2776732 0.05281638 53
0.24708247 1.2407575 0.068734311 67
0.24108261 1.2500817 0.090419121 96
0.24404073 1.2454846 0.10990598 85
0.24841166 1.2386918 0.128672 97
0.22802728 1.2703707 0.15943253 73
0.23583519 1.2621915 0.010192205 85
0.25878447 1.2262378 0.028366089 70
0.22197536 1.2839054 0.053339314 52
0.23919749 1.256924 0.070927955 48
0.25559816 1.2312295 0.086664692 57
0.24684182 1.2449479 0.10952436 78
0.25537398 1.2315809 0.12642249 99
0.23090282 1.269919 0.15891489 65
0.2450453 1.2514598 0.0099478718 73
0.25076041 1.2424369 0.029308135 100
0.23763061 1.2631662 0.051073264 83
0.24196127 1.2563289 0.070684217 81
0.25720993 1.2322545 0.086664692 71
0.23694584 1.2642472 0.11372216 82
0.25698701 1.2326064 0.12642249 99
0.2450453 1.2514598 -0.0099478718 75
0.23471722 1.2677658 0.15787962 65
0.24247131 1.2592937 0.010087491 71
0.24816006 1.2502426 0.029726824 100
0.248896 1.2490717 0.049504463 57
0.24049172 1.2624433 0.071415432 48
0.25462061 1.2399635 0.087916173 84
0.24598604 1.2537016 0.11105084 100
0.25860357 1.2336264 0.12642249 99
0.24673676 1.2525071 0.15270324 68
0.25687951 1.2400031 0.0096686333 75
0.24772444 1.2546827 0.029936166 99
0.23897249 1.268716 0.051421888 82
0.25271723 1.246677 0.068978049 50
0.2562629 1.2409917 0.087916173 56
0.26014328 1.2347697 0.10647142 81
0.2591925 1.2362943 0.12687239 90
0.24024454 1.2666763 0.15684435 66
0.25431284 1.2478251 0.0098082526 89
0.25782603 1.2421479 0.029098792 100
0.23442468 1.279964 0.052467756 80
0.2522938 1.2510879 0.069465525 49
0.25790873 1.2420142 0.087916173 56
0.25246957 1.2508038 0.10990598 85
0.2680001 1.2257068 0.12372308 92
0.23893043 1.2726828 0.15839726 65
0.25284359 1.2539667 0.0099129668 87
0.26365611 1.2363567 0.028680105 100
0.23829171 1.2776668 0.052119136 81
0.25397491 1.2521241 0.069465525 49
0.25955817 1.2430309 0.087916173 70
0.25209519 1.2551856 0.11066922 92
0.2655139 1.2333311 0.12552269 90
0.25284359 1.2539667 -0.0099129668 87
0.2356329 1.281997 0.16098544 64
0.25028741 1.2617798 0.010052586 86
0.25896779 1.2475367 0.029308135 100
0.24930871 1.2633857 0.05055033 100
0.25144306 1.2598835 0.070440479 49
0.2714085 1.2271235 0.084787481 59
0.25677088 1.2511414 0.10952436 71
0.26806605 1.2326078 0.12507279 100
0.24537537 1.2698396 0.15684435 66
0.2561447 1.2559781 0.0099129668 87
0.25443584 1.2588043 0.029936166 99
0.25618738 1.2559075 0.049678773 86
0.25520918 1.2575253 0.069953002 49
0.26891738 1.2348547 0.086038955 72
0.26048386 1.2488021 0.10876112 87
0.27069092 1.2319216 0.12462288 92
0.25511876 1.2576748 0.15270324 68
0.26101312 1.251907 0.0098082526 89
0.2552022 1.2615972 0.03004084 100
0.25079763 1.2689421 0.050898954 83
0.26516533 1.244983 0.068003096 51
0.26655939 1.2426581 0.087290429 57
0.27233753 1.2330227 0.10494494 82
0.26937917 1.237956 0.12597258 82
0.2489599 1.2720066 0.15684435 66
0.26269707 1.2529128 0.0098082526 89
0.26917422 1.2420257 0.028784776 100
0.25050372 1.2734079 0.051247578 100
0.27088493 1.2391503 0.067028143 51
0.27023101 1.2402494 0.086664692 57
0.26793265 1.2441125 0.10723466 81
0.27898538 1.2255347 0.12237337 85
0.25367731 1.2680737 0.15529142 67
0.26438448 1.2539127 0.0098082526 74
0.26879323 1.2464432 0.028994121 100
0.24719918 1.2830296 0.052119136 81
0.26848826 1.2469598 0.068003096 51
0.27187419 1.2412231 0.086664692 57
0.26459983 1.2535479 0.10914274 85
0.28156766 1.2247996 0.12192347 85
0.25247186 1.274096 0.15684435 66
0.26102337 1.263535 0.0099827768 87
0.26843968 1.2508689 0.029203463 100
0.26006573 1.2651706 0.050201707 100
0.25912154 1.2667831 0.070684217 81
0.28050759 1.2302585 0.084474608 59
0.2603375 1.2647064 0.11143246 77
0.2792182 1.2324606 0.12372308 83
0.26910663 1.2497299 -0.0097035384 89
0.25813782 1.2684631 0.15477379 67
0.26659521 1.2575252 0.0098431576 88
0.27195928 1.2482977 0.028994121 100
0.26562801 1.259189 0.049504463 86
0.26567188 1.2591136 0.069465525 66
0.27798381 1.237934 0.08572609 58
0.27077311 1.2503382 0.10799789 79
0.28458989 1.2265699 0.12192347 93
0.26358879 1.262697 0.15270324 68
0.27529129 1.2463853 0.0095988233 76
0.27163509 1.2527257 0.029203463 100
0.26634204 1.2619046 0.049678773 86
0.27333081 1.2497851 0.068003096 51
0.27665851 1.2440144 0.086664692 71
0.27637443 1.244507 0.10647142 81
0.28813219 1.2241173 0.12102367 77
0.26724046 1.2603467 0.15166797 69
0.27406141 1.2525969 0.0097035384 90
0.27737173 1.2468073 0.028784776 100
0.25924626 1.2785075 0.051247578 82
0.28100318 1.2404562 0.066540658 52
0.27643666 1.2484428 0.087290429 71
0.27421746 1.252324 0.10799789 87
0.2868965 1.2301493 0.12237337 85
0.26136827 1.2747962 0.15580906 67
0.26982856 1.2639936 0.0099129668 87
0.28297904 1.2408069 0.028366089 100
0.25807428 1.2847185 0.051770512 81
0.27285388 1.2586594 0.068978049 50
0.28395554 1.2390852 0.085413218 58
0.26912296 1.2652377 0.11066922 85
0.28946573 1.2293696 0.12192347 85
0.26313213 1.2758007 0.15580906 67
0.27449596 1.25974 0.0098082526 74
0.28070709 1.2486989 0.028784776 100
0.26573393 1.2753155 0.05072464 84
0.27066818 1.2665443 0.069953002 49
0.28559455 1.240011 0.085413218 73
0.27470368 1.2593708 0.10914274 78
0.29489264 1.2234826 0.12012386 86
0.27057418 1.2667115 -0.0099478718 96
0.2705825 1.2666967 0.15270324 68
0.27913019 1.25546 0.0097035384 90
0.28237972 1.2496362 0.028784776 100
0.27526587 1.2623857 0.049330149 87
0.27820656 1.2571154 0.068490572 50
0.28723681 1.240931 0.085413218 58
0.27832678 1.2568998 0.10837951 87
0.29362857 1.2294756 0.12147357 86
0.27815586 1.2572062 -0.0097384425 88
0.27420059 1.264295 0.15166797 69
0.28179467 1.2546529 0.0096686333 90
0.28405559 1.2505673 0.028784776 100
0.2760216 1.265085 0.049504463 86
0.2779862 1.2615348 0.068978049 50
0.28792581 1.2435738 0.08572609 58
0.28573164 1.2475387 0.1060898 81
0.29617757 1.2286626 0.12102367 86
0.27966928 1.2584934 0.14959741 78
0.28252593 1.2573391 0.0097035384 90
0.28381276 1.2549945 0.028994121 100
0.27775142 1.2660383 0.049504463 86
0.28065875 1.2607411 0.068734311 67
0.28767961 1.2479491 0.086351827 58
0.28740019 1.2484581 0.1060898 81
0.29778016 1.2295458 0.12102367 86
0.27579913 1.2695954 0.15270324 76
0.28805274 1.2512443 0.0095639192 91
0.29123643 1.2453954 0.028366089 100
0.27281696 1.2792352 0.05072464 84
0.2823734 1.2616783 0.068734311 84
0.29784903 1.2332468 0.083536007 60
0.28625613 1.254545 0.10723466 81
0.28040463 1.2652953 -0.0098431576 87
0.27569756 1.2739431 0.15373851 68
0.28783444 1.2556752 0.0096337283 90
0.29100001 1.2498108 0.028575432 100
0.28595304 1.2591605 0.048632905 88
0.29069188 1.2503816 0.067028143 51
0.28794912 1.2554626 0.10723466 81
0.28403494 1.2627139 -0.0097733475 88
0.2866348 1.2578976 0.14856213 71
0.29133451 1.2530162 0.0095639192 91
0.29070675 1.2541884 0.028784776 100
0.28663602 1.2617898 0.048807215 88
0.29041204 1.2547388 0.067515619 51
0.2923409 1.2511369 0.1060898 73
0.28095013 1.2724073 -0.0099478718 96
0.28825417 1.2587682 0.14856213 71
0.29302213 1.2539161 0.0095639192 91
0.29052502 1.2586185 0.028994121 100
0.29115766 1.2574272 0.048284281 88
0.29396772 1.2521355 0.067028143 51
0.29985318 1.2410526 0.084474608 59
0.29678431 1.2468315 0.10494494 75
0.28176761 1.2751095 -0.0099827768 86
0.28361949 1.2716223 0.1521856 77
0.29479748 1.2548548 0.0095639192 91
0.28830594 1.267188 0.049155839 87
0.29758573 1.2495575 0.066540658 52
0.29579043 1.2529683 0.1060898 73
0.28635961 1.2708857 0.15166797 77
0.29741672 1.2539699 0.0095290141 76
0.29957262 1.2498391 0.028366089 100
0.29465222 1.2592669 0.048284281 88
0.29558742 1.257475 0.067515619 68
0.2890898 1.2699249 -0.0098431576 87
0.28810963 1.271803 0.15166797 77
0.29451254 1.2637286 0.0097035384 90
0.28995198 1.2725419 0.049504463 57
0.29364133 1.2654122 0.068490572 50
0.29465699 1.2634494 0.10799789 72
0.29267448 1.2672806 -0.0097733475 99
0.29696557 1.2589881 0.14752686 71
0.29988879 1.2575006 0.0095639192 91
0.29265377 1.2716026 0.069221787 83
0.29167345 1.2735134 -0.0098780617 100
0.29691032 1.2633061 0.14856213 71
0.29670843 1.2675419 0.14959741 78
0.29682052 1.2716452 -0.0098082526 100
0.29757631 1.2701477 0.15011504 78
0.29874855 1.2726136 0.0098082526 100
0.29427791 1.281557 -0.0099827768 100
0.29431581 1.281481 0.15322088 76
