# .PCD v0.7 - Point Cloud Data file format
VERSION 0.7
FIELDS x y z intensity
SIZE 4 4 4 4
TYPE F F F F
COUNT 1 1 1 1
WIDTH 766
HEIGHT 1
VIEWPOINT 0 0 0 1 0 0 0
POINTS 766
DATA ascii
-1.0940551 0.15142345 0.057883568 26
-1.1661282 0.16554932 0.020558935 28
-1.1825043 0.16787416 0.062593803 30
-1.0923257 0.1589637 0.019267457 6
-1.02254 0.15245473 0.018045789 6
-1.0180479 0.15541956 0.017975979 3
-1.0846739 0.16946752 0.019162742 1
-0.40307006 1.0211618 0.019162742 1
-0.39985999 1.022423 0.019162742 1
-0.40495068 1.046191 0.019581599 1
-0.39253351 1.0252582 0.019162742 1
-0.4059557 1.0715017 0.020000458 1
-0.38554576 1.0279063 0.019162742 1
-0.38195536 1.0292457 0.019162742 1
-0.36733341 1.0005379 0.018604266 1
-0.37476063 1.0318873 0.019162742 1
-0.37115636 1.0331891 0.019162742 1
-0.37558144 1.0570899 0.019581599 1
-0.35315239 1.0056307 0.018604266 1
-0.34963992 1.0068574 0.018604266 1
-0.35687584 1.0382082 0.019162742 1
-0.34295458 1.0091541 0.018604266 1
-0.34579816 1.0293009 0.018953314 1
-0.33464062 1.0077282 0.018534455 1
-0.33236811 1.0126902 0.018604266 1
-0.3226617 0.99482268 0.018255217 1
-0.32023326 0.99980742 0.018325027 2
-0.31674135 1.0009191 0.018325027 1
-0.32756534 1.0478252 0.019162742 1
0.054206967 0.0012692213 0.047939736 64
0.045217693 0.0047480464 0.04804441 100
0.043655097 0.0081781149 0.047939736 100
0.042110264 0.011609733 0.047835063 75
0.046168923 0.023320854 0.047207031 40
0.030942678 0.01193589 0.048149079 17
0.029433846 0.015396357 0.04804441 9
0.024655223 0.013846278 0.048253752 8
0.021887302 0.015776873 0.048253752 8
0.023576558 0.029250264 0.047625721 9
-0.80967695 0.57358307 0.023979606 4
-0.79058582 0.58135432 0.023630558 43
-0.81169099 0.58806974 0.023979606 140
-0.80438572 0.59385562 0.023839988 137
-0.81491178 0.5973295 0.024014512 131
-0.80756718 0.60307115 0.023874892 132
-0.79619998 0.60899872 0.023665464 139
-0.80271286 0.61300725 0.023770178 100
-1.0427079 1.1339012 0.028517231 3
-1.0388205 1.133013 0.085412279 5
-1.0213501 1.1290214 0.14101799 6
-1.0219491 1.1349365 0.028168185 10
-0.9908511 1.1277169 0.082900152 16
-1.0200875 1.1345043 0.14101799 29
-0.99536365 1.1344543 0.027714422 23
-0.99348086 1.1340102 0.083109498 84
-1.0285015 1.1422694 0.14188954 81
-0.99797148 1.1407779 0.02778423 38
-1.0019124 1.141722 0.083632857 100
-1.0155668 1.1449925 0.14084367 87
-0.98112339 1.1423984 0.027504992 42
-0.99090201 1.1447768 0.083109498 100
-0.9968248 1.1462173 0.13927488 94
-0.98168951 1.1484874 0.027539898 25
-0.98564023 1.1494637 0.082900152 99
-0.99543554 1.1518842 0.13927488 89
-0.97841936 1.1533452 0.027504992 23
-0.98430628 1.1548218 0.082900152 58
-0.99795812 1.1582458 0.13962349 78
-0.97333139 1.1571599 0.027435184 36
-0.97341114 1.1571802 0.082376793 38
-1.0025239 1.1645793 0.14014643 73
-0.9700343 1.1619756 0.027400278 57
-0.98365432 1.1654879 0.083004825 54
-0.97991496 1.1645236 0.13822901 91
-0.96091837 1.1652548 0.027260659 67
-0.970671 1.167806 0.082376793 100
-0.97660094 1.1693573 0.1380547 91
-0.9498654 1.1679623 0.027086135 78
-0.96348172 1.1715751 0.082062781 94
-0.97327191 1.1741728 0.13788038 98
-0.94646579 1.1729369 0.027051231 83
-0.94849974 1.1734846 0.081330076 98
-0.97370416 1.1802711 0.1380547 100
-0.95469564 1.1807914 0.027225753 93
-0.93937522 1.1766088 0.08091139 100
-0.97034079 1.1850626 0.13788038 98
-0.95710713 1.187108 0.027295563 92
-0.9417966 1.1828707 0.081120729 100
-0.96312207 1.1887728 0.13735744 91
-0.94408971 1.1891257 0.027086135 93
-0.9403463 1.1880755 0.081120729 86
-0.94822258 1.1902851 0.13613728 98
-0.9330737 1.1913455 0.026911611 71
-0.94279426 1.1941071 0.081330076 76
-0.94490415 1.1947066 0.13596296 100
-0.95273215 1.202605 0.027295563 56
-0.92595023 1.194895 0.080492698 44
-0.94724184 1.2010245 0.13631158 100
-0.9454537 1.2061682 0.027190849 39
-0.91678852 1.1978077 0.080074012 20
-0.96294242 1.211269 0.13788038 85
-0.93816894 1.2096858 0.027086135 68
-0.92103249 1.2046227 0.080388032 28
-0.94228548 1.2109021 0.13613728 85
-0.91946 1.2094617 0.026771991 75
-0.92341024 1.2106431 0.080597371 28
-0.92745322 1.2118522 0.1349171 92
-0.91600317 1.2140088 0.026737086 78
-0.92377466 1.2163625 0.080702044 74
-0.92971557 1.2181618 0.13526571 100
-0.91062075 1.2179507 0.026667276 81
-0.91075069 1.2179905 0.080074012 100
-0.92623729 1.2227401 0.13509139 98
-0.91668719 1.2254184 0.026806897 88
-0.89964086 1.2201254 0.079550654 95
-0.93035632 1.2296629 0.13561434 82
-0.91890389 1.2317348 0.026876707 83
-0.90758759 1.2281775 0.080074012 68
-0.91733855 1.2312427 0.13456847 52
-0.89822751 1.2307962 0.026527658 81
-0.90788251 1.2338682 0.080178685 72
-0.90053076 1.231529 0.13317397 46
-0.89661032 1.2358487 0.026527658 85
-0.90435332 1.2383422 0.080074012 84
-0.90649682 1.2390324 0.13387123 43
-0.89117283 1.2396562 0.026457848 96
-0.89701277 1.2415594 0.07976 100
-0.91621679 1.2478178 0.1349171 57
-0.89332277 1.2459365 0.026527658 100
-0.88208038 1.2422292 0.079027295 100
-0.91643208 1.2535567 0.13509139 78
-0.89165264 1.2509717 0.026527658 100
-0.88800162 1.2497536 0.07944598 100
-0.90717536 1.2561505 0.13439415 82
-0.87480742 1.2508852 0.02624842 92
-0.88631827 1.2547703 0.07944598 100
-0.89414281 1.2574111 0.13334829 82
-0.86933523 1.2545637 0.02617861 96
-0.89217788 1.2623622 0.079864666 100
-0.9018603 1.2656678 0.13421984 89
-0.87141556 1.2608205 0.02624842 99
-0.87157172 1.2608744 0.078817949 100
-0.89070493 1.2674812 0.13334829 100
-0.87346941 1.2670977 0.02631823 83
-0.86419278 1.2638582 0.078503937 99
-0.90212649 1.2771053 0.13456847 61
-0.87549669 1.2733953 0.026388038 81
-0.85304385 1.2654663 0.077980578 59
-0.89846891 1.2815076 0.13439415 35
-0.85866493 1.2729886 0.0261088 88
-0.85882956 1.2730474 0.078399263 25
-0.8872928 1.2832108 0.1335226 39
-0.84579104 1.2733414 0.025899371 99
-0.87039405 1.2822136 0.079131968 40
-0.87442786 1.2836683 0.13247673 28
-0.85154051 1.2809503 0.026038991 93
-0.85546225 1.28238 0.078399263 78
-0.87636989 1.2900021 0.13282534 16
-0.84590596 1.2847002 0.025969181 100
-0.85170096 1.2868369 0.07829459 100
-0.8781932 1.2966051 0.13317397 11
-0.84784836 1.2909663 0.026038991 100
-0.83304471 1.285449 0.077352546 93
-0.89874965 1.3099368 0.13526571 1
-0.83105057 1.2902035 0.025759751 100
-0.83123702 1.2902737 0.077352546 48
-0.88566905 1.3107767 0.13421984 1
-0.83296412 1.2964439 0.025829561 83
-0.84061211 1.2993553 0.077980578 51
-0.84653181 1.3016086 0.13073361 11
-0.84044987 1.3048577 0.026004085 75
-0.83129948 1.301338 0.077561885 59
-0.8595441 1.3122027 0.1321281 48
-0.83671051 1.3089836 0.025969181 78
-0.8257131 1.3047092 0.077352546 68
-0.85764283 1.3171196 0.1321281 100
-0.83295935 1.3130898 0.025934275 90
-0.81826109 1.307318 0.077038527 63
-0.8353247 1.3140187 0.13021068 95
-0.82176143 1.3142269 0.025759751 99
-0.82194668 1.3143003 0.077352546 82
-0.82600945 1.3159122 0.12951343 95
-0.80871636 1.3145484 0.025550323 100
-0.82930785 1.3228011 0.077875905 91
-0.82779425 1.3221945 0.12986206 100
-0.81792861 1.3237903 0.025759751 100
-0.81811339 1.3238649 0.077352546 97
-0.83878595 1.332234 0.13108224 100
-0.81608468 1.3283234 0.025759751 100
-0.81072265 1.3261319 0.077038527 100
-0.83691388 1.3368363 0.13108224 100
-0.80059606 1.3219931 0.17914793 21
-0.8141275 1.3330885 0.025759751 100
-0.79769617 1.326306 0.076410495 100
-0.80730182 1.330271 0.12846756 100
-0.78214675 1.3198874 0.17695428 16
-0.80477065 1.334769 0.025620133 100
-0.80312008 1.3340809 0.07682918 100
-0.81453282 1.3388386 0.12933913 100
-0.79304498 1.329881 0.17866045 19
-0.79173273 1.3348393 0.025410704 100
-0.80298358 1.3395758 0.076933853 99
-0.81070262 1.3428252 0.12916481 100
-0.78925282 1.3337953 0.17841671 24
-0.79343361 1.341084 0.025480513 96
-0.7862826 1.3380442 0.076096483 78
-0.80869478 1.3475715 0.12916481 100
-0.76170033 1.3275945 0.17500438 16
-0.81348282 1.3552347 0.025899371 59
-0.80080956 1.3497951 0.077038527 42
-0.80300874 1.350739 0.12881619 35
-0.77981168 1.3407824 0.1776855 5
-0.82060581 1.3639662 0.026073895 83
-0.80977303 1.3592718 0.077666558 85
-0.82656687 1.3665496 0.13125655 45
-0.79420394 1.3525248 0.17987914 8
-0.79470772 1.358327 0.025620133 100
-0.8131972 1.3664165 0.077980578 100
-0.8153494 1.367358 0.130385 100
-0.79579967 1.3588047 0.18036664 33
-0.78532904 1.3597856 0.025480513 100
-0.81658798 1.373592 0.07829459 100
-0.8096109 1.3705103 0.13003637 100
-0.76286656 1.3498645 0.17622307 35
-0.79422051 1.369329 0.025689943 100
-0.80170351 1.3726654 0.077561885 100
-0.80568665 1.3744414 0.12986206 100
-0.75902146 1.3536353 0.17597933 30
-0.79769665 1.3762444 0.025794657 100
-0.8015191 1.3779639 0.077666558 100
-0.81457692 1.3838378 0.13090792 100
-0.78061348 1.3685598 0.17914793 28
-0.80103463 1.3834252 0.025899371 100
-0.80484444 1.385155 0.077980578 100
-0.80154103 1.3836551 0.12986206 100
-0.78574604 1.3764836 0.18012288 21
-0.7952494 1.3864713 0.025829561 100
-0.80632025 1.3915446 0.078189917 100
-0.79214567 1.3850491 0.12916481 100
-0.77279311 1.3761805 0.17866045 14
-0.78764433 1.3886452 0.025724847 100
-0.81139344 1.3996289 0.07860861 100
-0.80445749 1.396421 0.1305593 100
-0.76706558 1.3791277 0.17817298 15
-0.79453689 1.3975394 0.025899371 100
-0.80013818 1.4001536 0.078085244 100
-0.80587345 1.4028304 0.13090792 100
-0.74334556 1.3736467 0.17524812 11
-0.79957455 1.405637 0.026038991 100
-0.79973716 1.4057137 0.078189917 100
-0.81086606 1.4109552 0.13160518 100
-0.7609852 1.3874618 0.17792924 3
-0.80649048 1.4143991 0.026213514 100
-0.80303377 1.4127572 0.078503937 100
-0.80873305 1.4154645 0.13160518 100
-0.77686089 1.4003236 0.18036664 3
-0.78800374 1.4113511 0.025899371 100
-0.80078191 1.4174762 0.078503937 100
-0.79928511 1.4167587 0.13090792 100
-0.78575677 1.4160178 0.025899371 100
-0.80210954 1.4239265 0.078713275 100
-0.80060655 1.4231995 0.13125655 100
-0.79427665 1.4259379 0.0261088 100
-0.80161375 1.4295181 0.078817949 100
-0.80906183 1.4331524 0.13230242 100
-0.79556698 1.4323928 0.02617861 100
-0.79571956 1.4324678 0.07860861 100
-0.81388885 1.4414122 0.13299966 100
-0.81115657 1.4459801 0.026527658 100
-0.80413169 1.4424914 0.079236634 100
-0.80796796 1.4443965 0.13265105 100
-0.79102701 1.4415363 0.02617861 100
-0.80368012 1.4478724 0.079341307 100
-0.80216104 1.4471118 0.13230242 100
-0.78867477 1.4462132 0.02617861 100
-0.80130559 1.4525936 0.079341307 100
-0.8033461 1.4536242 0.13265105 100
-0.79343313 1.4545133 0.02631823 100
-0.79891473 1.4573064 0.079341307 100
-0.81160289 1.4637713 0.13369691 100
-0.79459268 1.4610268 0.026388038 100
-0.7965073 1.4620107 0.079341307 100
-0.81803316 1.4730735 0.13456847 100
-0.79927379 1.4693971 0.026527658 100
-0.79940313 1.4694641 0.079655327 100
-0.80141968 1.4705094 0.13317397 100
-0.79327995 1.4722497 0.026457848 100
-0.8004933 1.4760208 0.079864666 100
-0.79543489 1.4733763 0.13282534 100
-0.78728276 1.4750692 0.026388038 92
-0.80332083 1.483525 0.080178685 100
-0.80530852 1.4845731 0.13404553 98
-0.80070406 1.4881821 0.026702182 30
-0.78671414 1.4807434 0.079341307 25
-0.80456501 1.4902351 0.13421984 56
0.11822215 1.3045352 0.13356629 5
0.17083064 1.2426043 0.010576159 13
0.13879624 1.2825325 0.03443706 27
0.14852652 1.2704045 0.056128297 24
0.16184399 1.2538054 0.098240845 12
0.13596863 1.2860569 0.12860526 17
0.19268742 1.2153615 0.13182132 7
0.12083045 1.3049254 0.18376152 6
0.15744549 1.2626257 0.010995016 38
0.15916842 1.2604635 0.032866981 58
0.1588797 1.2608259 0.054908119 50
0.14917824 1.2730005 0.078971334 14
0.15237102 1.2689937 0.10105667 23
0.15114066 1.2705376 0.12440746 78
0.18809399 1.2241641 0.13407083 15
0.16354012 1.2549773 0.16616182 15
0.16421553 1.2577873 0.010855397 100
0.16096869 1.2618927 0.032866981 87
0.15202975 1.273195 0.056128297 97
0.17195842 1.2479972 0.074827775 30
0.16768175 1.2534046 0.097615108 24
0.16272077 1.2596773 0.12135452 100
0.17888132 1.2392439 0.13811995 45
0.15333647 1.2715428 0.1713382 43
0.16336471 1.2622091 0.010925206 100
0.17493951 1.2474737 0.03182026 100
0.15616208 1.2713784 0.055779677 100
0.16618818 1.2586147 0.076290213 29
0.16684642 1.2577766 0.098240845 36
0.16919774 1.2547833 0.11982805 100
0.18525457 1.234342 0.13632034 30
0.16216192 1.2637403 0.16823238 45
0.16271237 1.266777 0.010995016 100
0.17669207 1.2488451 0.03182026 91
0.1531024 1.2791038 0.056476921 100
0.17652515 1.2490592 0.074584037 30
0.18321118 1.240483 0.094486415 26
0.17218417 1.2546275 0.11944643 100
0.18935522 1.232602 0.13542053 30
0.14615759 1.2880119 0.17599694 34
0.16313761 1.2696397 0.011029921 76
0.18072754 1.246922 0.031610917 61
0.16699061 1.2646635 0.054733805 75
0.17325458 1.2565734 0.07555899 30
0.17267978 1.2573159 0.097615108 24
0.17739916 1.2512207 0.11830158 39
0.18611905 1.2399588 0.13722014 22
0.15024304 1.2862933 0.17496167 35
0.17219639 1.2614746 0.010820492 78
0.18117732 1.2497916 0.031715591 61
0.16871962 1.2659974 0.054733805 50
0.17616516 1.2563118 0.075315252 60
0.18401432 1.2461009 0.095112152 38
0.1790812 1.2525184 0.11830158 13
0.18776172 1.2412261 0.13722014 22
0.15557978 1.2830907 0.17340876 57
0.18232244 1.2515987 0.010576159 54
0.16337875 1.276412 0.033390339 28
0.16915748 1.2688427 0.054908119 50
0.18018907 1.2543931 0.074827775 45
0.19038993 1.2410316 0.093860678 52
0.19497946 1.23502 0.11372216 13
0.19878665 1.2300333 0.13362093 38
0.17017859 1.2675052 0.16771474 67
0.17693028 1.2625715 0.010785587 39
0.17256132 1.2683399 0.032762308 29
0.17348158 1.2671249 0.054559495 50
0.19403702 1.2399851 0.072390392 47
0.18862325 1.247133 0.094799288 51
0.20625037 1.2238595 0.11066922 14
0.20996827 1.2189507 0.13002171 48
0.17908996 1.25972 0.16460891 69
0.17375755 1.2701981 0.010925206 65
0.17181477 1.272781 0.032971654 29
0.17273685 1.2715552 0.054908119 50
0.19082442 1.2475085 0.073365346 46
0.19614461 1.2404356 0.093234941 53
0.19949627 1.2359797 0.11334054 13
0.20911607 1.2231905 0.13092151 48
0.1725871 1.2717543 0.16823238 75
0.18037814 1.2651639 0.010785587 39
0.1856074 1.2581586 0.031924933 30
0.17934495 1.266548 0.054210871 51
0.19376442 1.247231 0.073121607 78
0.19668961 1.2433124 0.093547814 65
0.19063702 1.2514206 0.1167751 13
0.21544221 1.2181903 0.1291219 32
0.16865063 1.2808747 0.17082056 65
0.18321306 1.2647805 0.010750682 79
0.19436467 1.2497374 0.031296901 31
0.18455315 1.2629728 0.053687938 52
0.17998073 1.2691407 0.076290213 100
0.19590834 1.2476552 0.094173551 78
0.20626545 1.2336838 0.11219569 14
0.21228823 1.2255592 0.13092151 32
0.18415242 1.2635133 0.16460891 69
0.19213882 1.2564569 0.010541254 81
0.18547365 1.265517 0.032238949 60
0.1851818 1.2659138 0.053862248 77
0.18651792 1.2640976 0.075315252 100
0.20468476 1.2394025 0.092296332 80
0.20913061 1.2333591 0.11181407 14
0.2139602 1.226794 0.13092151 24
0.18138462 1.2710755 0.16667947 82
0.19611317 1.2544115 0.010471444 82
0.20596981 1.2409194 0.030564198 64
0.18212706 1.273556 0.054559495 100
0.20103949 1.2476681 0.072634131 94
0.20507798 1.2421402 0.092609204 93
0.20603654 1.240828 0.11334054 13
0.2258229 1.2137438 0.12687239 16
0.18304828 1.2722951 0.16667947 82
0.19780624 1.2556438 0.010471444 82
0.21347848 1.2340331 0.03004084 66
0.18154764 1.2780629 0.054908119 100
0.20270902 1.2488832 0.072634131 78
0.21020725 1.2385439 0.091670595 100
0.21459764 1.2324899 0.11105084 14
0.23423821 1.2054074 0.12417299 16
0.1814014 1.2782645 0.16823238 82
0.19483033 1.2633618 0.010611063 94
0.20693201 1.2465515 0.030773543 96
0.19030768 1.2696441 0.053862248 100
0.20438275 1.2500926 0.072634131 78
0.21184486 1.2397271 0.091670595 100
0.21162596 1.2400312 0.1125773 13
0.23576 1.206507 0.12417299 16
0.18882123 1.271709 0.16564418 76
0.21050644 1.245075 0.010192205 99
0.20975882 1.2461212 0.03066887 96
0.20132118 1.2579285 0.052467756 100
0.20836899 1.2480659 0.072146654 95
0.21463507 1.2392974 0.09135773 94
0.20984435 1.2460015 0.11372216 20
0.22142327 1.2297983 0.13047162 16
0.19843715 1.2619643 0.16202073 70
0.20753896 1.2527812 0.010331824 98
0.21835619 1.2375317 0.03004084 66
0.19380459 1.2721431 0.053862248 100
0.19510916 1.270304 0.075315252 100
0.20941791 1.2501323 0.093234941 100
0.21377972 1.2439833 0.11295892 27
0.22528523 1.2277635 0.12957181 16
0.20462742 1.2568858 0.15995017 72
0.20914182 1.2539141 0.010331824 98
0.21875826 1.2402618 0.030145511 98
0.19547173 1.2733215 0.053862248 100
0.21277413 1.2487574 0.071902916 48
0.2121495 1.2496442 0.092922069 100
0.20517829 1.2595412 0.11639348 59
0.23129386 1.222465 0.1277722 32
0.19845653 1.269084 0.16357364 69
0.20854139 1.2583787 0.010401634 97
0.22040179 1.2414151 0.030145511 98
0.19494751 1.2778218 0.054210871 100
0.21558481 1.2483047 0.071659178 64
0.21835345 1.2443448 0.091670595 100
0.20576426 1.2623508 0.1167751 100
0.2328752 1.2235748 0.1277722 65
0.20352167 1.2655582 0.16202073 70
0.20560122 1.2660789 0.010541254 95
0.22310588 1.2408649 0.03004084 99
0.20345083 1.2691765 0.053165004 100
0.21717277 1.2494111 0.071659178 80
0.23119348 1.2292154 0.08854191 98
0.21859497 1.2473625 0.11295892 82
0.22549036 1.2374302 0.13137141 94
0.20957372 1.2603569 0.15995017 72
0.21414286 1.2573984 0.010331824 98
0.22928458 1.2354246 0.029622151 100
0.20971739 1.2638206 0.052467756 100
0.21321642 1.2587429 0.072877869 94
0.2227107 1.2449647 0.09135773 100
0.22249123 1.2452831 0.11219569 100
0.22601825 1.2401648 0.13182132 86
0.21567211 1.2551792 0.15787962 73
0.22270319 1.2487216 0.010122396 85
0.21295685 1.2629771 0.031296901 94
0.20928067 1.2683541 0.05281638 100
0.22509333 1.2452257 0.070684217 65
0.22445375 1.2461611 0.09135773 94
0.22423545 1.2464803 0.11219569 100
0.22774366 1.2413491 0.13182132 94
0.21309134 1.2627803 0.15995017 72
0.21539351 1.2630987 0.010401634 83
0.23150179 1.2393603 0.029726824 33
0.20430988 1.2794323 0.053862248 77
0.22452486 1.249642 0.071171694 65
0.22611785 1.2472945 0.09135773 100
0.22700304 1.24599 0.11181407 98
0.23486209 1.2344084 0.12957181 96
0.21264401 1.2671505 0.16098544 72
0.21376562 1.2692394 0.010506349 40
0.23760489 1.233843 0.029308135 34
0.21610704 1.2657629 0.052293446 53
0.23285452 1.2408963 0.069709264 83
0.2310963 1.2435069 0.090419121 100
0.22756982 1.2487431 0.11219569 91
0.2353965 1.2371221 0.13002171 96
0.2154606 1.2667227 0.1604678 72
0.21995538 1.2637601 0.010366729 41
0.21702775 1.26814 0.031401575 31
0.21008921 1.2785203 0.053513627 52
0.23450017 1.2420005 0.069709264 83
0.24153307 1.231479 0.087916173 100
0.23033392 1.2482334 0.11181407 84
0.23594603 1.2398374 0.13047162 96
0.2204172 1.2630692 0.15891489 73
0.22389182 1.2615764 0.010296919 42
0.21656042 1.2726278 0.031610917 30
0.2261847 1.2581202 0.051247578 55
0.21968901 1.2679118 0.073365346 100
0.23768577 1.2407835 0.089480512 97
0.23417583 1.2460743 0.11105084 84
0.23974255 1.2376831 0.12957181 96
0.22427624 1.2609971 0.15787962 73
0.22560975 1.2627118 0.010296919 42
0.22051352 1.2704524 0.031401575 31
0.22131687 1.2692322 0.052293446 53
0.23780304 1.2441915 0.069709264 99
0.23498601 1.2484703 0.090731993 100
0.24123749 1.238975 0.10914274 85
0.24137694 1.2387632 0.12957181 88
0.22386748 1.2653581 0.15891489 73
0.23280054 1.255471 0.010122396 28
0.20478308 1.2983514 0.033076324 29
0.2230615 1.2703764 0.052293446 53
0.24163178 1.2419548 0.069221787 100
0.23557758 1.2512207 0.091044858 100
0.24072871 1.243337 0.10990598 85
0.24941063 1.2300494 0.12687239 90
0.2245419 1.2681108 0.15943253 73
0.22470564 1.2716758 0.010436539 41
0.23270828 1.259334 0.030564198 32
0.22697806 1.2681712 0.051944822 54
0.24112108 1.2463596 0.069709264 83
0.24263284 1.2440281 0.089480512 97
0.24451905 1.2411191 0.10914274 85
0.25313878 1.2278256 0.12597258 90
0.22418058 1.2724855 0.1604678 72
0.23727956 1.2559919 0.010087491 43
0.25603348 1.2268469 0.02847076 35
0.2384221 1.2542163 0.05037602 56
0.24171162 1.2491041 0.069953002 49
0.25390965 1.2301475 0.086664692 86
0.24297836 1.2471355 0.1102876 85
0.2526297 1.2321366 0.12687239 90
0.2332541 1.2622478 0.15684435 74
0.23897791 1.2570806 0.010087491 57
0.24258149 1.2514371 0.029936166 66
0.2411865 1.2536217 0.050201707 56
0.23804417 1.2585429 0.071171694 65
0.25551766 1.2311783 0.086664692 57
0.25098526 1.2382762 0.10799789 87
0.25424466 1.2331718 0.12687239 90
0.23393461 1.2649786 0.15736198 74
0.24059483 1.2581093 0.010087491 86
0.25059551 1.2423325 0.029308135 68
0.23639178 1.2647399 0.051247578 55
0.24710545 1.2478383 0.069465525 49
0.24858791 1.2454996 0.089167647 70
0.244131 1.2525307 0.11105084 98
0.2547389 1.235796 0.1273223 97
0.23247492 1.2709191 0.15891489 65
0.24442995 1.255801 0.010017681 72
0.24692905 1.2518278 0.029831495 99
0.23812065 1.2658316 0.051247578 82
0.24877527 1.2488927 0.069465525 49
0.25235307 1.2432046 0.08854191 84
0.25208902 1.2436243 0.10876112 79
0.26051691 1.2302256 0.12552269 99
0.23628256 1.2687538 0.15787962 65
0.24604258 1.2568116 0.010017681 87
0.2527597 1.2460537 0.029412808 100
0.2334353 1.277003 0.052293446 80
0.24300554 1.2616756 0.071171694 97
0.25601631 1.2408378 0.087916173 56
0.2443032 1.2595973 0.11219569 100
0.26307678 1.22953 0.12507279 83
0.23179927 1.2796233 0.16098544 64
0.24247795 1.2663691 0.010192205 85
0.25337136 1.2487861 0.029517479 100
0.24465081 1.262862 0.05072464 84
0.25204194 1.250932 0.069465525 49
0.26494408 1.2301066 0.08572609 58
0.25325185 1.2489791 0.10952436 78
0.26776153 1.225559 0.12372308 83
0.25090322 1.2527699 -0.0099129668 87
0.24375442 1.2643087 0.15580906 67
0.25259021 1.253811 0.0099129668 87
0.25399849 1.2515202 0.029622151 100
0.24950325 1.2588327 0.050201707 85
0.24956423 1.2587335 0.070440479 49
0.26137948 1.2395132 0.087290429 71
0.25492558 1.2500119 0.10952436 78
0.26731238 1.2298617 0.12462288 92
0.24548173 1.2653748 0.15580906 67
0.25219831 1.2582607 0.0099827768 87
0.25048113 1.261076 0.030145511 100
0.24498665 1.2700845 0.051247578 82
0.25747404 1.2496109 0.068978049 50
0.26507735 1.2371448 0.086664692 57
0.26069209 1.2443347 0.10799789 79
0.26587513 1.2358369 0.12597258 90
0.24922466 1.2631361 0.15477379 67
0.25191987 1.2627709 0.010052586 86
0.26055294 1.2484992 0.029308135 100
0.24991527 1.2660848 0.05072464 84
0.26334363 1.2438858 0.068003096 51
0.2565673 1.255088 0.089793384 69
0.25328732 1.2605103 0.11143246 84
0.2706103 1.2318728 0.12462288 92
0.25503364 1.2576234 0.15270324 68
0.25569981 1.2603792 0.0099827768 87
0.26530829 1.244369 0.028994121 100
0.24754772 1.2739627 0.051421888 100
0.26704255 1.2414793 0.067515619 51
0.26537791 1.244253 0.087603301 57
0.25399107 1.2632264 0.11181407 98
0.27924386 1.2211488 0.12147357 86
0.25569981 1.2603792 -0.0099827768 86
0.24779058 1.2735579 0.15736198 66
0.25945941 1.2579671 0.0099129668 87
0.2669659 1.2453599 0.028994121 100
0.250328 1.2733035 0.051247578 82
0.25853446 1.2595205 0.069953002 49
0.277141 1.2282706 0.084474608 59
0.26374963 1.2507616 0.10876112 72
0.27284461 1.2354865 0.12507279 92
0.25741336 1.2614034 -0.0099827768 86
0.25449178 1.2663103 0.15477379 67
0.26116452 1.2589782 0.0099129668 87
0.26456377 1.2532235 0.029412808 100
0.25613993 1.2674845 0.05055033 84
0.26529297 1.2519891 0.068734311 33
0.27572834 1.2343228 0.085413218 58
0.2594386 1.2619002 0.11105084 84
0.27645338 1.2330953 0.12417299 75
0.2601561 1.2606854 0.15270324 68
0.27290073 1.2426822 0.0095639192 91
0.26414761 1.2576134 0.029622151 100
0.25879887 1.2667375 0.05037602 100
0.27191252 1.244368 0.067515619 51
0.2772696 1.2352297 0.085413218 73
0.27000734 1.2476178 0.10761628 87
0.27700502 1.2356811 0.12462288 83
0.26178488 1.2616439 0.15270324 68
0.27053124 1.2505612 0.0097035384 90
0.27287987 1.2465227 0.028889447 100
0.26053458 1.267751 0.05037602 84
0.27157417 1.2487679 0.068003096 51
0.27591604 1.2413018 0.086351827 58
0.26970232 1.2519865 0.10837951 79
0.2845102 1.2265236 0.12192347 76
0.25767574 1.2726669 0.15580906 67
0.27212638 1.2514853 0.0097035384 90
0.27745658 1.2422494 0.028575432 100
0.26318267 1.2669824 0.050201707 85
0.27316335 1.2496885 0.068003096 51
0.28044263 1.2370753 0.085413218 73
0.2693395 1.2563143 0.10914274 85
0.28505147 1.2290893 0.12237337 85
0.26413003 1.2653409 -0.0099827768 86
0.26320678 1.2669407 0.15373851 68
0.26188684 1.2732775 0.010122396 85
0.27315298 1.2535979 0.029203463 100
0.26788881 1.2627933 0.049678773 86
0.26694956 1.264434 0.069953002 49
0.28207466 1.2380134 0.085413218 58
0.2700634 1.2589948 0.10952436 85
0.28956014 1.2249377 0.12102367 86
0.26983479 1.259394 -0.0098431576 87
0.26302359 1.271292 0.15477379 67
0.27557892 1.2534614 0.0097035384 90
0.27492732 1.2546093 0.029203463 100
0.27658153 1.251695 0.048458595 88
0.27562308 1.2533835 0.068246834 34
0.28964254 1.2286848 0.083536007 60
0.28542545 1.2361143 0.10418171 82
0.28738144 1.2326683 0.12282328 85
0.26677012 1.2689803 0.15373851 68
0.27726817 1.2544163 0.0097035384 90
0.2766206 1.2555665 0.029203463 100
0.27142236 1.2647995 0.049678773 86
0.27536431 1.257798 0.068734311 33
0.28833789 1.2347547 0.084474608 59
0.28031191 1.2490101 0.10685304 88
0.28612989 1.2386764 0.12417299 67
0.26941976 1.2683563 -0.0099827768 86
0.26851362 1.2699659 0.15373851 68
0.27896076 1.2553654 0.0097035384 90
0.27831721 1.2565179 0.029203463 100
0.26538002 1.2796851 0.051073264 83
0.28868279 1.2379556 0.065809444 35
0.28996176 1.2356653 0.084474608 59
0.27815682 1.2568051 0.10837951 79
0.29061785 1.2344904 0.12282328 85
0.26837677 1.2743187 0.15477379 67
0.27387464 1.2685537 0.0099478718 73
0.28388786 1.2504745 0.028784776 100
0.26909155 1.2771897 0.05072464 84
0.27685288 1.2631764 0.069221787 83
0.29158881 1.2365701 0.084474608 59
0.27985775 1.257751 0.10837951 87
0.27484348 1.2668045 -0.0099129668 87
0.26826689 1.2786787 0.15580906 67
0.28323385 1.2554464 0.0096686333 75
0.28163511 1.2583559 0.029203463 100
0.27749175 1.2658957 0.049504463 86
0.27944583 1.2623398 0.068978049 50
0.29123476 1.2408869 0.085100345 58
0.28147668 1.2586441 0.10837951 79
0.2994166 1.225998 0.12012386 86
0.28034469 1.260704 -0.0097733475 88
0.27925909 1.2626796 0.15063268 70
0.29067159 1.2458396 0.009459204 93
0.28525296 1.2557821 0.028994121 100
0.28971219 1.2476 0.047587037 90
0.28496581 1.256309 0.068003096 51
0.29477063 1.2383182 0.084474608 59
0.28976044 1.2475114 0.10570818 81
0.2982122 1.2320033 0.12147357 77
0.27823147 1.2686658 -0.0099129668 87
0.2837539 1.2585328 0.14907977 78
0.28481346 1.2608618 0.0097384425 90
0.28133923 1.2672925 0.029622151 100
0.28578234 1.2590684 0.048632905 88
0.28675002 1.2572771 0.068003096 51
0.29554987 1.2409885 0.084787481 59
0.2989777 1.2346436 0.10265524 76
0.28462803 1.261205 0.14959741 78
0.29408324 1.247683 0.009459204 77
0.29250863 1.2506222 0.028575432 100
0.27996397 1.2740375 0.050027397 85
0.29220232 1.2511939 0.067028143 51
0.29812834 1.2401326 0.084474608 59
0.29503834 1.2459003 0.10494494 82
0.28634426 1.2621284 0.14959741 70
0.29293767 1.2538713 0.0095639192 91
0.29606199 1.2479904 0.028366089 100
0.28546405 1.267939 0.049330149 87
0.29202092 1.255597 0.067515619 51
0.29025349 1.2589238 0.10761628 79
0.28262559 1.2732818 0.15270324 68
0.2909002 1.2618426 0.0097035384 90
0.2949394 1.2541751 0.028680105 100
0.2974185 1.249469 0.047412723 90
0.29371753 1.2564945 0.067515619 51
0.29104671 1.2615645 0.10799789 79
0.2909002 1.2618426 -0.0097035384 89
0.29338795 1.2571201 0.14752686 71
0.2972478 1.2538817 0.0095290141 92
0.29478163 1.2586031 0.028889447 100
0.29448143 1.2591777 0.048284281 88
0.29909354 1.2503481 0.066540658 52
0.28706363 1.2733788 -0.0099129668 87
0.29508987 1.258013 0.14752686 71
0.29893839 1.254761 0.0095290141 92
0.29648873 1.259491 0.028889447 100
0.29527426 1.2618358 0.048458595 88
0.29894596 1.2547464 0.067028143 51
0.29501802 1.2623307 0.14856213 71
0.29606488 1.2645289 0.0097035384 100
0.29426235 1.2680392 0.048981529 58
0.29320836 1.2700918 0.15063268 70
0.2996071 1.2618481 0.0096337283 100
0.2914421 1.2778866 -0.0099478718 100
0.29583201 1.2692635 0.15011504 78
0.29947722 1.266166 0.068246834 68
0.29402906 1.2769562 -0.0099129668 100
0.29759035 1.2742703 -0.0098431576 100
