# .PCD v0.7 - Point Cloud Data file format
VERSION 0.7
FIELDS x y z intensity
SIZE 4 4 4 4
TYPE F F F F
COUNT 1 1 1 1
WIDTH 765
HEIGHT 1
VIEWPOINT 0 0 0 1 0 0 0
POINTS 765
DATA ascii
-1.1524682 0.16217396 0.0203146 4
-1.1352419 0.1597499 0.060081679 30
-1.1142902 0.16077021 0.019651409 6
-1.0247036 0.15149781 0.018080693 6
-1.0182909 0.15382022 0.017975979 4
-1.0849388 0.16776352 0.019162742 1
-0.61367667 1.1435435 0.022653224 1
-0.60968125 1.1456786 0.022653224 1
-0.58959353 1.1561446 0.022653224 1
-0.56525177 1.1682385 0.022653224 1
-0.55708218 1.1721562 0.022653224 1
-0.55298722 1.1740937 0.022653224 1
-0.51505589 1.1035351 0.021257032 1
-0.5028066 1.0871763 0.020907983 1
-0.52066839 1.1361904 0.021815509 1
-0.5150457 1.1343594 0.021745699 1
0.056872725 0.0077412724 0.015846785 118
0.053134084 0.0019621849 0.047939736 50
0.04923141 0.0021154881 0.04804441 37
0.040574849 0.00063431263 0.048358422 100
0.04467535 0.01229763 0.047730394 76
0.040787399 0.012497306 0.047835063 46
0.033799291 0.0075746775 0.048253752 26
0.033259869 0.012771249 0.04804441 18
0.023964107 0.0046129823 0.048672438 16
0.038350582 0.031084418 0.047102362 10
0.022193849 0.013126075 0.048358422 8
0.033204496 0.034674346 0.047102362 10
0.012307346 0.010308325 0.048777111 8
-1.1373177 0.4818846 0.029878519 8
-1.1422577 0.48711678 0.02994833 9
-1.1235001 0.49625373 0.029599281 8
-1.0869284 0.50809956 0.02893609 5
-1.0819056 0.51474214 0.028831376 8
-1.0570891 0.52436781 0.028377613 10
-1.0520034 0.53086483 0.028272899 10
-1.040915 0.53791058 0.028063469 8
-1.0199385 0.5465647 0.027679516 11
-0.99495941 0.55561912 0.027225753 28
-0.98578995 0.56235301 0.027051231 27
-0.97857517 0.56875926 0.026911611 24
-0.9832353 0.57358801 0.026981421 24
-0.98986465 0.57819968 0.027086135 28
-0.97662824 0.58525765 0.026841801 23
-0.98520797 0.58965451 0.026981421 13
-0.9818545 0.59546721 0.026911611 5
-1.0179009 1.1259305 0.084260888 3
-1.0354507 1.1299145 0.14223817 4
-1.0322633 1.1347126 0.028342709 8
-1.0030885 1.1279877 0.083528183 9
-1.020658 1.1320375 0.14101799 11
-1.0037224 1.1338501 0.02785404 12
-1.0173867 1.13705 0.084365562 63
-1.0116251 1.1357008 0.14032075 53
-0.99277979 1.1366885 0.027679516 36
-0.99284321 1.1367035 0.083109498 100
-1.0278494 1.1450238 0.14188954 100
-0.9875378 1.1414015 0.027609708 37
-0.98178178 1.1400111 0.082586139 100
-1.0129073 1.1475296 0.14066938 87
-0.99795109 1.149354 0.027819136 33
-0.98442608 1.1460394 0.082795486 100
-1.0058415 1.1512876 0.14014643 84
-0.98490757 1.1521263 0.027609708 23
-0.97334701 1.1492482 0.08227212 78
-0.98896652 1.1531368 0.13875194 91
-0.9641766 1.1525832 0.027260659 30
-0.98944145 1.1589668 0.083214171 39
-0.99341482 1.1599708 0.13927488 78
-0.96864313 1.1593562 0.027365373 48
-0.97646624 1.1613619 0.082586139 36
-0.99204415 1.1653559 0.13927488 91
-0.96727473 1.164655 0.027365373 61
-0.95962733 1.1626658 0.081748761 88
-0.99451119 1.1717393 0.13962349 81
-0.96588784 1.1699488 0.027365373 71
-0.96404105 1.1694615 0.082062781 96
-0.96998185 1.171029 0.13753176 94
-0.94902867 1.1711028 0.027086135 81
-0.95491987 1.1726791 0.081644088 92
-0.96087402 1.1742723 0.13683452 100
-0.94769031 1.1760714 0.027086135 89
-0.95935923 1.1792353 0.081958108 100
-0.96529394 1.1808444 0.13735744 100
-0.94240743 1.1802368 0.027016325 96
-0.94636661 1.1813252 0.081330076 100
-0.96769291 1.1871874 0.13770607 92
-0.95252413 1.1886643 0.027225753 92
-0.93530184 1.1838655 0.080806717 94
-0.96622735 1.1924826 0.13770607 92
-0.95105356 1.1939065 0.027225753 88
-0.94153649 1.1912189 0.081225403 80
-0.95323902 1.1945238 0.1366602 100
-0.95710415 1.2018704 0.027365373 63
-0.93222815 1.1947421 0.080806717 66
-0.94202131 1.1975484 0.13578865 100
-0.94406515 1.2037833 0.027155945 39
-0.94224483 1.2032547 0.081434749 24
-0.95200008 1.2060871 0.13683452 94
-0.93494433 1.2064797 0.027016325 53
-0.91972178 1.2020051 0.080283359 26
-0.95436877 1.2121892 0.13718314 84
-0.9295786 1.2105192 0.026946515 75
-0.91629058 1.206563 0.080178685 26
-0.94135875 1.2140266 0.13613728 87
-0.93193895 1.2165772 0.027016325 78
-0.91865951 1.2125754 0.080388032 46
-0.93033987 1.2160953 0.13526571 99
-0.91507 1.2170782 0.026737086 81
-0.91137475 1.2159505 0.080074012 98
-0.9211511 1.2189338 0.13456847 100
-0.90593666 1.2195741 0.026597468 89
-0.91179627 1.2213835 0.080178685 90
-0.91965431 1.22381 0.13456847 91
-0.91581017 1.2282335 0.026806897 88
-0.90830547 1.2258874 0.080074012 72
-0.91806132 1.2289371 0.13456847 61
-0.91038865 1.2321407 0.026737086 83
-0.89908844 1.2285647 0.079655327 68
-0.9202494 1.2352611 0.1349171 43
-0.91257542 1.2384555 0.026806897 83
-0.897479 1.2336202 0.079655327 85
-0.90723175 1.2367439 0.13387123 43
-0.89571327 1.238625 0.026527658 89
-0.90535146 1.2417493 0.080178685 98
-0.90938431 1.2430565 0.13421984 52
-0.88266808 1.2399292 0.02631823 99
-0.90369588 1.2468265 0.080178685 100
-0.90583092 1.2475269 0.13404553 73
-0.88852721 1.2476978 0.026457848 100
-0.88867015 1.2477453 0.07944598 100
-0.91541618 1.256627 0.13509139 82
-0.8830598 1.2514427 0.026388038 99
-0.88510042 1.2521282 0.079341307 100
-0.90993124 1.2604703 0.13474278 77
-0.88902932 1.2587647 0.026527658 99
-0.88538486 1.2575269 0.07944598 100
-0.895091 1.2608235 0.1335226 86
-0.86840242 1.2572877 0.02617861 93
-0.87989658 1.2612365 0.079236634 100
-0.88583165 1.2632755 0.13282534 100
-0.86660689 1.2624831 0.02617861 81
-0.88185948 1.2677858 0.07944598 100
-0.89342362 1.271806 0.13369691 85
-0.87053865 1.2694147 0.026283324 72
-0.87069219 1.2694687 0.078922622 76
-0.90857977 1.2827888 0.13526571 47
-0.86690253 1.2737005 0.02624842 78
-0.86329442 1.2724178 0.07860861 38
-0.88988525 1.2818707 0.13369691 33
-0.86513561 1.2786434 0.02624842 96
-0.85589343 1.2753214 0.07829459 19
-0.87496501 1.2821763 0.13247673 31
-0.85216373 1.2792375 0.026038991 99
-0.85984176 1.2820261 0.07860861 59
-0.87138599 1.2862186 0.13230242 18
-0.84662324 1.2827506 0.025969181 100
-0.86179572 1.2883209 0.078817949 100
-0.86583477 1.2898037 0.13195379 13
-0.83732587 1.2848396 0.025829561 100
-0.84687048 1.2883816 0.078085244 100
-0.88269085 1.3016746 0.13369691 3
-0.84675413 1.2938929 0.026038991 100
-0.83009213 1.2876432 0.077247873 53
-0.87149876 1.303174 0.13282534 1
-0.84117728 1.2973475 0.025969181 99
-0.8413499 1.297413 0.077980578 53
-0.83795756 1.2961271 0.12986206 5
-0.83372587 1.3000546 0.025864467 72
-0.84136552 1.3029809 0.078085244 55
-0.84727591 1.305245 0.13090792 24
-0.83186716 1.3048813 0.025864467 74
-0.83949655 1.3078345 0.078085244 68
-0.83239263 1.3050847 0.12968774 60
-0.82999164 1.3097017 0.025864467 83
-0.83017045 1.3097717 0.077666558 63
-0.85649389 1.3200665 0.1321281 100
-0.82633442 1.3135405 0.025829561 99
-0.81536943 1.3092102 0.076933853 76
-0.83983713 1.3188729 0.13073361 97
-0.82442874 1.3183415 0.025829561 100
-0.82460934 1.3184135 0.077561885 91
-0.83051056 1.3207679 0.13003637 99
-0.81879681 1.3216407 0.025759751 100
-0.82639152 1.3247015 0.077771232 91
-0.82488364 1.3240938 0.12968774 100
-0.8094545 1.3233997 0.025620133 100
-0.82999653 1.3317618 0.078085244 97
-0.83216792 1.3326457 0.1305593 100
-0.77194792 1.3081317 0.17524812 15
-0.80400974 1.3261483 0.025550323 100
-0.79866511 1.3239529 0.076410495 100
-0.81012064 1.3286582 0.12864187 100
-0.7629059 1.3092651 0.17427316 13
-0.80944842 1.3339361 0.025689943 100
-0.79672319 1.3286574 0.076410495 100
-0.82288486 1.33951 0.13003637 100
-0.76284915 1.3146055 0.1745169 18
-0.81116039 1.3402233 0.025759751 100
-0.78923851 1.3310397 0.076096483 100
-0.80986267 1.3396797 0.1289905 100
-0.78657299 1.329923 0.17792924 18
-0.79811162 1.3402966 0.025550323 100
-0.79646915 1.3396018 0.076619841 99
-0.79869109 1.3405418 0.12811895 100
-0.76998442 1.328398 0.17597933 20
-0.79427367 1.3442135 0.025515418 70
-0.81100303 1.3513594 0.077561885 40
-0.80035573 1.3468114 0.12846756 73
-0.75889963 1.3291032 0.17476064 15
-0.81062311 1.3568217 0.025864467 66
-0.81263334 1.3576887 0.077771232 59
-0.82394689 1.362568 0.13090792 15
-0.78063625 1.3438886 0.17792924 7
-0.81039983 1.3623658 0.025899371 100
-0.7977553 1.3568599 0.077038527 100
-0.82369679 1.3681558 0.13108224 82
-0.77134484 1.3453599 0.17695428 20
-0.8083238 1.367111 0.025899371 100
-0.80301219 1.3647759 0.077457212 100
-0.81612867 1.3705418 0.1305593 100
-0.78931814 1.3587562 0.17963541 33
-0.78978103 1.3645487 0.025585229 100
-0.81188124 1.374356 0.078085244 100
-0.80673963 1.3720744 0.12986206 100
-0.76548141 1.3537654 0.17671055 31
-0.79499739 1.3724917 0.025724847 100
-0.81340879 1.3807392 0.07829459 100
-0.80826634 1.3784356 0.13021068 100
-0.75800079 1.3559191 0.17597933 22
-0.80017442 1.3804784 0.025864467 100
-0.80398911 1.3822032 0.077875905 100
-0.81339592 1.3864565 0.13090792 100
-0.7794618 1.3711133 0.17914793 24
-0.80349296 1.3876784 0.025969181 100
-0.80729491 1.3894134 0.078189917 100
-0.81123585 1.3912119 0.13090792 100
-0.77374357 1.374102 0.17866045 14
-0.80303603 1.3934718 0.026004085 100
-0.8086434 1.3960557 0.078399263 100
-0.80533081 1.3945292 0.1305593 100
-0.7552945 1.3714728 0.17646681 13
-0.79541188 1.3956614 0.025899371 100
-0.81007177 1.4024787 0.07860861 100
-0.79952925 1.3975761 0.13021068 100
-0.77298683 1.385233 0.17914793 12
-0.78619736 1.3964894 0.025759751 100
-0.81531149 1.4101399 0.079027295 100
-0.80115896 1.4035044 0.1305593 100
-0.76385814 1.3860154 0.17817298 5
-0.79304034 1.4054259 0.025934275 100
-0.80584711 1.4114852 0.07860861 100
-0.80614334 1.4116253 0.13125655 100
-0.76528865 1.3922958 0.17866045 3
-0.79622787 1.4126947 0.026038991 100
-0.80359966 1.416214 0.07860861 100
-0.81827933 1.4232221 0.13265105 100
-0.80118257 1.4208612 0.02617861 100
-0.80493444 1.4226685 0.078817949 100
-0.79804093 1.419348 0.13090792 100
-0.79507703 1.4242952 0.0261088 100
-0.80241841 1.4278662 0.078817949 100
-0.79912096 1.4262623 0.13125655 100
-0.78560418 1.4254624 0.025969181 100
-0.80907875 1.4369826 0.079341307 100
-0.80397648 1.4344788 0.13195379 100
-0.78712326 1.4314283 0.026038991 100
-0.79802555 1.4368213 0.078817949 100
-0.81259733 1.4440295 0.13299966 100
-0.79912049 1.4432348 0.02631823 100
-0.79747683 1.4424145 0.078922622 100
-0.80667073 1.4470024 0.13265105 100
-0.80033463 1.4497383 0.026388038 100
-0.80047339 1.4498081 0.079236634 100
-0.80073994 1.4499424 0.13230242 100
-0.79082161 1.4508262 0.02624842 100
-0.80343467 1.4572308 0.079550654 100
-0.80546433 1.4582613 0.13299966 100
-0.78499657 1.4534463 0.02617861 100
-0.80825967 1.4653558 0.079969339 100
-0.80672151 1.4645683 0.13334829 100
-0.79326361 1.463607 0.026388038 100
-0.79872555 1.4664273 0.079550654 100
-0.82022148 1.4775269 0.1349171 100
-0.79792863 1.4719863 0.026527658 100
-0.7892006 1.4674408 0.079131968 100
-0.81420916 1.4804649 0.13456847 100
-0.80255145 1.4804065 0.026667276 99
-0.79559892 1.4767549 0.079655327 100
-0.80642921 1.4824433 0.13404553 100
-0.78239244 1.4757632 0.02631823 61
-0.79135877 1.4805126 0.079550654 63
-0.79337019 1.4815781 0.13299966 95
0.12522733 1.2983106 0.011832732 11
0.13542846 1.2856231 0.12860526 11
0.19100013 1.2165058 0.13227122 7
0.15185145 1.2683952 0.011134636 25
0.16854227 1.2475019 0.032029606 30
0.14708835 1.2743576 0.056476921 24
0.14608601 1.2756122 0.07945881 14
0.13819939 1.2854846 0.10449822 11
0.14807871 1.2731178 0.12517071 48
0.20091882 1.2069736 0.1291219 16
0.14003828 1.2831826 0.17599694 13
0.14613768 1.2791822 0.011344064 100
0.17393479 1.2441361 0.031715591 92
0.15751812 1.2648339 0.055256739 99
0.16512346 1.2552452 0.076046467 29
0.17191735 1.2466797 0.096363634 25
0.15837741 1.2637506 0.12249938 100
0.1879144 1.2265109 0.13452072 31
0.15023559 1.2740157 0.17237349 42
0.16276366 1.2617364 0.010925206 100
0.1731208 1.2485842 0.031924933 100
0.16048047 1.2646357 0.055082429 100
0.15208194 1.2753006 0.078971334 28
0.17602783 1.2448926 0.095737889 38
0.16374722 1.2604873 0.12135452 100
0.18107057 1.238489 0.13767004 37
0.15677819 1.2693371 0.17030293 43
0.1620191 1.2662357 0.010995016 100
0.17479366 1.2498968 0.031924933 100
0.15730071 1.2722707 0.055779677 100
0.16607511 1.2610481 0.076533951 29
0.1825546 1.2399704 0.094486415 26
0.17876333 1.2448195 0.11715672 100
0.18030757 1.2428445 0.13856985 36
0.15257409 1.2783161 0.17289113 35
0.17347845 1.2548842 0.010715778 100
0.18373689 1.2416735 0.031296901 62
0.16141239 1.2704229 0.055431053 99
0.16892308 1.2607505 0.076290213 29
0.17199972 1.2567885 0.097615108 24
0.18515635 1.2398454 0.11563025 81
0.19024402 1.2332935 0.13542053 30
0.14596799 1.2903121 0.1765146 41
0.17517331 1.2561955 0.010715778 66
0.17197165 1.2603486 0.032448292 59
0.16194507 1.2733542 0.055605363 49
0.18033457 1.2495008 0.074340299 46
0.18334991 1.2455895 0.095112152 38
0.16162625 1.2737677 0.12364423 12
0.18591428 1.2422632 0.13767004 22
0.14424816 1.2963092 0.17806751 47
0.16958034 1.2670287 0.010925206 52
0.17854124 1.255321 0.032029606 30
0.17097023 1.2652128 0.054559495 50
0.18442366 1.2476355 0.073852822 62
0.19581783 1.2327487 0.092296332 53
0.18963858 1.2408221 0.11524864 20
0.195856 1.2326988 0.13452072 31
0.16604859 1.271643 0.16926765 59
0.17131761 1.2683536 0.010925206 52
0.15607011 1.2884195 0.034123044 27
0.17631745 1.2617737 0.054036561 51
0.18249011 1.2536504 0.074584037 61
0.20341095 1.2261181 0.090731993 54
0.19603547 1.2358243 0.11372216 13
0.20101035 1.2292774 0.13317102 38
0.18065879 1.2560604 0.16357364 69
0.18269378 1.2569013 0.010645968 40
0.13382584 1.3216805 0.036216483 24
0.17563656 1.2662562 0.054385185 51
0.1829851 1.256515 0.074827775 45
0.19429848 1.241518 0.093547814 52
0.20002833 1.2339225 0.11295892 13
0.20144206 1.2320485 0.13362093 46
0.17770401 1.2635156 0.16564418 68
0.18679303 1.2549791 0.010576159 40
0.17406586 1.2719734 0.032866981 29
0.17737111 1.26756 0.054385185 51
0.19301525 1.2466708 0.073121607 62
0.18765768 1.2538246 0.095737889 51
0.20518044 1.230427 0.11181407 14
0.20889783 1.2254633 0.13137141 39
0.17595485 1.269451 0.16719711 67
0.17775014 1.2706869 0.010890301 78
0.19012022 1.2540488 0.031610917 30
0.17673269 1.2720554 0.054733805 50
0.19231251 1.2511001 0.073609084 77
0.20231333 1.2376487 0.092296332 66
0.19859016 1.2426565 0.1144854 13
0.21048975 1.2266512 0.13137141 31
0.17424265 1.2754047 0.16875002 66
0.17712513 1.2752011 0.010960111 90
0.20011443 1.2440534 0.030878214 63
0.18440327 1.2653401 0.053862248 77
0.18809992 1.2603316 0.074827775 45
0.20629397 1.2356808 0.091670595 81
0.19557872 1.2501987 0.11601187 13
0.21324307 1.2262657 0.13092151 32
0.18862846 1.2596154 0.163056 70
0.19079524 1.2604318 0.010611063 94
0.21129552 1.2324421 0.03004084 66
0.18857577 1.2634621 0.053513627 78
0.20514804 1.2408354 0.071659178 64
0.20566863 1.2401247 0.092296332 100
0.21358201 1.2293204 0.11066922 14
0.21952358 1.2212082 0.1291219 16
0.19499144 1.2547026 0.16098544 72
0.19721317 1.2552131 0.010471444 82
0.20703918 1.2416987 0.030564198 64
0.18678552 1.2695551 0.054036561 100
0.19161788 1.2629087 0.074827775 100
0.20847341 1.2397261 0.091983467 93
0.2117238 1.2352556 0.11181407 14
0.23141453 1.2081735 0.12507279 8
0.19441342 1.2590638 0.16202073 70
0.19648299 1.2596228 0.010541254 81
0.21094361 1.2395948 0.030354854 97
0.19194302 1.2659107 0.053513627 100
0.20371273 1.2496096 0.072634131 78
0.20540756 1.2472622 0.093234941 100
0.21096998 1.2395582 0.1125773 13
0.23743233 1.2029078 0.12327318 17
0.19377542 1.2633729 0.163056 70
0.1912047 1.270606 0.010750682 92
0.21840236 1.2326586 0.029831495 99
0.18671227 1.2768741 0.054559495 100
0.20770183 1.2475885 0.072146654 79
0.2151309 1.2372231 0.091044858 100
0.2137548 1.2391431 0.11219569 14
0.23894536 1.2039962 0.12327318 17
0.19437438 1.2661835 0.16357364 69
0.19518581 1.2685347 0.010680873 93
0.21530598 1.2402647 0.030250182 98
0.19763741 1.26509 0.053165004 100
0.20928743 1.248721 0.072146654 79
0.21668211 1.2383311 0.091044858 100
0.20279008 1.2578502 0.11639348 19
0.23586637 1.2113761 0.12507279 16
0.19938231 1.2626383 0.16202073 70
0.21308178 1.2469049 0.010192205 99
0.21233985 1.2479551 0.03066887 96
0.19476929 1.272826 0.053862248 100
0.20866975 1.25315 0.072634131 78
0.2194587 1.2378783 0.090731993 95
0.20562792 1.2574557 0.11601187 53
0.23066241 1.2220197 0.1277722 24
0.19776002 1.2685926 0.16357364 69
0.21130419 1.2529898 0.010296919 100
0.21630374 1.2458602 0.030459527 97
0.20567808 1.2610128 0.052467756 100
0.22289547 1.2364602 0.069953002 49
0.21995977 1.2406466 0.091044858 95
0.20733154 1.2586548 0.11601187 99
0.22441012 1.2343003 0.13092151 56
0.20504841 1.2619107 0.16098544 72
0.21184981 1.2558103 0.010331824 98
0.22024882 1.2437437 0.030250182 98
0.20284122 1.2687527 0.053165004 100
0.21885541 1.2457455 0.071171694 65
0.21821913 1.2466598 0.091983467 93
0.22137675 1.2421232 0.11181407 84
0.22714612 1.2338345 0.13047162 80
0.20235306 1.269454 0.163056 70
0.21354765 1.2569877 0.010331824 98
0.22871619 1.2350326 0.029622151 100
0.20005426 1.2765183 0.053862248 100
0.22051811 1.2468985 0.071171694 65
0.22774488 1.2364384 0.089793384 100
0.22302678 1.2432675 0.11181407 84
0.23430565 1.2269422 0.12822211 81
0.20409858 1.2706645 0.163056 70
0.20846412 1.2680542 0.010541254 81
0.22469375 1.244387 0.030145511 98
0.21083874 1.2645915 0.052467756 100
0.21657151 1.2562315 0.072390392 47
0.22825786 1.2391895 0.090106249 96
0.21357772 1.2605972 0.11563025 100
0.22818795 1.2392915 0.13137141 94
0.2124036 1.2623094 0.15995017 72
0.21254161 1.2659961 0.010471444 82
0.22306415 1.25053 0.030459527 65
0.21489528 1.2625368 0.052119136 100
0.22505575 1.2476028 0.070927955 65
0.23442441 1.2338328 0.088854775 98
0.22531739 1.2472183 0.11219569 91
0.22881395 1.242079 0.13182132 94
0.22073048 1.2539601 0.15684435 74
0.21539408 1.2655138 0.010436539 41
0.2292144 1.2450475 0.03004084 33
0.21104163 1.2719593 0.05299069 52
0.23227945 1.2405086 0.069709264 83
0.23272899 1.2398428 0.089793384 100
0.23357731 1.2385865 0.10990598 92
0.23046377 1.2431973 0.13182132 94
0.21701622 1.2631116 0.15943253 89
0.22149345 1.2599769 0.010296919 42
0.21077141 1.275969 0.031924933 30
0.21381754 1.2714257 0.05281638 53
0.23384145 1.2415595 0.069709264 83
0.23098868 1.2458146 0.090731993 100
0.23075977 1.246156 0.11143246 100
0.23746073 1.2361612 0.12957181 100
0.21219847 1.2738407 0.16253836 78
0.21877468 1.2677799 0.010436539 41
0.22360393 1.2605222 0.030878214 31
0.21336246 1.2759137 0.053165004 52
0.23329005 1.2459655 0.07019674 99
0.23812303 1.2387023 0.089167647 98
0.23242381 1.2472674 0.11143246 91
0.24232849 1.2323822 0.12822211 89
0.21931022 1.266975 0.15995017 72
0.22042719 1.2688756 0.010436539 41
0.22082871 1.2682678 0.031296901 31
0.21504197 1.2770271 0.053165004 52
0.23158756 1.2519821 0.070927955 97
0.24730095 1.2281966 0.086977564 100
0.23400822 1.2483178 0.11143246 91
0.23849267 1.2415297 0.13047162 96
0.22841406 1.2567859 0.1563267 74
0.22436345 1.2666783 0.010366729 27
0.1897175 1.3195221 0.03443706 27
0.2200911 1.2731947 0.05264207 53
0.22891828 1.2597311 0.071902916 96
0.24565294 1.2342064 0.087916173 84
0.23567981 1.249418 0.11143246 91
0.241209 1.2409846 0.13002171 100
0.22693756 1.2627521 0.15787962 73
0.22618604 1.2678685 0.010366729 41
0.21786892 1.2806561 0.031924933 30
0.2273691 1.2660495 0.051770512 54
0.23720932 1.2509201 0.070440479 98
0.23766318 1.2502222 0.090731993 95
0.24707279 1.2357548 0.10799789 87
0.24506232 1.2388459 0.1291219 96
0.22558588 1.2687912 0.15943253 73
0.23434713 1.25886 0.0101573 42
0.24773246 1.2381297 0.029203463 34
0.22793511 1.2687905 0.051944822 54
0.2463434 1.240281 0.068734311 84
0.24247193 1.2462769 0.089793384 83
0.24542412 1.2417047 0.10914274 92
0.25084704 1.2333061 0.1273223 97
0.22724169 1.2698643 0.15943253 73
0.23605549 1.2599587 0.0101573 57
0.24829084 1.2408637 0.029308135 68
0.23612759 1.2598462 0.050898954 55
0.242632 1.2496952 0.069953002 49
0.25266215 1.2340416 0.087290429 85
0.24495414 1.2460711 0.10990598 85
0.25141475 1.2359883 0.1277722 97
0.23107302 1.2677348 0.15839726 73
0.2398285 1.2576227 0.010087491 57
0.24878198 1.2435467 0.029412808 67
0.2313377 1.2709711 0.051944822 54
0.23783189 1.2607615 0.071415432 48
0.2520822 1.2383585 0.087916173 70
0.23494384 1.2653018 0.11410378 96
0.25296167 1.2369759 0.1277722 89
0.23790956 1.2606394 0.15580906 67
0.23628247 1.2672122 0.010262015 84
0.24732235 1.2497151 0.029726824 100
0.23423913 1.2704506 0.051770512 81
0.24386981 1.255187 0.070440479 49
0.255909 1.236106 0.087290429 57
0.25142801 1.2432079 0.10876112 72
0.25051573 1.2446538 0.12957181 96
0.23764819 1.2650477 0.15684435 66
0.24960899 1.2496078 0.0098780617 73
0.24679449 1.2541015 0.029936166 99
0.23907316 1.2664294 0.051247578 55
0.25707114 1.2376937 0.067759357 34
0.2532621 1.2437751 0.08854191 70
0.24883044 1.2508508 0.1102876 85
0.25209138 1.2456443 0.12957181 96
0.23826611 1.267718 0.15736198 74
0.24398223 1.2625958 0.010122396 85
0.25700241 1.2416372 0.029098792 100
0.23774061 1.2726429 0.051770512 81
0.25564471 1.2438227 0.068490572 50
0.25291577 1.2482154 0.089167647 84
0.24852285 1.2552867 0.11105084 98
0.26000676 1.2368011 0.12687239 90
0.23601469 1.2754211 0.15943253 73
0.24771661 1.2602037 0.010052586 86
0.25856805 1.2426062 0.029098792 100
0.23836339 1.2753716 0.051944822 81
0.25721759 1.2447963 0.068490572 50
0.26072419 1.2391096 0.087290429 71
0.2563166 1.2462573 0.10876112 72
0.27076197 1.2228317 0.12282328 85
0.23566449 1.2797482 0.1604678 72
0.2474286 1.2647202 0.010122396 85
0.25613388 1.2504866 0.029517479 100
0.24749452 1.2646124 0.05072464 84
0.25067392 1.259414 0.070440479 49
0.2706908 1.2266853 0.084787481 59
0.25191811 1.2573795 0.11105084 100
0.26428947 1.2371519 0.12642249 99
0.2466065 1.2660644 0.15580906 75
0.2511462 1.262302 0.010052586 86
0.26083812 1.2463366 0.029203463 100
0.25223807 1.2605034 0.050201707 100
0.26053938 1.2468287 0.068490572 50
0.26605636 1.2377405 0.086664692 57
0.26372373 1.2415831 0.10723466 73
0.27089638 1.2297676 0.12417299 83
0.24825317 1.2670678 0.15580906 67
0.26120391 1.2496887 0.0097733475 89
0.25743511 1.2559487 0.029726824 100
0.26020375 1.2513499 0.049155839 87
0.25614572 1.2580904 0.069953002 49
0.26573488 1.2421628 0.087290429 71
0.26444149 1.2443111 0.10761628 94
0.2665526 1.2408046 0.12687239 90
0.25406271 1.2615502 0.15373851 68
0.25869328 1.2575101 0.0099129668 87
0.2631461 1.2500582 0.029308135 100
0.25260371 1.2677011 0.05072464 84
0.26794827 1.2420217 0.067515619 51
0.26831543 1.2414072 0.086977564 57
0.27205813 1.2351437 0.10532656 75
0.27411294 1.2317048 0.12417299 83
0.24974883 1.2724789 0.15684435 66
0.2592915 1.2601933 0.0099478718 73
0.26881477 1.2441353 0.028889447 100
0.25832102 1.2618299 0.050027397 85
0.26748994 1.2463691 0.068003096 51
0.27592599 1.2321444 0.085100345 58
0.2605834 1.258015 0.1102876 71
0.28061572 1.2242365 0.12192347 85
0.26031151 1.2584734 -0.0099129668 87
0.24944592 1.2767951 0.15787962 65
0.25787568 1.2663248 0.010052586 86
0.26734933 1.2502289 0.029203463 100
0.25186867 1.2765307 0.051421888 82
0.2640366 1.2558572 0.069221787 50
0.27445406 1.2381577 0.086038955 58
0.26519081 1.2538962 0.10914274 85
0.27915809 1.2301656 0.12327318 93
0.26497591 1.2542614 -0.0098082526 77
0.25896743 1.2644699 0.15373851 68
0.26574475 1.2570298 0.0098431576 88
0.27414522 1.2426368 0.028680105 100
0.26477465 1.2586919 0.049504463 86
0.26782057 1.2534732 0.068734311 67
0.27816328 1.2357525 0.085413218 73
0.26993519 1.24985 0.10799789 79
0.28281111 1.227789 0.12237337 93
0.25688648 1.2722071 0.15580906 67
0.26736134 1.2579697 0.0098431576 88
0.26770571 1.2573752 0.029517479 100
0.26439959 1.2630832 0.049853086 85
0.27241021 1.249253 0.068003096 51
0.27772912 1.2400701 0.086038955 58
0.27054396 1.252475 0.10837951 87
0.2814005 1.2337315 0.12372308 83
0.25855348 1.2731764 0.15580906 67
0.27014765 1.2572683 0.0098082526 74
0.27546212 1.2480149 0.028889447 100
0.26223963 1.2710376 0.05055033 84
0.27614591 1.2468245 0.067515619 51
0.27945384 1.2410648 0.086038955 72
0.27133644 1.2551985 0.10876112 79
0.28795466 1.2262635 0.12147357 86
0.26424819 1.2675403 0.15373851 68
0.26780441 1.265143 0.0099478718 73
0.2770488 1.2489228 0.028889447 100
0.26488924 1.2702579 0.05037602 84
0.27969447 1.2442806 0.067028143 51
0.2849299 1.2350945 0.084787481 59
0.27294692 1.25612 0.10876112 87
0.28560939 1.2339022 0.12327318 85
0.26398653 1.271842 0.15477379 67
0.2696211 1.2661741 0.0099478718 73
0.27880597 1.24992 0.028889447 100
0.26966527 1.2660959 0.049853086 85
0.2775282 1.2521812 0.068003096 51
0.28566453 1.2377827 0.085100345 58
0.27859396 1.2502952 0.10723466 73
0.29210505 1.2263851 0.12102367 69
0.2686373 1.267915 -0.0099827768 86
0.27153024 1.2627954 0.15166797 69
0.28300408 1.2461705 0.0095290141 76
0.28235257 1.2473325 0.028680105 100
0.27618411 1.2583336 0.048981529 87
0.27136177 1.2669339 0.069953002 49
0.28625107 1.2403797 0.085413218 58
0.28402889 1.2443428 0.10570818 81
0.29266679 1.2289376 0.12147357 77
0.27028999 1.2688453 -0.0099827768 86
0.27694526 1.2569761 0.14959741 70
0.28677702 1.2436962 0.009459204 77
0.28224713 1.2518482 0.028889447 100
0.2712869 1.2715724 0.050201707 85
0.2848424 1.2471778 0.067028143 51
0.28805915 1.2413889 0.085413218 58
0.28394499 1.2487928 0.10647142 81
0.29159123 1.2350326 0.12282328 85
0.27881712 1.2580209 0.14959741 78
0.2825563 1.2550735 0.0096686333 75
0.28963241 1.2422394 0.028261416 100
0.27583763 1.2672595 0.049678773 86
0.27875865 1.2619615 0.068978049 50
0.28580874 1.2491745 0.086664692 71
0.28742999 1.2462339 0.10570818 81
0.29407567 1.2341805 0.12237337 85
0.27676329 1.2655805 -0.0098780617 76
0.2776387 1.2639928 0.15115032 77
0.28521052 1.2542496 0.0096337283 90
0.29128242 1.2431453 0.028261416 100
0.27279568 1.2769541 0.05055033 84
0.28238231 1.2594218 0.068490572 50
0.29316926 1.2396946 0.084787481 73
0.28532636 1.2540377 0.10723466 81
0.27945423 1.2647768 -0.0098431576 87
0.27658421 1.2700255 0.15270324 68
0.28586426 1.2568827 0.0096686333 75
0.28904325 1.2510228 0.028680105 100
0.28302899 1.262109 0.048981529 87
0.28968635 1.2498375 0.067028143 51
0.29661217 1.237071 0.084161744 59
0.2841244 1.2600899 0.10837951 79
0.29909965 1.2324859 0.12147357 77
0.27823579 1.2709444 -0.0099478718 96
0.28192869 1.2641371 0.15063268 70
0.28765056 1.2578475 0.0096686333 75
0.28702423 1.2590122 0.029098792 100
0.28200349 1.2683485 0.049504463 86
0.29332718 1.2472917 0.066540658 52
0.29832578 1.2379966 0.084161744 59
0.29150155 1.2506864 0.1060898 81
0.29987347 1.2351186 0.12192347 85
0.28374159 1.2651165 0.15063268 70
0.28841409 1.2605249 0.0097035384 90
0.28685316 1.2634518 0.029308135 100
0.29686996 1.2446685 0.047064099 91
0.2893903 1.2586943 0.068003096 51
0.2981019 1.2423583 0.084787481 59
0.29595247 1.2463889 0.10494494 82
0.28370932 1.2693472 -0.0098780617 87
0.28728956 1.2626336 0.14959741 78
0.29208267 1.2579445 0.0096337283 90
0.2942636 1.2538185 0.028680105 100
0.28743857 1.2667305 0.049155839 87
0.2976768 1.2473612 0.06629692 52
0.29337302 1.2555033 0.086977564 57
0.29678279 1.2490525 0.10532656 75
0.28460681 1.2720878 -0.0099129668 87
0.28097191 1.2789645 0.15425615 75
0.28821766 1.2694688 0.0098431576 88
0.28824919 1.2694087 0.049330149 87
0.29658005 1.2535138 0.067028143 51
0.29481098 1.2568891 0.10685304 73
0.28821766 1.2694688 -0.0098431576 97
0.28813103 1.269634 0.15115032 77
0.29448754 1.2614629 0.0096686333 75
0.29450202 1.2614352 0.048458595 88
0.28811222 1.2737255 0.069709264 83
0.29823819 1.2542489 0.1060898 66
0.28803053 1.2738826 -0.0099129668 97
0.29246274 1.2653576 0.14959741 78
0.298058 1.2587564 0.067515619 51
0.28979102 1.274794 -0.0099129668 100
0.29950428 1.2559507 0.14649157 72
0.29340559 1.2720776 0.049330149 58
0.29524875 1.268471 0.068734311 67
0.29696074 1.2694156 0.048981529 58
0.29766414 1.2680273 0.14959741 70
0.29512841 1.2774174 0.049678773 57
0.2941938 1.279278 -0.0099478718 100
0.29940411 1.268905 0.14959741 70
0.29686442 1.2783779 -0.0099129668 100
