# .PCD v0.7 - Point Cloud Data file format
VERSION 0.7
FIELDS x y z intensity
SIZE 4 4 4 4
TYPE F F F F
COUNT 1 1 1 1
WIDTH 761
HEIGHT 1
VIEWPOINT 0 0 0 1 0 0 0
POINTS 761
DATA ascii
-1.1743653 0.16441928 0.020698555 22
-1.1215074 0.15701881 0.059348974 29
-1.1837108 0.16973189 0.020873077 33
-1.0485768 0.15409242 0.018499551 6
-1.0144163 0.15269174 0.017906168 6
-1.0257354 0.15805905 0.018115599 1
-0.64576 1.1257374 0.022653224 1
-0.59040052 1.1557328 0.022653224 1
-0.55906534 1.1043655 0.021606078 1
-0.55520695 1.1063102 0.021606078 1
-0.55134183 1.1082416 0.021606078 1
-0.53704667 1.088544 0.021187222 1
-0.5701403 1.1658605 0.022653224 1
0.090283155 0.0070157051 0.046683673 21
0.057404995 0.0073971748 0.015846785 122
0.050991267 0.0033527017 0.047939736 45
0.049413562 0.0067692995 0.047835063 27
0.041862667 0.00083065033 0.016091119 8
0.045784473 0.0067670941 0.047939736 100
0.039803207 0.003543973 0.048253752 87
0.038243413 0.006988287 0.048149079 62
0.044529498 0.022017956 0.047311705 30
0.0430457 0.025437832 0.047207031 20
0.024632215 0.0041542649 0.048672438 8
0.026504397 0.012564898 0.048253752 8
0.021581054 0.01111871 0.048463095 8
0.016773999 0.0096046925 0.048672438 8
0.0072084069 0.0016831756 0.049300469 7
-1.1890228 0.45271167 0.030855855 7
-1.178309 0.46089625 0.030646427 10
-1.1753852 0.46732026 0.030576617 10
-1.1665771 0.47503808 0.030402092 5
-1.1301286 0.48733538 0.029738901 7
-1.1034813 0.49775019 0.029250233 8
-1.1024473 0.50384158 0.029215328 10
-1.0954649 0.51085567 0.029075708 11
-1.0903862 0.51722729 0.028970994 10
-1.065552 0.52682424 0.028517231 11
-1.0426087 0.535676 0.028098375 17
-1.0374789 0.54208916 0.02799366 18
-1.0323622 0.54873991 0.027888946 17
-1.0390689 0.5534547 0.02799366 16
-1.0278847 0.56030601 0.02778423 20
-1.0226576 0.56658471 0.027679516 21
-1.0253768 0.57210088 0.027714422 15
-1.0399528 0.57590497 0.027958754 10
-1.0664024 0.57811403 0.028412517 2
-1.0319724 1.1270932 0.084993593 3
-1.0572677 1.132803 0.14415559 3
-1.046288 1.1361852 0.028587041 6
-0.99178237 1.1236818 0.082900152 5
-1.030746 1.13262 0.14188954 6
-1.025589 1.136941 0.028237993 10
-0.99643666 1.1301516 0.083214171 33
-1.0217731 1.1360523 0.1411923 42
-0.99705487 1.1359934 0.027749326 31
-0.99905723 1.1364671 0.083423518 91
-1.0146692 1.1401604 0.14066938 86
-0.97632426 1.1367198 0.027400278 42
-1.0094206 1.1446717 0.084051549 100
-1.0114303 1.1451545 0.14049506 86
-0.97892028 1.1429933 0.027470088 37
-0.97511727 1.1420655 0.08227212 100
-1.0101111 1.1506026 0.14049506 84
-0.98912221 1.1517496 0.027679516 23
-0.97173887 1.1474379 0.082167454 100
-1.0067043 1.1561105 0.14032075 87
-0.98002344 1.1551671 0.027539898 25
-0.98009616 1.1551855 0.082690813 45
-0.99568659 1.1591101 0.13944919 82
-0.96911758 1.1575006 0.027365373 44
-0.97500795 1.1590031 0.082481466 36
-0.98287314 1.1610093 0.13840333 84
-0.96001214 1.1607969 0.027225753 61
-0.98717564 1.1678269 0.083214171 69
-0.97764128 1.1653594 0.1380547 91
-0.96623629 1.1686258 0.027365373 68
-0.96438903 1.1681402 0.082062781 100
-0.98574644 1.1737552 0.13892625 89
-0.95710689 1.1718552 0.027225753 78
-0.95141107 1.1703365 0.081434749 92
-0.9785524 1.1775734 0.13840333 100
-0.96355921 1.178673 0.027365373 89
-0.94821769 1.1745307 0.081330076 98
-0.96572334 1.1792574 0.13735744 100
-0.95055109 1.1807858 0.027155945 99
-0.9487229 1.1802853 0.081434749 100
-0.96044213 1.1834936 0.13700883 99
-0.94140047 1.1838822 0.027016325 93
-0.94535702 1.1849803 0.081330076 98
-0.9666689 1.1908946 0.13770607 91
-0.93994671 1.1890857 0.027016325 92
-0.94005412 1.189116 0.081120729 88
-0.9594366 1.1945678 0.13718314 98
-0.95962876 1.2003139 0.027400278 68
-0.93281978 1.1926721 0.080806717 72
-0.95986146 1.2003803 0.13735744 100
-0.97156566 1.209465 0.027644612 46
-0.93133539 1.1978456 0.080806717 38
-0.94877928 1.2028837 0.13648589 98
-0.93363303 1.2038447 0.026981421 50
-0.92990845 1.2027555 0.080806717 22
-0.94351083 1.2067331 0.13613728 85
-0.91868812 1.2050452 0.026737086 75
-0.92072874 1.2056496 0.080388032 28
-0.94197732 1.2119439 0.13613728 85
-0.91907591 1.2107439 0.026771991 75
-0.91537303 1.209633 0.080178685 34
-0.94042557 1.217149 0.13613728 98
-0.91944176 1.2164506 0.026806897 81
-0.90809649 1.2130036 0.079864666 93
-0.93694931 1.2217697 0.13596296 99
-0.91787452 1.2215772 0.026806897 85
-0.90463227 1.2175033 0.07976 100
-0.92584163 1.2240281 0.13509139 94
-0.90865225 1.2243196 0.026667276 85
-0.9145028 1.2261418 0.080388032 84
-0.91663879 1.2268071 0.13439415 70
-0.89942902 1.2270032 0.026527658 83
-0.90909201 1.2300498 0.080178685 66
-0.91503531 1.2319238 0.13439415 50
-0.89782494 1.2320598 0.026527658 83
-0.9055745 1.2345331 0.080074012 76
-0.91531211 1.2376407 0.13456847 43
-0.91142637 1.2420279 0.026806897 85
-0.89634174 1.2371557 0.079655327 97
-0.91177481 1.2421404 0.13439415 45
-0.89836532 1.2433988 0.026597468 100
-0.89280385 1.241581 0.079550654 100
-0.91390544 1.2484781 0.13474278 63
-0.88910979 1.2459401 0.026457848 100
-0.89683765 1.2484958 0.079864666 100
-0.89898497 1.2492059 0.1335226 86
-0.8760615 1.2471535 0.02624842 100
-0.89326459 1.2529095 0.07976 100
-0.90297168 1.2561575 0.13404553 84
-0.87455553 1.2516313 0.02624842 99
-0.87471193 1.2516842 0.078817949 100
-0.89954978 1.2600816 0.13387123 80
-0.88043398 1.2591892 0.026388038 96
-0.8730219 1.2566544 0.078817949 100
-0.90160054 1.266428 0.13421984 89
-0.8823244 1.2659868 0.026457848 89
-0.86925548 1.2614613 0.078713275 100
-0.89027017 1.2687383 0.13334829 95
-0.86926037 1.267018 0.02624842 77
-0.87130135 1.2677326 0.078922622 89
-0.89416176 1.2757382 0.13387123 57
-0.86186188 1.2699665 0.026143705 75
-0.86202449 1.2700241 0.078503937 51
-0.89238769 1.2807763 0.13387123 40
-0.86010808 1.2748919 0.026143705 90
-0.84710795 1.270237 0.077771232 19
-0.88309282 1.2831215 0.13317397 41
-0.86030644 1.2802454 0.02617861 99
-0.85483199 1.2782648 0.07829459 53
-0.88700396 1.2899046 0.13369691 21
-0.86978489 1.2892865 0.026388038 99
-0.85492498 1.2838515 0.078399263 89
-0.86459762 1.2873893 0.13177948 15
-0.84554631 1.2856746 0.025969181 100
-0.85508674 1.2891998 0.078503937 100
-0.84979194 1.2872434 0.1305593 5
-0.83624452 1.287744 0.025829561 100
-0.84952372 1.2927037 0.07829459 76
-0.87224191 1.3011887 0.13282534 1
-0.83433753 1.2928214 0.025829561 100
-0.82704562 1.2900676 0.0771432 44
-0.87214929 1.3071017 0.13299966 3
-0.83810884 1.2997897 0.025934275 75
-0.83455175 1.298432 0.077666558 55
-0.84420592 1.3021166 0.1305593 13
-0.84007615 1.3058283 0.026004085 75
-0.83279175 1.3030205 0.077666558 63
-0.84801084 1.3088869 0.13108224 52
-0.82701725 1.3063228 0.025794657 75
-0.83464497 1.3092937 0.077875905 70
-0.84983438 1.3152097 0.13143086 100
-0.81583267 1.3074651 0.025620133 93
-0.82531983 1.3111984 0.077457212 59
-0.84236068 1.317904 0.13090792 100
-0.81394821 1.3122294 0.025620133 100
-0.82899028 1.3182094 0.077771232 89
-0.8348853 1.3205528 0.130385 99
-0.81956571 1.3197291 0.025759751 100
-0.81789714 1.3190594 0.077247873 95
-0.83859891 1.3273687 0.13090792 100
-0.82134479 1.3260092 0.025829561 100
-0.81597227 1.3238308 0.077247873 91
-0.82925934 1.329218 0.13021068 100
-0.79477364 1.3152359 0.17817298 14
-0.81199354 1.3277613 0.025689943 100
-0.82696861 1.3338939 0.077980578 97
-0.81439251 1.3287437 0.1289905 100
-0.79469925 1.3206789 0.17841671 17
-0.79895097 1.3279264 0.025480513 100
-0.81576377 1.3348802 0.077457212 100
-0.81979829 1.3365489 0.12968774 100
-0.77809376 1.3192999 0.17646681 16
-0.79689699 1.3328669 0.025480513 100
-0.79525608 1.3321811 0.076410495 100
-0.81955093 1.3423339 0.12986206 100
-0.77240843 1.322633 0.17597933 16
-0.79860872 1.3391199 0.025550323 100
-0.78224474 1.3322142 0.075782463 100
-0.81938034 1.3478856 0.13003637 100
-0.75766891 1.3218431 0.17427316 20
-0.80775267 1.3482904 0.025759751 85
-0.78588563 1.338977 0.076096483 60
-0.80279213 1.3461777 0.12864187 90
-0.76496345 1.3300658 0.17549185 16
-0.81674796 1.3577665 0.025969181 57
-0.82058722 1.3594176 0.078189917 51
-0.80626351 1.3532577 0.12916481 26
-0.80129629 1.3511215 0.18061037 5
-0.80011624 1.3559268 0.025689943 94
-0.81312865 1.3615739 0.077875905 100
-0.82442659 1.366477 0.13108224 67
-0.80846673 1.3595507 0.18182907 17
-0.79806274 1.360636 0.025689943 100
-0.81288463 1.36713 0.077980578 100
-0.8296358 1.3744693 0.13177948 100
-0.78094536 1.3531363 0.17841671 35
-0.79771751 1.3663821 0.025724847 100
-0.80155486 1.3680801 0.077457212 100
-0.80736929 1.3706532 0.12986206 100
-0.77153796 1.3547974 0.17744176 33
-0.80293077 1.3743453 0.025864467 100
-0.80310613 1.3744235 0.077666558 100
-0.80162615 1.3737624 0.12951343 100
-0.77130097 1.3602164 0.1776855 26
-0.79180378 1.3747203 0.025689943 100
-0.81384045 1.3846517 0.078399263 100
-0.80324942 1.3798785 0.12986206 100
-0.76390713 1.3621478 0.17695428 18
-0.79332525 1.3810563 0.025759751 100
-0.81168658 1.3894086 0.078399263 100
-0.80473942 1.3862485 0.13021068 100
-0.76183218 1.3667307 0.17695428 16
-0.79652804 1.3884797 0.025864467 100
-0.80396229 1.3918943 0.078085244 100
-0.80971378 1.3945361 0.13090792 100
-0.7614401 1.3723633 0.17719802 15
-0.79798943 1.3948581 0.025934275 100
-0.79997128 1.3957767 0.077980578 100
-0.81475598 1.4026303 0.13160518 100
-0.76653355 1.3802769 0.17817298 10
-0.80134434 1.4018658 0.026038991 100
-0.80331641 1.4027879 0.07829459 100
-0.80182165 1.4020891 0.1305593 100
-0.76809901 1.3863208 0.17866045 5
-0.79732198 1.4057257 0.026004085 100
-0.80651814 1.4100649 0.07860861 100
-0.79960698 1.4068038 0.1305593 100
-0.77671129 1.3960007 0.18012288 3
-0.78245622 1.4044075 0.025759751 100
-0.80427569 1.4147961 0.07860861 100
-0.80097371 1.413224 0.13090792 100
-0.78347963 1.4048948 0.18134159 1
-0.79645592 1.4168482 0.026073895 100
-0.80021638 1.4186547 0.078503937 100
-0.80949563 1.4231124 0.13195379 100
-0.80498654 1.4267775 0.026283324 100
-0.79434937 1.4216216 0.07829459 100
-0.81437904 1.4313302 0.13265105 100
-0.80088931 1.4306247 0.02624842 100
-0.79924339 1.4298198 0.078713275 100
-0.80848259 1.4343381 0.13230242 100
-0.79151732 1.4315631 0.0261088 100
-0.80421311 1.437824 0.079131968 100
-0.79912442 1.4353145 0.13160518 100
-0.78561908 1.4344604 0.026038991 100
-0.80187374 1.4425471 0.079131968 100
-0.80392915 1.4435695 0.13230242 100
-0.79747146 1.4465293 0.02631823 100
-0.80475444 1.4501858 0.07944598 100
-0.81213468 1.4538913 0.13334829 100
-0.79866964 1.4530357 0.026388038 100
-0.79346293 1.4503987 0.078922622 100
-0.81329399 1.4604423 0.13369691 100
-0.79983884 1.4595587 0.026457848 100
-0.80175143 1.4605358 0.079550654 100
-0.80732709 1.463384 0.13334829 100
-0.79031318 1.4606026 0.02631823 100
-0.80465907 1.4679945 0.079864666 100
-0.80312735 1.4672052 0.13317397 100
-0.79156476 1.466887 0.026388038 100
-0.80056459 1.4715621 0.07976 100
-0.80964822 1.4762807 0.13404553 100
-0.78912395 1.4715657 0.026388038 99
-0.79456919 1.4744184 0.079550654 100
-0.81246918 1.4837962 0.13456847 100
-0.78666693 1.4762359 0.026388038 85
-0.78327245 1.4744425 0.079027295 100
-0.80820757 1.487617 0.13439415 98
-0.78635246 1.4820478 0.13247673 41
0.12959775 1.2910101 0.13013174 5
0.16874316 1.2460566 0.010645968 26
0.15172866 1.2673018 0.033390339 28
0.13401788 1.2894163 0.058220036 22
0.14546856 1.2751184 0.07945881 14
0.12769133 1.297316 0.10700117 10
0.14746433 1.2726264 0.12517071 24
0.18576717 1.2247995 0.13452072 7
0.14303446 1.2781577 0.17444403 7
0.15912035 1.2614031 0.010960111 77
0.16705653 1.251426 0.032238949 60
0.14690524 1.2767596 0.056651235 71
0.16444632 1.2547073 0.076046467 14
0.15772542 1.2631567 0.099805191 24
0.16135487 1.2585939 0.12135452 93
0.18727735 1.2260048 0.13452072 23
0.15434265 1.2674094 0.17030293 21
0.15472859 1.2706801 0.011134636 100
0.17501155 1.2449882 0.031715591 100
0.14876533 1.2782335 0.056651235 95
0.15884516 1.2654657 0.077508904 29
0.17299986 1.2475363 0.096363634 25
0.15706569 1.2677197 0.12326261 100
0.19136617 1.2242721 0.13362093 38
0.15257725 1.2734051 0.17185585 36
0.15885884 1.2688408 0.011064826 100
0.17905349 1.2430856 0.031506244 100
0.15168229 1.2779934 0.056476921 100
0.16416496 1.2620736 0.076777689 29
0.18189877 1.2394569 0.094486415 39
0.16356394 1.2628402 0.12173614 100
0.18806478 1.2315931 0.13542053 38
0.15544081 1.2732 0.1713382 43
0.1717428 1.2560678 0.010750682 100
0.17220363 1.2554755 0.032238949 90
0.16211218 1.2684433 0.055256739 99
0.16231367 1.2681844 0.077508904 29
0.17391652 1.2532744 0.096989371 37
0.17984161 1.2456607 0.11715672 100
0.18975905 1.2329166 0.13542053 30
0.15016913 1.2837903 0.17444403 42
0.1782482 1.2509906 0.010611063 81
0.17137286 1.2598863 0.032448292 59
0.1698592 1.2618446 0.054385185 51
0.17489329 1.2553314 0.075315252 45
0.1706892 1.2607708 0.098240845 24
0.17699564 1.2526113 0.14081936 21
0.1530565 1.2835848 0.1739264 35
0.17140809 1.2633905 0.010855397 65
0.18889129 1.2406061 0.031087559 31
0.16066238 1.2773947 0.055953987 48
0.17900658 1.2534881 0.074827775 45
0.18322742 1.2479874 0.095425025 51
0.1926491 1.2357087 0.11410378 13
0.19173202 1.2369039 0.13587044 30
0.14661941 1.2956958 0.17754987 54
0.17547044 1.2614623 0.010785587 39
0.17592674 1.2608635 0.032343622 30
0.15993181 1.2818522 0.056302611 48
0.19023767 1.2420846 0.072877869 47
0.19918245 1.2303472 0.091670595 54
0.19419542 1.2368913 0.11410378 13
0.20863771 1.2179399 0.13002171 40
0.16827101 1.2709095 0.16875002 66
0.17244932 1.2692115 0.010925206 39
0.17290932 1.2686033 0.032762308 29
0.16902143 1.273744 0.055256739 49
0.18358842 1.254483 0.074584037 61
0.19729736 1.2363565 0.092609204 53
0.18880355 1.2475873 0.11639348 13
0.20557979 1.2254051 0.13182132 39
0.17943195 1.2599788 0.16460891 69
0.17891058 1.264065 0.010785587 39
0.17456481 1.269851 0.032762308 29
0.17906985 1.2638531 0.054036561 51
0.19235003 1.246172 0.073121607 78
0.19172782 1.2470003 0.094486415 52
0.19864264 1.237794 0.11372216 13
0.20943254 1.2234285 0.13092151 40
0.18105882 1.261205 0.16460891 69
0.19147953 1.2509921 0.010471444 82
0.19072273 1.2520075 0.031506244 31
0.18088239 1.2652092 0.054036561 51
0.19172502 1.2506628 0.073609084 93
0.19938117 1.2403913 0.092922069 53
0.21091914 1.2249119 0.1102876 14
0.2087675 1.2277985 0.13182132 31
0.18517071 1.259456 0.16357364 69
0.19069704 1.2553929 0.010541254 81
0.20420605 1.2371432 0.030459527 65
0.18489739 1.2632278 0.053687938 78
0.20395043 1.2374885 0.071415432 96
0.19389132 1.2510777 0.094799288 64
0.19841278 1.2449695 0.11486702 13
0.22304121 1.2116982 0.12687239 33
0.18449703 1.2637687 0.16460891 69
0.18300775 1.2695994 0.010820492 78
0.21419737 1.2271399 0.029726824 67
0.17491239 1.2806199 0.055431053 74
0.20331576 1.2419534 0.071902916 64
0.20501256 1.2396436 0.092296332 93
0.20480511 1.2399259 0.11334054 13
0.22581598 1.211323 0.12642249 24
0.1828782 1.2697757 0.16616182 68
0.18702349 1.2675827 0.010750682 79
0.20747572 1.2395458 0.030459527 65
0.18365288 1.2722032 0.054385185 76
0.1978634 1.2527227 0.073365346 93
0.20890015 1.2375932 0.091670595 100
0.20173725 1.2474124 0.11486702 13
0.23991436 1.1950777 0.12147357 17
0.19136861 1.2616261 0.163056 70
0.19353992 1.2624303 0.010611063 94
0.21622583 1.2310909 0.029831495 66
0.18432772 1.2751565 0.054559495 100
0.20545503 1.2459702 0.072146654 79
0.20829967 1.2420405 0.092296332 100
0.21730375 1.2296019 0.1102876 14
0.24261713 1.1946328 0.12102367 8
0.19996962 1.253548 0.15995017 72
0.19984359 1.2571148 0.010471444 82
0.21542516 1.2354387 0.03004084 66
0.19298244 1.2666595 0.053513627 100
0.20935264 1.2438865 0.071659178 80
0.2075609 1.2463789 0.092922069 100
0.21997562 1.2291085 0.10990598 14
0.23492736 1.2083085 0.12462288 16
0.19593713 1.2625492 0.16253836 70
0.20395377 1.2551389 0.010401634 97
0.21945295 1.2334099 0.029831495 66
0.1924912 1.2712088 0.053862248 100
0.21339732 1.2418995 0.071171694 81
0.21733895 1.2363735 0.090731993 100
0.21025985 1.2462981 0.11372216 20
0.23200941 1.2158064 0.12642249 16
0.19550112 1.2669891 0.16357364 69
0.20556444 1.2562838 0.010401634 97
0.21868265 1.2377632 0.03004084 66
0.19185203 1.2756433 0.054210871 100
0.21152189 1.2478729 0.071902916 96
0.22117087 1.2342502 0.090106249 100
0.20843691 1.2522284 0.11486702 33
0.23461589 1.2152681 0.12597258 16
0.19268468 1.2744677 0.16564418 76
0.20487809 1.2606946 0.010471444 82
0.21908665 1.2404929 0.030145511 98
0.20040801 1.2670501 0.053165004 100
0.21425045 1.2473691 0.071659178 80
0.22498503 1.2321066 0.089480512 97
0.19761404 1.2710226 0.11906482 84
0.23497307 1.2179055 0.12642249 49
0.19880503 1.2693293 0.16357364 85
0.20650721 1.2618364 0.010471444 96
0.21378717 1.2514124 0.030773543 96
0.20662138 1.2616729 0.052467756 100
0.20901561 1.2582446 0.073121607 78
0.21860185 1.2445184 0.091670595 94
0.21051854 1.2560927 0.11524864 100
0.22530213 1.2349246 0.13092151 72
0.20488733 1.2641559 0.16150309 70
0.21295294 1.2565763 0.010331824 98
0.22018728 1.2461325 0.030354854 97
0.21078083 1.2597121 0.052119136 100
0.22219643 1.243232 0.070684217 65
0.22605044 1.2376682 0.090106249 100
0.22356674 1.2412537 0.11143246 91
0.2215414 1.2441776 0.13317102 93
0.21228749 1.257537 0.15891489 73
0.21012175 1.2643411 0.010471444 96
0.22637749 1.2406976 0.029936166 99
0.20571956 1.2707438 0.053165004 100
0.22160098 1.2476449 0.071171694 81
0.22208911 1.2469349 0.091670595 100
0.22521371 1.2423904 0.11143246 91
0.23092699 1.2340806 0.13002171 96
0.20414096 1.2730399 0.16357364 69
0.21635807 1.2589175 0.010331824 84
0.23702887 1.2286265 0.029098792 68
0.20634654 1.2735883 0.053339314 78
0.22103241 1.2520677 0.071659178 80
0.23377708 1.2333918 0.088854775 100
0.22133148 1.2516294 0.11334054 96
0.23584422 1.2303625 0.128672 97
0.21243256 1.2646699 0.1604678 72
0.21918812 1.2584234 0.010296919 42
0.23303154 1.2379845 0.029622151 33
0.21034107 1.2714856 0.05299069 79
0.22939637 1.2433516 0.07019674 82
0.23650432 1.2328572 0.08854191 100
0.22081277 1.2560247 0.11410378 89
0.23089617 1.2411373 0.13137141 94
0.21632805 1.2626462 0.15943253 73
0.22080961 1.2595178 0.010296919 42
0.22566885 1.2522919 0.030459527 32
0.2309069 1.2445028 0.050027397 57
0.21989033 1.2608848 0.072634131 78
0.24024558 1.2306159 0.087916173 98
0.23338193 1.2408223 0.1102876 99
0.2346352 1.2389586 0.13047162 96
0.22335374 1.2557346 0.15684435 74
0.22474056 1.2573373 0.01022711 42
0.22513685 1.2567436 0.03066887 32
0.22150475 1.2621856 0.051770512 54
0.23262578 1.2455229 0.07019674 82
0.23417911 1.2431955 0.090106249 96
0.23611721 1.2402916 0.10990598 85
0.23302868 1.2449193 0.13182132 100
0.22183394 1.2616923 0.15839726 73
0.22202653 1.2651383 0.010366729 27
0.22022021 1.2678652 0.031296901 31
0.21882376 1.2699734 0.052467756 53
0.23867249 1.240008 0.069221787 83
0.23801452 1.2410014 0.089480512 97
0.23450825 1.2462947 0.11105084 98
0.23899296 1.2395241 0.13002171 100
0.22461912 1.2612243 0.15787962 73
0.21496919 1.2796478 0.010645968 40
0.21757162 1.2756891 0.031715591 30
0.2150988 1.2794508 0.053339314 52
0.2337724 1.2510445 0.070684217 98
0.24400094 1.2354848 0.088229038 100
0.23401588 1.2506741 0.11181407 98
0.24705663 1.2308365 0.1273223 97
0.22102982 1.2704284 0.1604678 72
0.22557801 1.2674725 0.010366729 27
0.22379127 1.2702123 0.031296901 31
0.22240996 1.2723305 0.052467756 53
0.23553765 1.2522004 0.070684217 98
0.24570906 1.2366033 0.088229038 98
0.24006945 1.2452512 0.1102876 92
0.24236074 1.2417376 0.13002171 96
0.22603199 1.2667763 0.15891489 73
0.23383537 1.2585292 0.0101573 42
0.24073148 1.2478734 0.029831495 33
0.22416541 1.2734709 0.052467756 53
0.22967294 1.2649608 0.072390392 100
0.24626642 1.239321 0.08854191 84
0.24173027 1.2463301 0.1102876 85
0.24718568 1.2379006 0.128672 97
0.2319665 1.2614169 0.15684435 74
0.24618363 1.242698 0.0098082526 59
0.24439403 1.2454824 0.029622151 33
0.24083018 1.2510273 0.050027397 57
0.23874259 1.2542753 0.070684217 98
0.25201452 1.2336259 0.087290429 85
0.24853569 1.2390385 0.10837951 87
0.24444252 1.245407 0.13047162 96
0.23037836 1.2672889 0.15839726 73
0.24138361 1.2538714 0.010017681 87
0.24498165 1.2482302 0.029726824 67
0.23286864 1.2672218 0.051596198 54
0.25004214 1.2402959 0.068490572 50
0.24938571 1.2413251 0.08854191 84
0.24700761 1.2450536 0.10952436 78
0.25658303 1.2300406 0.12597258 90
0.22899964 1.2732879 0.15995017 64
0.2387968 1.2617046 0.0101573 71
0.25519782 1.2357907 0.028889447 100
0.22927862 1.2767434 0.052467756 80
0.24531588 1.2514043 0.069953002 49
0.25525847 1.2356949 0.087290429 71
0.23921826 1.2610387 0.11295892 89
0.26340157 1.2228287 0.12372308 83
0.22869211 1.2776701 0.16098544 64
0.24476916 1.2560141 0.010017681 58
0.25363886 1.2418911 0.029203463 100
0.23740724 1.2677364 0.051421888 82
0.25122118 1.2457407 0.068978049 50
0.25898704 1.2333753 0.086664692 57
0.25033146 1.2471573 0.10952436 78
0.26394755 1.2254767 0.12417299 92
0.2386857 1.2657008 0.15684435 66
0.24443793 1.2605243 0.010087491 86
0.24375418 1.2616218 0.030354854 97
0.24239397 1.2638054 0.050898954 83
0.24876851 1.2535722 0.069953002 49
0.25859845 1.2377921 0.087290429 71
0.25312039 1.2465861 0.10914274 92
0.25737596 1.2397547 0.1277722 97
0.24050462 1.2668384 0.15684435 66
0.24510068 1.2632889 0.010122396 85
0.24757233 1.25929 0.030145511 98
0.24621463 1.2614866 0.05055033 84
0.25254574 1.2512437 0.069465525 49
0.25607875 1.2455277 0.08854191 70
0.26201132 1.2359295 0.10647142 81
0.26106665 1.2374579 0.12687239 90
0.24325651 1.2662725 0.1563267 66
0.25309703 1.2541223 0.0099129668 87
0.25763538 1.2467221 0.029308135 100
0.23959917 1.2761314 0.051944822 81
0.26460537 1.235357 0.067028143 69
0.26496947 1.2347634 0.086351827 58
0.25953394 1.2436264 0.10799789 100
0.26881289 1.2284963 0.12417299 83
0.23994088 1.2755742 0.15891489 65
0.24959135 1.2636971 0.010087491 71
0.26864514 1.2323837 0.028366089 100
0.24343917 1.2738078 0.051596198 100
0.25384891 1.2567002 0.069953002 49
0.26967403 1.2306929 0.085413218 58
0.26323006 1.2412831 0.10723466 73
0.27548 1.2211512 0.12192347 93
0.23969913 1.2799542 0.15995017 64
0.24812874 1.2698258 0.010192205 85
0.26811489 1.2367336 0.028575432 100
0.25335175 1.2611778 0.050201707 85
0.25546449 1.2576796 0.069953002 49
0.27120331 1.23162 0.085413218 73
0.25159991 1.2640784 0.11219569 84
0.27496266 1.2253953 0.12282328 93
0.24738428 1.2710584 0.15684435 66
0.26220918 1.2502925 0.0097733475 89
0.26255983 1.2497073 0.029308135 100
0.25301996 1.2656283 0.05055033 84
0.25512797 1.2621104 0.070440479 49
0.27078569 1.2359792 0.086038955 58
0.26240823 1.2499604 0.10876112 79
0.27254742 1.2330391 0.12462288 92
0.25604224 1.2605845 -0.0099827768 86
0.25509286 1.2621689 0.15373851 68
0.26593113 1.2478564 0.0097035384 90
0.2621949 1.2541414 0.029517479 100
0.25475183 1.266662 0.05055033 84
0.26394811 1.2511921 0.068734311 67
0.27241397 1.236951 0.086038955 58
0.26609176 1.2475861 0.10799789 87
0.27217385 1.237355 0.12552269 82
0.25878698 1.2598741 0.15270324 68
0.26150596 1.2591798 0.0099129668 87
0.27403247 1.2379395 0.02847076 100
0.25446308 1.271122 0.050898954 83
0.26865476 1.247058 0.068003096 51
0.27404562 1.2379172 0.086038955 58
0.26875788 1.2468832 0.10761628 72
0.27875662 1.229929 0.12327318 76
0.25461057 1.2708719 0.15580906 67
0.26632935 1.2550554 0.0098082526 74
0.26969978 1.2492921 0.029098792 100
0.25328434 1.2773614 0.051421888 82
0.26639661 1.2549403 0.068978049 50
0.27775693 1.2355151 0.085413218 73
0.26753432 1.252995 0.10876112 79
0.28733063 1.2191448 0.12012386 86
0.25059682 1.2819568 0.15891489 65
0.26702076 1.2577723 0.0098431576 88
0.27939251 1.2364471 0.028261416 100
0.26305559 1.2646071 0.050027397 85
0.26012194 1.2696638 0.070927955 48
0.2843399 1.2279192 0.083848871 59
0.26823682 1.2556762 0.10914274 78
0.28498843 1.2268014 0.12192347 76
0.26601729 1.2595019 -0.0098780617 87
0.26014113 1.2696308 0.15477379 67
0.26963755 1.2569751 0.0098082526 74
0.2809408 1.2373419 0.028261416 100
0.27066186 1.2551959 0.048981529 87
0.27168494 1.2534188 0.068490572 50
0.28191748 1.2356454 0.085100345 58
0.27180803 1.2532051 0.10837951 87
0.28456008 1.2310554 0.12282328 85
0.26464888 1.26564 -0.0099827768 86
0.26372731 1.2672408 0.15373851 76
0.28125587 1.2405859 0.009459204 77
0.27762142 1.24695 0.028784776 100
0.26939306 1.2613584 0.049504463 86
0.27731183 1.2474922 0.067515619 51
0.28158528 1.2400091 0.08572609 58
0.27641723 1.2490586 0.10723466 88
0.28133905 1.2404402 0.12507279 83
0.26738083 1.2648818 0.15270324 68
0.27698651 1.2519608 0.0096686333 75
0.28027236 1.24616 0.028680105 100
0.25834385 1.2848713 0.051770512 81
0.2770234 1.2518955 0.068003096 51
0.28322756 1.2409432 0.08572609 58
0.28486466 1.2380531 0.10456333 75
0.29258776 1.2244192 0.12057377 86
0.26339698 1.2759508 0.15580906 67
0.2737729 1.2616276 0.0098431576 88
0.28780612 1.2366513 0.028052073 100
0.26599854 1.2754643 0.05072464 84
0.27870721 1.2528455 0.068003096 51
0.29164639 1.2298164 0.083536007 60
0.2768833 1.2560917 0.10837951 79
0.29608467 1.2219172 0.11967396 78
0.26985478 1.2686011 -0.0099827768 86
0.25854075 1.2887377 0.15943253 73
0.27257037 1.2678291 0.0099478718 73
0.28554764 1.2445422 0.02847076 100
0.27940324 1.2555679 0.048632905 88
0.28039432 1.2537895 0.068003096 51
0.29325303 1.2307154 0.083536007 60
0.27762604 1.258757 0.10876112 87
0.29576644 1.2262052 0.12057377 77
0.2735438 1.2660823 -0.0099129668 87
0.27257863 1.2678143 0.15270324 68
0.28301582 1.2530431 0.0096337283 90
0.27947646 1.2594466 0.029308135 100
0.27531704 1.2669721 0.049678773 86
0.2820847 1.2547277 0.068003096 51
0.29295164 1.2350667 0.084161744 74
0.28693143 1.2459587 0.10570818 81
0.29547507 1.2305011 0.12147357 69
0.27721182 1.263544 -0.0098431576 87
0.27618703 1.265398 0.15166797 69
0.29143211 1.2416974 0.0093893949 77
0.28310668 1.2568852 0.029098792 100
0.2799266 1.2626865 0.049155839 87
0.29141194 1.2417343 0.066053182 52
0.29742518 1.2307644 0.083223134 60
0.28953815 1.2451525 0.10532656 82
0.29427391 1.2365133 0.12282328 85
0.27977517 1.2629628 0.15063268 70
0.28448439 1.2584089 0.0097035384 90
0.28480786 1.2578139 0.029098792 100
0.27879325 1.2688776 0.049678773 86
0.29116395 1.2461221 0.066540658 52
0.29809162 1.2333788 0.083536007 60
0.28838527 1.2512333 0.10647142 81
0.29962692 1.2305546 0.12102367 86
0.27780682 1.2706921 0.15270324 76
0.28429297 1.2628531 0.0097733475 89
0.29030347 1.2517045 0.028680105 100
0.28242728 1.2663138 0.049330149 87
0.29000142 1.2522647 0.067271881 34
0.29689839 1.2394717 0.084474608 59
0.28820336 1.2555999 0.10723466 81
0.28429297 1.2628531 -0.0097733475 99
0.27405569 1.281842 0.15580906 67
0.29261458 1.2514331 0.0095290141 76
0.29575312 1.2455626 0.028261416 100
0.28134328 1.2725159 0.049853086 85
0.29262233 1.2514187 0.067028143 51
0.29175127 1.2530481 0.10647142 73
0.28790057 1.2602507 -0.0097035384 89
0.28313056 1.2691728 0.15166797 69
0.29429665 1.2523286 0.0095290141 92
0.2955437 1.2499764 0.02847076 100
0.29056478 1.2593681 0.048458595 88
0.28500634 1.2698529 0.069465525 49
0.299876 1.2418045 0.1038001 68
0.28212032 1.2752967 -0.0099827768 96
0.2830649 1.273515 0.15270324 68
0.29970375 1.2461382 0.0093893949 93
0.29443267 1.2561654 0.028784776 100
0.28949338 1.2655613 0.048981529 87
0.29598951 1.2532037 0.067028143 51
0.28760764 1.2691486 -0.0098431576 87
0.29381314 1.2573439 0.14752686 71
0.29758567 1.254058 0.0095290141 92
0.29482302 1.259356 0.048284281 59
0.29855451 1.2522001 0.10570818 66
0.29096451 1.2667556 0.15011504 78
0.29192969 1.2691468 0.0098082526 74
0.2956177 1.2620137 0.048458595 88
0.2864894 1.279669 0.15373851 68
0.2936736 1.2700446 -0.0098082526 100
0.29532003 1.2668327 0.14959741 78
0.29995054 1.2620227 0.0096337283 100
0.29997784 1.2619691 0.067759357 68
0.2936087 1.2745016 -0.0098780617 100
0.29988745 1.2664298 0.048632905 59
0.29794714 1.2746572 0.15115032 77
0.29598293 1.3066498 0.051944822 27
