# .PCD v0.7 - Point Cloud Data file format
VERSION 0.7
FIELDS x y z intensity
SIZE 4 4 4 4
TYPE F F F F
COUNT 1 1 1 1
WIDTH 739
HEIGHT 1
VIEWPOINT 0 0 0 1 0 0 0
POINTS 739
DATA ascii
-1.1201997 0.16182239 0.019756123 5
-1.0405291 0.15383755 0.018359931 6
-0.99846548 0.15118197 0.01762693 4
-1.0453582 0.16201681 0.018464645 1
-0.90075517 1.1966456 0.026143705 1
-0.89237911 1.2029048 0.026143705 1
-0.88817477 1.2060125 0.026143705 1
-0.87994516 1.2120301 0.026143705 1
-0.81725049 1.1339799 0.024398465 1
-0.84165645 1.2389249 0.026143705 1
-0.78925586 1.1705605 0.024642797 9
-0.79517418 1.1882656 0.024956942 9
-0.7622571 1.1477237 0.024049416 13
0.05468601 0.0020119548 0.015951499 123
0.054206967 0.0012692213 0.047939736 64
0.046404719 0.0074166656 0.015951499 8
0.04701829 0.0083457232 0.047835063 100
0.03993696 0.0034549832 0.048253752 96
0.037264347 0.0052400827 0.048253752 61
0.03124392 0.0020694733 0.048567768 33
0.030947208 0.007096529 0.048358422 17
0.040709078 0.027034163 0.047207031 20
0.03811872 0.028816402 0.047207031 10
0.026408851 0.017492115 0.04804441 9
0.03537786 0.035589159 0.046997689 10
-1.1967244 0.45036134 0.030995473 18
-1.1820834 0.45928517 0.030716235 18
-1.198967 0.46286872 0.030995473 18
-1.0476131 1.1303307 0.14328404 3
-1.048301 1.1363534 0.028621947 5
-1.0152054 1.1287674 0.084156215 5
-1.0327513 1.1327891 0.14206386 6
-1.0276008 1.1371192 0.028272899 10
-0.99260885 1.1289763 0.083004825 28
-1.0334802 1.1384873 0.14223817 39
-1.0068491 1.1380235 0.02792385 30
-0.99523383 1.1352777 0.083214171 91
-1.0147336 1.1398873 0.14066938 84
-0.98222154 1.1378539 0.027504992 40
-1.0017176 1.1425345 0.083632857 100
-1.0095582 1.1444168 0.14032075 95
-0.97704262 1.1422528 0.027435184 42
-0.99070567 1.1455835 0.083109498 100
-1.000499 1.1479709 0.13962349 87
-0.97767502 1.1480613 0.027470088 22
-0.96999747 1.1461613 0.082062781 100
-1.0011044 1.1538595 0.13979781 86
-0.97634608 1.1533916 0.027470088 23
-0.97642356 1.153411 0.082481466 48
-1.0074844 1.161213 0.14049506 74
-0.97493058 1.1589833 0.027470088 37
-0.97500795 1.1590031 0.082481466 34
-0.99445659 1.1639642 0.13944919 78
-0.96388394 1.161799 0.027295563 61
-0.98524219 1.1673265 0.083109498 65
-0.97764128 1.1653594 0.1380547 89
-0.95477051 1.1650498 0.027155945 67
-0.97805041 1.1711617 0.082795486 99
-0.9762519 1.1706893 0.1380547 92
-0.94565278 1.168242 0.027016325 81
-0.95541066 1.1708401 0.081644088 94
-0.9786945 1.1770399 0.13840333 100
-0.9636305 1.1784089 0.027365373 92
-0.94828826 1.1742692 0.081330076 100
-0.97541279 1.1815879 0.13822901 100
-0.95448035 1.1815792 0.027225753 92
-0.94301504 1.1784427 0.081120729 100
-0.96435791 1.1842813 0.13735744 99
-0.94532663 1.1846907 0.027086135 93
-0.9454295 1.1847193 0.081330076 100
-0.95906264 1.1885002 0.13700883 91
-0.93231946 1.1866612 0.026876707 93
-0.94781822 1.1910176 0.081539422 86
-0.95183843 1.1921477 0.13648589 98
-0.94816476 1.1967634 0.027190849 67
-0.92905182 1.191319 0.080597371 72
-0.95418805 1.1984792 0.13683452 100
-0.96011478 1.2058722 0.027435184 47
-0.92757219 1.1964793 0.080597371 38
-0.95459753 1.2042798 0.13700883 99
-0.94338185 1.2061296 0.027155945 48
-0.92430788 1.2005591 0.080492698 22
-0.9513132 1.2084459 0.13683452 84
-0.92459255 1.2062343 0.026841801 71
-0.92471117 1.2062695 0.080597371 26
-0.93066829 1.2080318 0.13509139 87
-0.91348296 1.2085092 0.026667276 78
-0.9327454 1.2142808 0.081120729 32
-0.93294734 1.2143413 0.13544002 98
-0.91577047 1.2147763 0.026737086 78
-0.91207343 1.2136545 0.080074012 88
-0.93329376 1.2200936 0.13561434 99
-0.91803199 1.2210647 0.026806897 78
-0.90478843 1.2169955 0.07976 100
-0.92980915 1.2246833 0.13544002 98
-0.90881079 1.2238104 0.026667276 85
-0.90321928 1.2220709 0.07976 91
-0.9206031 1.2274787 0.13474278 71
-0.9072178 1.2288998 0.026667276 85
-0.91306251 1.2307404 0.080388032 68
-0.91139573 1.2302155 0.13404553 49
-0.89417559 1.2303398 0.026457848 88
-0.91144532 1.2358446 0.080388032 72
-0.90788203 1.2347088 0.13387123 43
-0.88867265 1.2344013 0.026388038 79
-0.89452261 1.2362897 0.079550654 91
-0.90427297 1.2394371 0.13369691 45
-0.89844793 1.2431459 0.026597468 99
-0.88529199 1.2388484 0.079131968 100
-0.91967064 1.2500784 0.13526571 59
-0.88927585 1.2454376 0.026457848 99
-0.88941878 1.2454848 0.07944598 100
-0.90671951 1.2511998 0.13421984 80
-0.88381428 1.249191 0.026388038 100
-0.8915388 1.2517726 0.079655327 100
-0.89747232 1.2537557 0.1335226 88
-0.87447137 1.2518799 0.02624842 96
-0.8897633 1.2570529 0.079655327 100
-0.89946419 1.2603346 0.13387123 80
-0.87278062 1.2568493 0.02624842 92
-0.8710472 1.2562561 0.078713275 100
-0.89208847 1.2634561 0.13334829 100
-0.874852 1.2631208 0.02631823 89
-0.86556631 1.2599071 0.078503937 100
-0.8903572 1.2684869 0.13334829 95
-0.87689692 1.2694126 0.026388038 79
-0.86573273 1.2655052 0.07860861 93
-0.90553325 1.2794353 0.1349171 52
-0.86580676 1.2708073 0.026213514 75
-0.86219889 1.2695311 0.078503937 53
-0.89256579 1.2802727 0.13387123 40
-0.86028427 1.2743995 0.026143705 88
-0.86608833 1.2764754 0.078817949 21
-0.88327187 1.2826211 0.13317397 43
-0.85654563 1.2788848 0.0261088 96
-0.85858816 1.2796237 0.078503937 48
-0.88887745 1.2905824 0.13387123 24
-0.85860664 1.2849193 0.02617861 96
-0.85313874 1.2829206 0.07829459 85
-0.86843044 1.2885104 0.1321281 16
-0.8531397 1.288202 0.0261088 100
-0.85330373 1.2882626 0.078399263 100
-0.85922724 1.2904503 0.13143086 7
-0.84766644 1.2914542 0.026038991 100
-0.83473605 1.2866299 0.077457212 80
-0.87242717 1.3006921 0.13282534 1
-0.82694536 1.2897551 0.025689943 100
-0.83461064 1.2926486 0.077561885 48
-0.85919493 1.3019283 0.13177948 1
-0.83268827 1.2971679 0.025829561 77
-0.83286983 1.2972372 0.077561885 53
-0.84811491 1.3030496 0.13090792 13
-0.84016961 1.3055856 0.026004085 74
-0.82729357 1.300625 0.077352546 59
-0.85182327 1.3100755 0.13143086 52
-0.8421132 1.3116429 0.026073895 75
-0.82924908 1.3066378 0.077561885 68
-0.85373813 1.3161659 0.13177948 100
-0.82523113 1.3108864 0.025794657 90
-0.82727295 1.3116894 0.077561885 61
-0.83503968 1.314744 0.13021068 100
-0.8141374 1.3117533 0.025620133 99
-0.83289403 1.3192023 0.077980578 82
-0.82767051 1.3171279 0.12968774 97
-0.81594986 1.3180009 0.025689943 100
-0.82170027 1.3203079 0.077457212 95
-0.83314878 1.3249009 0.130385 97
-0.81783193 1.324029 0.025759751 100
-0.81431431 1.3226042 0.0771432 97
-0.84053439 1.3332244 0.13125655 100
-0.77472502 1.3065689 0.17549185 11
-0.81949347 1.3305535 0.025829561 100
-0.80488604 1.3245746 0.076724514 100
-0.82186562 1.3315246 0.12968774 100
-0.79112107 1.3189404 0.17792924 16
-0.80284196 1.3289828 0.025550323 100
-0.80857724 1.3313527 0.077038527 100
-0.80158204 1.3284622 0.12794463 100
-0.78929335 1.3233846 0.17792924 18
-0.79330486 1.3310903 0.025410704 100
-0.80456883 1.3357952 0.076933853 100
-0.80678159 1.3367195 0.12864187 100
-0.78166348 1.3262278 0.17719802 18
-0.79512209 1.3370955 0.025480513 100
-0.79532367 1.3371804 0.076515168 96
-0.80856663 1.3427637 0.1289905 100
-0.77981156 1.3306407 0.17719802 26
-0.79681414 1.343354 0.025550323 92
-0.78966027 1.3403084 0.076305822 69
-0.80655903 1.3475025 0.1289905 99
-0.76688761 1.3306139 0.17573559 16
-0.8132785 1.3557106 0.025899371 56
-0.80978245 1.3542087 0.077561885 44
-0.81928116 1.3582896 0.130385 28
-0.80149907 1.3506498 0.18061037 5
-0.80572206 1.3580785 0.025794657 90
-0.81139952 1.3605412 0.077771232 97
-0.82818633 1.3678229 0.13143086 67
-0.80492741 1.3577337 0.18134159 15
-0.79277319 1.3577598 0.025585229 100
-0.81675237 1.3682561 0.078189917 100
-0.82254595 1.370792 0.13108224 100
-0.78660434 1.3550596 0.17914793 33
-0.7906099 1.3626773 0.025585229 100
-0.80724365 1.3700311 0.077771232 100
-0.81122345 1.3717906 0.13021068 100
-0.75540179 1.3471121 0.17524812 31
-0.79776829 1.3711929 0.025759751 100
-0.79977435 1.3720877 0.077457212 100
-0.8201378 1.3811711 0.13125655 100
-0.76979691 1.3587158 0.17744176 35
-0.80831856 1.3818779 0.026004085 100
-0.80484265 1.3803121 0.077875905 100
-0.80698901 1.381279 0.13021068 100
-0.7676304 1.3635492 0.17744176 18
-0.79535896 1.3814147 0.025794657 100
-0.8100844 1.3881069 0.07829459 100
-0.80495447 1.3857756 0.13021068 100
-0.78011256 1.3744859 0.17939167 15
-0.79118401 1.3857417 0.025759751 100
-0.81133133 1.3949914 0.078503937 100
-0.8062014 1.3926363 0.1305593 100
-0.75793713 1.3704779 0.17671055 15
-0.79084092 1.3912601 0.025794657 100
-0.80914134 1.3997395 0.078503937 100
-0.81125087 1.4007169 0.13125655 100
-0.75403196 1.3742054 0.17646681 13
-0.79409856 1.3984778 0.025899371 100
-0.7978887 1.4002501 0.077980578 100
-0.80904096 1.4054646 0.13125655 100
-0.77349371 1.3888433 0.17939167 7
-0.80455595 1.409139 0.026143705 100
-0.80109936 1.4075081 0.07829459 100
-0.80681449 1.4102048 0.13125655 100
-0.77491599 1.3951536 0.17987914 3
-0.79520637 1.4101901 0.026004085 100
-0.80799502 1.4162763 0.078817949 100
-0.80108589 1.4129882 0.13090792 100
-0.78717536 1.406368 0.18182907 1
-0.78575295 1.4114194 0.025864467 100
-0.80393046 1.4201481 0.078713275 100
-0.80601746 1.4211502 0.13160518 100
-0.79250389 1.4204377 0.026038991 100
-0.80165273 1.4248703 0.078713275 100
-0.81449443 1.431092 0.13265105 100
-0.7974115 1.4286326 0.02617861 100
-0.79756421 1.4287074 0.07860861 100
-0.81933838 1.4393508 0.13334829 100
-0.7988072 1.4348655 0.02624842 100
-0.7971639 1.4340554 0.078713275 100
-0.80996293 1.4403644 0.13265105 100
-0.78931612 1.4360081 0.0261088 100
-0.80735618 1.444979 0.07944598 100
-0.80047864 1.441559 0.13195379 100
-0.78686601 1.4409125 0.0261088 100
-0.80665821 1.4508452 0.079550654 100
-0.80335039 1.4491851 0.13247673 100
-0.78808421 1.4473813 0.02617861 100
-0.79714555 1.4519684 0.079131968 100
-0.80985934 1.4584045 0.13334829 100
-0.80019969 1.4588518 0.026457848 100
-0.7985546 1.4580126 0.079341307 100
-0.81301421 1.4653896 0.13387123 100
-0.80134302 1.4653907 0.026527658 99
-0.79969662 1.4645435 0.079550654 100
-0.80703539 1.4683199 0.1335226 100
-0.79523581 1.4684958 0.026457848 100
-0.79714197 1.4694856 0.079550654 100
-0.80269855 1.4723709 0.13334829 100
-0.78924638 1.4713321 0.026388038 100
-0.80176944 1.47789 0.079969339 100
-0.80553359 1.4798613 0.13387123 100
-0.79032665 1.4778703 0.026457848 81
-0.79045969 1.4779406 0.07944598 100
-0.80833286 1.48738 0.13439415 98
-0.81109601 1.4949269 0.1349171 36
0.12845612 1.2926117 0.13051336 5
0.16624311 1.2491783 0.010715778 13
0.15921968 1.2579482 0.032762308 29
0.15145427 1.2676444 0.055779677 24
0.083237797 1.3528229 0.11826446 8
0.15482777 1.263432 0.122881 24
0.20282155 1.2035046 0.12822211 8
0.16597912 1.2495079 0.16460891 7
0.16916266 1.2489498 0.010680873 80
0.1609253 1.2593092 0.032762308 58
0.15691388 1.2643541 0.055256739 74
0.15464711 1.2672048 0.077996381 14
0.17010581 1.2477636 0.096676499 25
0.15655258 1.2648084 0.122881 85
0.18250555 1.2321694 0.13632034 22
0.15202481 1.2705027 0.1713382 21
0.16455618 1.2580565 0.010855397 100
0.1761665 1.2433553 0.031610917 92
0.14991146 1.2765999 0.056476921 96
0.16244966 1.2607238 0.076777689 29
0.16557074 1.2567718 0.098240845 24
0.15819559 1.2661104 0.122881 100
0.18645576 1.2303269 0.13542053 38
0.1477001 1.2794 0.1739264 49
0.16132662 1.2656935 0.010995016 100
0.16919443 1.2556593 0.032343622 100
0.15168229 1.2779934 0.056476921 100
0.15681574 1.2714465 0.078240119 28
0.17702326 1.2456748 0.095737889 25
0.16477534 1.2612952 0.12135452 100
0.19287458 1.225459 0.13362093 31
0.15186474 1.2777607 0.17289113 35
0.16305926 1.2670472 0.010995016 100
0.17089203 1.2569857 0.032343622 90
0.15835351 1.273092 0.055779677 98
0.16588497 1.2634175 0.076777689 29
0.18596661 1.2376214 0.093860678 26
0.1725226 1.254891 0.11944643 100
0.19207242 1.2297782 0.13452072 31
0.15007946 1.2837205 0.17444403 42
0.17335674 1.2573195 0.010750682 79
0.17381561 1.2567258 0.032238949 60
0.16742241 1.2649975 0.054733805 50
0.17610723 1.2537607 0.075071514 30
0.17793718 1.2513931 0.096363634 25
0.19606295 1.227941 0.13362093 23
0.1530565 1.2835848 0.1739264 35
0.18114677 1.2506989 0.010576159 67
0.16700593 1.2691276 0.032971654 29
0.17036551 1.2647493 0.054559495 50
0.18504882 1.2456136 0.073609084 62
0.18322742 1.2479874 0.095425025 51
0.18547818 1.245054 0.11639348 13
0.19291836 1.2353579 0.13542053 22
0.15837976 1.2803694 0.17237349 57
0.1779798 1.2583463 0.010715778 39
0.17117116 1.2672839 0.032762308 29
0.16968009 1.2692412 0.054908119 50
0.18550831 1.2484637 0.073852822 62
0.18609518 1.2476933 0.095112152 51
0.19308719 1.238515 0.1144854 13
0.20517313 1.2226499 0.13137141 47
0.16835845 1.2709762 0.16875002 66
0.17968673 1.2596419 0.010715778 39
0.15363312 1.294091 0.03443706 27
0.17022324 1.2721548 0.055082429 50
0.19436523 1.2402334 0.072390392 47
0.19848892 1.2347809 0.092296332 53
0.18998781 1.2460215 0.11601187 13
0.2032288 1.2285137 0.13272113 39
0.17010948 1.2723053 0.16875002 66
0.17419419 1.2705264 0.010925206 39
0.15546495 1.2954714 0.03443706 27
0.16958588 1.276664 0.055431053 49
0.17932236 1.2636962 0.075802729 45
0.20604375 1.2281067 0.090731993 54
0.20343938 1.2315754 0.11219569 14
0.21185181 1.2203711 0.13002171 40
0.18114457 1.2612693 0.16460891 69
0.18772477 1.2556756 0.010576159 67
0.2024962 1.2358726 0.030459527 32
0.17713577 1.2698715 0.054559495 50
0.19155726 1.2505376 0.073609084 62
0.19803593 1.2418522 0.093234941 53
0.20019582 1.2389566 0.11372216 13
0.2062774 1.2308035 0.13272113 31
0.18846506 1.2546831 0.16202073 70
0.19061235 1.2553301 0.010541254 95
0.19580451 1.2483184 0.03119223 63
0.18718266 1.2599617 0.053339314 52
0.19796216 1.2454047 0.072634131 94
0.19615847 1.2478404 0.094173551 65
0.21351832 1.2243971 0.10990598 14
0.21716559 1.2194717 0.1291219 32
0.18671018 1.2605997 0.16357364 69
0.18765706 1.2630898 0.010680873 80
0.21411759 1.2270813 0.029726824 67
0.17718288 1.2773434 0.055082429 75
0.19853148 1.2482914 0.072877869 47
0.1967425 1.250726 0.094486415 91
0.20007288 1.2461939 0.11486702 13
0.21650732 1.2238293 0.13002171 24
0.18851075 1.261928 0.16357364 69
0.19173747 1.2611206 0.010611063 94
0.21571514 1.228251 0.029726824 67
0.18365288 1.2722032 0.054385185 76
0.19084406 1.2623452 0.074827775 100
0.20890015 1.2375932 0.091670595 100
0.20289427 1.2458262 0.1144854 13
0.23072663 1.2076726 0.12507279 16
0.18453753 1.2709904 0.16616182 68
0.19336805 1.2623059 0.010611063 81
0.21020639 1.2390617 0.030354854 65
0.18181372 1.2782557 0.054908119 100
0.20295981 1.249065 0.072634131 78
0.21392924 1.2339225 0.090731993 95
0.20562583 1.2453848 0.11410378 13
0.23789597 1.2008381 0.12282328 17
0.1975342 1.2565547 0.16098544 72
0.20209351 1.2538066 0.010401634 97
0.21067974 1.2418665 0.030459527 97
0.19638538 1.2617445 0.05299069 79
0.20231625 1.2534969 0.073121607 93
0.21209085 1.2399042 0.091670595 100
0.21760309 1.2322387 0.11066922 14
0.23029998 1.2145821 0.12642249 8
0.19810688 1.2593505 0.16150309 70
0.20610803 1.251763 0.010331824 98
0.21697044 1.2365457 0.03004084 99
0.1969465 1.2645974 0.053165004 100
0.21553925 1.2385507 0.070684217 65
0.20684716 1.2507274 0.093547814 100
0.21693736 1.2365919 0.11143246 21
0.23864698 1.2061787 0.12372308 16
0.1986948 1.2621483 0.16202073 70
0.20085514 1.2627501 0.010541254 95
0.21167281 1.2474831 0.03066887 64
0.19637135 1.2690783 0.053513627 100
0.21717682 1.2397153 0.070684217 65
0.21081141 1.2486988 0.092922069 100
0.2094878 1.2505668 0.1144854 27
0.23003158 1.2215734 0.1277722 16
0.19929796 1.2649478 0.16253836 70
0.20717892 1.2574233 0.010401634 97
0.22023565 1.2388592 0.03004084 66
0.1935308 1.2768283 0.054210871 100
0.21539244 1.2457453 0.071415432 48
0.21930295 1.2401854 0.091044858 100
0.20326126 1.2629935 0.11715672 72
0.23048872 1.2242814 0.12822211 40
0.20325056 1.2630086 0.16150309 70
0.20430368 1.2651756 0.010541254 95
0.22873405 1.2301816 0.029412808 67
0.19986415 1.2715348 0.053513627 100
0.21478248 1.2501657 0.071902916 64
0.22546929 1.234858 0.089793384 100
0.20048892 1.2706399 0.1186832 100
0.22761431 1.2317854 0.13002171 88
0.20386773 1.2658 0.16202073 70
0.20612091 1.2664393 0.010541254 95
0.22246185 1.2428489 0.030145511 98
0.21078083 1.2597121 0.052119136 100
0.217675 1.2497593 0.071659178 64
0.22605044 1.2376682 0.090106249 96
0.22133088 1.2444816 0.11219569 91
0.2270897 1.2361679 0.13092151 88
0.21008742 1.2607131 0.15995017 80
0.21465346 1.2577498 0.010331824 84
0.22411439 1.2439892 0.030145511 98
0.21023473 1.2641767 0.052467756 100
0.22385031 1.2443733 0.070684217 81
0.22656572 1.2404239 0.090419121 100
0.22298914 1.245626 0.11219569 100
0.22209454 1.246927 0.13362093 93
0.21180239 1.2618966 0.15995017 72
0.21635807 1.2589175 0.010331824 84
0.2268967 1.2434741 0.03004084 66
0.2052235 1.275234 0.053513627 100
0.22774604 1.2422296 0.07019674 66
0.21930209 1.2546033 0.092922069 100
0.22686464 1.2435212 0.11143246 91
0.23145044 1.2368011 0.13047162 96
0.21134365 1.2662656 0.16098544 72
0.21694535 1.2617347 0.010366729 55
0.23079148 1.2412918 0.029831495 33
0.20922378 1.2731352 0.053165004 79
0.22494355 1.2499259 0.071171694 65
0.23096552 1.2410349 0.090106249 96
0.22521663 1.2495227 0.1125773 89
0.24291721 1.2233889 0.12642249 90
0.2109113 1.2706437 0.16202073 70
0.2207242 1.2594603 0.010296919 42
0.23227367 1.2422923 0.029831495 33
0.21747878 1.2642845 0.052119136 54
0.22645289 1.2509447 0.071171694 97
0.23685735 1.2354788 0.088854775 100
0.23110807 1.244025 0.11105084 91
0.24216759 1.2275852 0.1273223 97
0.21572074 1.2668978 0.1604678 80
0.21799317 1.267259 0.010436539 41
0.22726998 1.2533648 0.030459527 32
0.22252518 1.2604712 0.051596198 54
0.22592911 1.255373 0.071659178 80
0.24067786 1.2332833 0.088229038 98
0.23276466 1.2451352 0.11105084 98
0.23727417 1.2383811 0.13002171 96
0.22174814 1.2616351 0.15839726 73
0.21973094 1.2684149 0.010436539 41
0.23116565 1.2511586 0.030250182 32
0.22313869 1.2632722 0.051770512 54
0.23420444 1.2465727 0.07019674 82
0.23902345 1.2393003 0.089167647 100
0.24310073 1.2331471 0.10799789 87
0.23460531 1.2459677 0.13182132 100
0.22026497 1.267609 0.15995017 72
0.23465779 1.2495153 0.010017681 29
0.18895057 1.3190186 0.03443706 27
0.21172565 1.2843864 0.053862248 51
0.24023283 1.2410378 0.069221787 83
0.23523656 1.2486352 0.090731993 95
0.23932564 1.2424173 0.10990598 85
0.24804696 1.2291554 0.12687239 99
0.22094247 1.2703711 0.1604678 72
0.2254912 1.2674159 0.010366729 27
0.21279109 1.286883 0.032343622 30
0.22341093 1.2706046 0.052293446 53
0.23979205 1.2454951 0.069709264 99
0.25102431 1.228278 0.086664692 100
0.2389138 1.2468413 0.11066922 85
0.25079668 1.228627 0.12642249 99
0.21961197 1.2764277 0.16202073 70
0.22722948 1.2685456 0.010366729 41
0.22979361 1.264585 0.030878214 31
0.23598835 1.2550168 0.05055033 56
0.23390189 1.2582395 0.071415432 48
0.25262582 1.2293189 0.086664692 86
0.23844624 1.2512203 0.11143246 84
0.25134033 1.2313044 0.12687239 82
0.23188075 1.2613614 0.15684435 74
0.23753408 1.2561556 0.010087491 71
0.24979344 1.2370816 0.029098792 68
0.22790322 1.2711399 0.052119136 54
0.23981589 1.2526054 0.070440479 49
0.25415063 1.2303025 0.086664692 100
0.24747419 1.24069 0.10876112 87
0.25287169 1.2322923 0.12687239 99
0.23768997 1.255913 0.15477379 75
0.24353424 1.2504995 0.0099478718 73
0.24390763 1.2499141 0.029831495 66
0.23501143 1.2638621 0.051247578 55
0.2415024 1.2536852 0.070440479 98
0.24726126 1.2446561 0.089167647 70
0.25228623 1.2367775 0.10761628 72
0.24924761 1.2415416 0.1291219 96
0.23003849 1.2716591 0.15943253 73
0.238711 1.2616502 0.0101573 71
0.24977443 1.2441766 0.029412808 67
0.23132181 1.2733207 0.052119136 81
0.2494795 1.2446425 0.068978049 50
0.25095034 1.2423193 0.08854191 84
0.24228325 1.2560081 0.11181407 98
0.25811023 1.2310112 0.12597258 99
0.23067039 1.2743496 0.15995017 64
0.24042907 1.2627338 0.0101573 71
0.2482439 1.2502953 0.029726824 100
0.23308066 1.27443 0.052119136 81
0.24902606 1.2490504 0.069465525 49
0.25470263 1.240015 0.087916173 70
0.25651479 1.2371308 0.10723466 73
0.25661108 1.2369775 0.1273223 97
0.23859918 1.2656465 0.15684435 66
0.24752513 1.2553796 0.0099827768 87
0.25000629 1.2513981 0.029726824 100
0.24546903 1.2586789 0.05037602 84
0.24658436 1.2568891 0.070440479 49
0.26060629 1.2343884 0.086664692 57
0.2457689 1.2581978 0.11181407 98
0.26244724 1.2314341 0.12552269 82
0.23939618 1.268424 0.15736198 74
0.25763467 1.2428259 0.0097035384 90
0.25378931 1.2490448 0.029517479 100
0.24717668 1.2597389 0.05037602 84
0.24619779 1.2613221 0.070927955 48
0.26222906 1.2353957 0.086664692 71
0.25779998 1.2425585 0.10799789 72
0.26508456 1.2307775 0.12507279 100
0.24418589 1.2645758 0.15580906 67
0.25301254 1.2540704 0.0099129668 87
0.24815208 1.2619926 0.030250182 100
0.24576232 1.2658877 0.050898954 83
0.25621942 1.2488434 0.068978049 50
0.26075631 1.2414485 0.087603301 57
0.25842461 1.245249 0.10837951 87
0.26363748 1.2367524 0.12642249 82
0.24591416 1.2656403 0.15580906 67
0.25470406 1.2551041 0.0099129668 87
0.26337188 1.2408649 0.028889447 100
0.24956709 1.263543 0.05055033 84
0.26202142 1.2430834 0.068003096 51
0.25932235 1.2475173 0.08854191 70
0.26008531 1.246264 0.10837951 87
0.27033487 1.2294263 0.12417299 83
0.24563712 1.269999 0.15684435 66
0.25114381 1.2646384 0.010087491 86
0.25873783 1.2520696 0.029517479 100
0.24502343 1.2747684 0.051596198 82
0.26051214 1.2491329 0.068734311 50
0.26703662 1.2383342 0.086664692 57
0.2555747 1.2573049 0.11066922 92
0.27790645 1.2203435 0.12147357 86
0.24330077 1.2776196 0.15891489 65
0.25184414 1.2673938 0.010122396 85
0.26452985 1.2462311 0.029098792 100
0.2549822 1.2621588 0.050201707 85
0.26524824 1.2450325 0.068003096 51
0.27273563 1.2325419 0.085413218 58
0.26333383 1.2482263 0.10837951 65
0.2754724 1.2279763 0.12327318 76
0.25595662 1.2605332 -0.0099827768 86
0.24706104 1.2753731 0.15787962 65
0.26073709 1.2564003 0.0098780617 88
0.26211038 1.2540911 0.029517479 100
0.25873873 1.2597606 0.049853086 85
0.2527028 1.2699102 0.071415432 48
0.27233249 1.2369026 0.086038955 72
0.2650049 1.2492239 0.10837951 87
0.2770727 1.2289318 0.12327318 85
0.2587015 1.2598233 0.15270324 68
0.26751733 1.2487957 0.0097035384 90
0.26278704 1.2568133 0.029622151 100
0.25437564 1.2710704 0.050898954 83
0.26251927 1.2572672 0.069465525 49
0.27496773 1.2361677 0.08572609 58
0.27166748 1.2417614 0.10647142 73
0.27372518 1.2382737 0.12552269 82
0.25452316 1.2708203 0.15580906 67
0.26624468 1.2550058 0.0098082526 89
0.26961613 1.2492433 0.029098792 100
0.25420189 1.2755899 0.051247578 82
0.26831686 1.251464 0.068490572 50
0.27468312 1.2405826 0.086351827 58
0.27042425 1.247862 0.10761628 79
0.28036371 1.2308731 0.12327318 93
0.25636074 1.2718999 0.15580906 67
0.26593184 1.2594525 0.0098780617 88
0.27530092 1.2433095 0.028680105 100
0.25896886 1.2714498 0.05072464 84
0.26999921 1.2524444 0.068490572 50
0.27731901 1.2398323 0.086038955 58
0.26618108 1.259023 0.10990598 78
0.29077789 1.2166425 0.11922406 78
0.25423563 1.2796052 0.15787962 65
0.26955256 1.2569261 0.0098082526 74
0.27886561 1.2407563 0.02847076 100
0.26560527 1.2637796 0.049853086 85
0.26070237 1.2722921 0.071171694 65
0.28380799 1.2321751 0.084474608 59
0.26486477 1.2650652 0.11105084 77
0.28642482 1.2276317 0.12192347 76
0.2645624 1.2655902 -0.0099827768 86
0.26364055 1.2671908 0.15373851 68
0.27125397 1.257902 0.0098082526 74
0.27258435 1.2555734 0.029308135 100
0.26337719 1.2716892 0.05055033 100
0.27525902 1.2508918 0.068003096 51
0.28444299 1.2348167 0.084787481 59
0.27730754 1.2473062 0.10685304 88
0.28609043 1.2319331 0.12282328 85
0.27026197 1.2596383 -0.0098431576 87
0.26537782 1.2681874 0.15373851 68
0.27887422 1.2484336 0.0095988233 76
0.27625042 1.2530636 0.029098792 100
0.27102402 1.2622862 0.049504463 86
0.27302447 1.2587562 0.068978049 50
0.28411928 1.2391779 0.085413218 58
0.28381503 1.2397149 0.10494494 75
0.28866529 1.2311561 0.12237337 76
0.26902348 1.2658165 0.15270324 68
0.27368709 1.2615794 0.0098431576 88
0.27793831 1.2540162 0.029098792 100
0.26981536 1.2684674 0.050027397 85
0.2805683 1.2493372 0.067515619 51
0.28188697 1.2469912 0.086664692 57
0.27872244 1.2526212 0.10761628 79
0.29314122 1.2269691 0.12102367 86
0.26696953 1.2735304 0.15477379 67
0.27150974 1.2695272 0.0099827768 87
0.28157461 1.2514739 0.028889447 100
0.26670611 1.2781435 0.050898954 83
0.28610966 1.2433394 0.066540658 52
0.29124883 1.2341213 0.084161744 59
0.27945274 1.2552799 0.10799789 87
0.29473791 1.227863 0.12102367 86
0.27540472 1.2625408 -0.0098431576 87
0.27061033 1.2711406 0.15373851 68
0.28196386 1.2547464 0.0096686333 75
0.28325689 1.252408 0.028889447 100
0.27523032 1.2669241 0.049678773 86
0.28007895 1.2581553 0.068490572 50
0.29000288 1.2402078 0.085100345 58
0.28589836 1.2476308 0.1060898 66
0.29916665 1.2236351 0.11967396 78
0.28002858 1.2582464 -0.0097384425 99
0.27423096 1.2687315 0.15270324 68
0.28750369 1.2486657 0.0095290141 76
0.29070455 1.2428288 0.028261416 100
0.28271466 1.2573986 0.048632905 88
0.28273907 1.257354 0.068246834 68
0.2916458 1.2411125 0.085100345 58
0.2828472 1.2571568 0.10799789 72
0.29606652 1.2330512 0.12192347 85
0.28061804 1.2612218 0.15011504 78
0.29299772 1.2425523 0.0093893949 93
0.2866312 1.2542584 0.028889447 100
0.28346571 1.2600789 0.048807215 58
0.28728715 1.2530524 0.067515619 51
0.29329184 1.2420115 0.085100345 58
0.28923926 1.249463 0.1060898 81
0.29861549 1.2322228 0.12147357 77
0.27962214 1.2671461 -0.0098780617 87
0.27956542 1.2672504 0.15166797 69
0.29085177 1.2504866 0.0095290141 92
0.2902194 1.251659 0.028680105 100
0.28990701 1.2522383 0.047935657 89
0.28709027 1.2574608 0.068003096 51
0.2977542 1.2376888 0.084161744 59
0.29184645 1.2486423 0.10570818 81
0.28221986 1.2664911 0.15115032 77
0.28592879 1.2637315 0.0097733475 89
0.2937862 1.2490406 0.02847076 100
0.27655724 1.2812533 0.05072464 84
0.29721946 1.2426215 0.065809444 35
0.29074103 1.2547342 0.10685304 73
0.287815 1.2602049 -0.0097035384 89
0.27757674 1.2793472 0.15477379 75
0.28765383 1.2646503 0.0097733475 89
0.29545993 1.2499321 0.02847076 100
0.28581175 1.2681236 0.049330149 87
0.28956965 1.2610381 0.068246834 51
0.29151475 1.2573706 0.10723466 73
0.28390604 1.2717168 -0.0099129668 87
0.28840798 1.2632284 0.14959741 70
0.2968283 1.2514042 0.0094941091 92
0.29899606 1.2472821 0.028261416 100
0.28847951 1.2672793 0.049155839 87
0.29220927 1.2601871 0.068003096 51
0.29870048 1.2478442 0.10494494 75
0.28379741 1.2761823 -0.0099827768 86
0.29013127 1.2641385 0.14959741 78
0.29873261 1.2516534 0.02847076 100
0.29197302 1.2646109 0.048807215 88
0.29567251 1.2575194 0.067515619 51
0.28640234 1.2752893 -0.0099478718 96
0.28998429 1.2684231 0.15063268 78
0.29644719 1.2601995 0.048284281 88
0.29350075 1.2658958 0.14959741 78
0.29279238 1.2717636 0.049330149 58
0.29179505 1.2737093 0.15166797 77
0.29805207 1.2655442 0.0097035384 100
0.29989198 1.2619255 0.067759357 85
0.29352066 1.2744569 -0.0098780617 100
0.29174945 1.2957606 0.051247578 27
0.29785544 1.2833297 -0.0099827768 100
