# .PCD v0.7 - Point Cloud Data file format
VERSION 0.7
FIELDS x y z intensity
SIZE 4 4 4 4
TYPE F F F F
COUNT 1 1 1 1
WIDTH 743
HEIGHT 1
VIEWPOINT 0 0 0 1 0 0 0
POINTS 743
DATA ascii
-1.0863243 0.14900108 0.057464879 26
-1.1781527 0.16620767 0.020768363 26
-1.1351861 0.16014616 0.060081679 30
-1.1558243 0.16696869 0.02038441 34
-1.0325631 0.15302813 0.018220313 6
-1.0122788 0.15345423 0.017871264 4
-1.053234 0.16342571 0.018604266 1
-0.94352245 1.0582424 0.024747513 1
-0.96103168 1.085485 0.02530599 1
-0.94931483 1.0798219 0.02509656 1
-0.98499203 1.1283222 0.026143705 1
-0.95485127 1.1015333 0.025445608 1
-0.97709095 1.1351713 0.026143705 1
-0.97312248 1.1385751 0.026143705 1
-0.90890419 1.1088836 0.025026752 1
-0.89240551 1.0965397 0.024677703 2
-0.88354516 1.0934267 0.024538083 2
-0.88222575 1.0996237 0.024607893 1
0.082671553 0.0022855401 0.047102362 41
0.059866995 0.012949228 0.015742071 104
0.048006117 0.00053018332 0.048149079 37
0.050808847 0.010631859 0.047625721 22
0.042646468 0.0040534735 0.048149079 100
0.041084647 0.0074903369 0.04804441 72
0.036197066 0.0059567094 0.048253752 43
0.041375399 0.019329131 0.047521047 29
0.042136431 0.02605772 0.047207031 20
0.030487955 0.014670253 0.04804441 9
0.021162391 0.0065461397 0.048672438 8
0.018500626 0.0083968043 0.048672438 8
0.0089530349 0.00045359135 0.049300469 7
-1.0237441 1.127257 0.084574908 5
-1.0471084 1.132561 0.14328404 4
-1.0361605 1.1356108 0.028412517 8
-0.99335736 1.1257447 0.083004825 7
-1.028424 1.1338276 0.14171524 11
-1.0134575 1.1361299 0.028028565 13
-1.009608 1.1352284 0.083946876 63
-1.0174448 1.1370636 0.14084367 52
-0.9888888 1.1357636 0.027609708 36
-1.0025589 1.1390127 0.083632857 100
-1.0142806 1.1417987 0.14066938 95
-0.97976273 1.1395233 0.027470088 38
-1.0031374 1.1451696 0.08373753 100
-1.0070972 1.1461262 0.14014643 86
-0.97464448 1.1436422 0.027400278 38
-0.98830575 1.1469902 0.083004825 100
-1.0058415 1.1512876 0.14014643 86
-0.98878843 1.1530926 0.027679516 23
-0.9694708 1.1482832 0.082062781 74
-0.99863344 1.1555436 0.13962349 81
-0.97781533 1.1557456 0.027504992 26
-0.98176342 1.1567425 0.082795486 39
-0.98961931 1.158726 0.13892625 77
-0.96476895 1.158363 0.027295563 48
-0.9822703 1.16285 0.082900152 35
-0.9746744 1.1609026 0.13770607 85
-0.96153742 1.1628809 0.027260659 63
-0.97902614 1.1674266 0.082795486 78
-0.97915477 1.1674601 0.13822901 89
-0.96008724 1.1684184 0.027260659 71
-0.96790332 1.1704805 0.08227212 96
-0.97576123 1.1725538 0.1380547 92
-0.95675558 1.1731703 0.027225753 81
-0.94913167 1.1711303 0.081330076 96
-0.9743467 1.1778772 0.1380547 100
-0.95533913 1.1784273 0.027225753 89
-0.94772238 1.1763608 0.081330076 100
-0.96522218 1.1811088 0.13735744 100
-0.95004803 1.1826187 0.027155945 96
-0.94822055 1.182116 0.081434749 100
-0.95801479 1.1848102 0.13683452 98
-0.9371137 1.1843703 0.026946515 93
-0.9391498 1.1849377 0.081016064 94
-0.95471174 1.1892738 0.1366602 92
-0.94335586 1.1917326 0.027086135 88
-0.93384808 1.1890477 0.080806717 84
-0.96282595 1.1972312 0.13753176 98
-0.9647935 1.2040739 0.027504992 56
-0.92454821 1.1925414 0.080388032 68
-0.95925909 1.2024879 0.13735744 100
-0.95750791 1.2076862 0.027400278 41
-0.91922826 1.1965722 0.080178685 24
-0.94626004 1.2044206 0.13631158 92
-0.92911273 1.2050461 0.026911611 63
-0.92347854 1.2033889 0.080492698 26
-0.93708879 1.207392 0.13561434 84
-0.91608649 1.2067807 0.026702182 75
-0.92578501 1.2096702 0.080702044 26
-0.93746239 1.2131491 0.13578865 87
-0.91662174 1.2119614 0.026737086 78
-0.91865951 1.2125754 0.080388032 48
-0.93797046 1.2183948 0.13596296 99
-0.9188953 1.2182455 0.026806897 88
-0.90755421 1.2147846 0.079864666 100
-0.93639618 1.2235861 0.13596296 99
-0.91732162 1.2233701 0.026806897 89
-0.90790099 1.2204593 0.079969339 86
-0.92338234 1.2252427 0.1349171 91
-0.90809613 1.2261013 0.026667276 92
-0.91394442 1.2279307 0.080388032 72
-0.90657192 1.2256246 0.1335226 67
-0.89505678 1.2275664 0.026457848 88
-0.91995329 1.2354497 0.080806717 64
-0.90497273 1.2307062 0.1335226 46
-0.89345068 1.2326077 0.026457848 85
-0.9012019 1.2350919 0.079864666 82
-0.910945 1.2382145 0.13421984 43
-0.89571327 1.238625 0.026527658 92
-0.88635212 1.2355907 0.079131968 100
-0.91317493 1.2442852 0.13456847 52
-0.89786881 1.2449152 0.026597468 99
-0.89420706 1.2437141 0.079655327 100
-0.90583092 1.2475269 0.13404553 73
-0.88844389 1.2479489 0.026457848 100
-0.89427286 1.2498858 0.07976 100
-0.90020519 1.2518568 0.13369691 82
-0.8791849 1.2504185 0.02631823 96
-0.89448208 1.2555606 0.079864666 100
-0.89284867 1.2550116 0.13317397 86
-0.87766856 1.2549061 0.02631823 93
-0.88349372 1.2568846 0.079341307 100
-0.89886409 1.2621051 0.13387123 80
-0.8759672 1.2598866 0.02631823 99
-0.87422985 1.2592897 0.078922622 100
-0.89713746 1.2671596 0.13387123 100
-0.87793976 1.266423 0.026388038 83
-0.87054044 1.2638507 0.078817949 100
-0.89342362 1.271806 0.13369691 87
-0.87431163 1.2707412 0.026353134 74
-0.86692375 1.2681439 0.078713275 78
-0.89166325 1.2768414 0.13369691 42
-0.86133748 1.2714448 0.026143705 83
-0.86338204 1.2721711 0.07860861 36
-0.88434225 1.2796183 0.13317397 37
-0.86146051 1.2770443 0.02617861 100
-0.84470361 1.2710246 0.077666558 19
-0.8863048 1.2859691 0.1335226 31
-0.85959262 1.282214 0.02617861 96
-0.84848946 1.2781794 0.077980578 61
-0.88627666 1.2919104 0.13369691 17
-0.85779613 1.2871313 0.02617861 100
-0.85233134 1.2851239 0.07829459 100
-0.87322491 1.2927989 0.13265105 13
-0.84107536 1.286231 0.025899371 100
-0.85061544 1.2897714 0.07829459 100
-0.8658796 1.295436 0.1321281 3
-0.83552021 1.2896792 0.025829561 100
-0.84505242 1.2932545 0.078085244 53
-0.87149876 1.303174 0.13282534 1
-0.83004934 1.2928538 0.025759751 93
-0.83023566 1.2929245 0.077352546 51
-0.84550196 1.2987084 0.1305593 5
-0.83755332 1.3012431 0.025934275 71
-0.82840186 1.2977393 0.077352546 55
-0.85481197 1.3078506 0.13160518 22
-0.83932668 1.3077687 0.026004085 74
-0.83390874 1.3056717 0.077771232 68
-0.83610874 1.3065231 0.13003637 60
-0.82999164 1.3097017 0.025864467 83
-0.82459027 1.3075893 0.077352546 61
-0.84907168 1.3171637 0.13143086 100
-0.81136125 1.307902 0.025550323 99
-0.83570796 1.3175218 0.078085244 70
-0.83047634 1.3154547 0.12986206 95
-0.81690425 1.315616 0.025689943 100
-0.8226586 1.3179131 0.077457212 91
-0.83781606 1.3239632 0.13073361 99
-0.81508738 1.3201458 0.025689943 100
-0.81898171 1.3217154 0.077352546 97
-0.83966738 1.3300519 0.13108224 100
-0.81686288 1.3264154 0.025759751 100
-0.81519765 1.3257375 0.077247873 100
-0.8284772 1.3311434 0.13021068 100
-0.79952687 1.3193583 0.17890419 15
-0.80751449 1.3281417 0.025620133 100
-0.80955499 1.3289807 0.077038527 100
-0.81361097 1.3306482 0.1289905 100
-0.79576498 1.3233109 0.17866045 19
-0.80186433 1.3313432 0.025550323 100
-0.80390638 1.3321911 0.07682918 100
-0.8153258 1.3369329 0.12933913 100
-0.79932541 1.3302889 0.17939167 24
-0.79640526 1.3340421 0.025480513 100
-0.8021335 1.3364418 0.07682918 100
-0.81905097 1.3435289 0.12986206 100
-0.77192563 1.323787 0.17597933 16
-0.79442829 1.3387384 0.025480513 100
-0.78543252 1.3349329 0.075991809 96
-0.81704062 1.3483043 0.12986206 100
-0.75353032 1.3214372 0.17378569 16
-0.80898529 1.3504975 0.025794657 70
-0.79630941 1.345083 0.076724514 45
-0.80768472 1.349942 0.12916481 76
-0.76985282 1.333782 0.17622307 13
-0.81429559 1.3584055 0.025934275 67
-0.81446737 1.3584795 0.077875905 59
-0.82211739 1.361779 0.13073361 16
-0.79704136 1.3509641 0.18012288 7
-0.79563016 1.356214 0.025620133 100
-0.80680817 1.3610836 0.077561885 100
-0.81263286 1.3636211 0.13003637 78
-0.78398365 1.3511403 0.17866045 15
-0.79540628 1.3617127 0.025655037 100
-0.80473655 1.3658161 0.077561885 100
-0.81602389 1.3707803 0.1305593 100
-0.78194696 1.3557932 0.17866045 38
-0.79709226 1.3677931 0.025724847 100
-0.79179984 1.3654445 0.076933853 100
-0.82130855 1.3785396 0.13125655 100
-0.76911038 1.3553758 0.17719802 31
-0.80594712 1.3773967 0.025934275 100
-0.80976337 1.3791062 0.078085244 100
-0.80462974 1.3768065 0.12986206 100
-0.76343566 1.3583536 0.17671055 22
-0.79470819 1.3780068 0.025759751 100
-0.80944878 1.3846717 0.078189917 100
-0.79524153 1.378248 0.12916481 100
-0.78669697 1.3743846 0.18012288 19
-0.79075843 1.3818668 0.025724847 100
-0.81092888 1.3910718 0.078399263 100
-0.80398554 1.3879032 0.13021068 100
-0.75568432 1.3658605 0.17622307 16
-0.79951221 1.3915626 0.025934275 100
-0.80331033 1.393312 0.078085244 100
-0.8126784 1.3976266 0.13125655 100
-0.7499904 1.3687537 0.17573559 11
-0.79733437 1.3962694 0.025934275 100
-0.79931515 1.3971901 0.077980578 100
-0.81770629 1.4057387 0.13195379 100
-0.75509292 1.3766348 0.17671055 11
-0.80781299 1.4069133 0.02617861 100
-0.80615872 1.4061372 0.078503937 100
-0.80465597 1.4054323 0.13090792 100
-0.77093941 1.3896168 0.17914793 5
-0.79292935 1.4056603 0.025934275 100
-0.80754036 1.4125762 0.078713275 100
-0.79522628 1.4067476 0.13021068 100
-0.79029936 1.4044154 0.1820728 3
-0.79261869 1.4109716 0.025969181 100
-0.81080931 1.4196558 0.079027295 100
-0.80389541 1.4163551 0.13125655 100
-0.79757935 1.4191256 0.0261088 100
-0.79953629 1.4200683 0.078503937 100
-0.80881089 1.4245358 0.13195379 100
-0.79170829 1.4220774 0.026038991 100
-0.79905528 1.4256481 0.07860861 100
-0.81726962 1.4345003 0.13299966 100
-0.80019671 1.432039 0.02624842 100
-0.79855174 1.4312325 0.078713275 100
-0.80063051 1.4322517 0.13160518 100
-0.79070801 1.4332016 0.0261088 100
-0.80339617 1.4394779 0.079131968 100
-0.80188221 1.438729 0.13195379 100
-0.78480631 1.4360917 0.026038991 100
-0.80819947 1.4477654 0.079550654 100
-0.81023616 1.4487817 0.13299966 100
-0.79318994 1.4461417 0.02624842 100
-0.79512149 1.447114 0.078922622 100
-0.80785853 1.4535257 0.13299966 100
-0.79795367 1.4544476 0.026388038 100
-0.7927497 1.4518052 0.078922622 100
-0.81434673 1.4627715 0.13387123 100
-0.79911596 1.4609718 0.026457848 100
-0.79391688 1.4583091 0.079131968 100
-0.80482692 1.4638968 0.13317397 100
-0.7931425 1.4638414 0.026388038 100
-0.80215293 1.4684961 0.07976 100
-0.81124729 1.4731939 0.13404553 100
-0.78728706 1.4664443 0.02631823 100
-0.79805785 1.4720535 0.079655327 100
-0.80007237 1.4731027 0.13317397 100
-0.7919293 1.4748274 0.026457848 100
-0.79736716 1.4776835 0.07976 100
-0.81348485 1.4861491 0.13474278 100
-0.78946084 1.4795073 0.026457848 67
-0.78606397 1.4777081 0.079236634 59
-0.80921596 1.4899716 0.13456847 91
0.098065168 1.3320935 0.063100755 19
0.12804735 1.2948033 0.13089497 11
0.2044321 1.1997998 0.1273223 8
0.16558072 1.2512091 0.010750682 26
0.14485696 1.2771506 0.034018371 27
0.16698521 1.2494509 0.053687938 26
0.14608601 1.2756122 0.07945881 14
0.14559701 1.2762244 0.10262101 11
0.15420556 1.2654483 0.12326261 49
0.19118834 1.2191539 0.13272113 15
0.13883251 1.284692 0.1765146 6
0.1535936 1.2697819 0.011134636 100
0.17517594 1.2425714 0.031610917 92
0.15256566 1.2710779 0.055953987 73
0.17622569 1.2412478 0.073852822 31
0.16700718 1.2528703 0.097615108 37
0.16935748 1.2499071 0.11906482 100
0.1879144 1.2265109 0.13452072 31
0.15023559 1.2740157 0.17237349 42
0.16028929 1.2648784 0.010995016 100
0.1731208 1.2485842 0.031924933 100
0.14568859 1.2834194 0.057174169 100
0.1631352 1.2612644 0.076777689 29
0.17602783 1.2448926 0.095737889 25
0.16010332 1.2651145 0.12249938 100
0.18951014 1.227772 0.13452072 38
0.15080217 1.2769258 0.17289113 35
0.1620191 1.2662357 0.010995016 100
0.17602384 1.2483234 0.03182026 100
0.15484631 1.2754099 0.056128297 97
0.17585662 1.2485373 0.074584037 15
0.18498802 1.236858 0.093860678 26
0.16546169 1.2618326 0.12135452 100
0.18870965 1.232098 0.13542053 30
0.14781451 1.2844038 0.17496167 35
0.16979909 1.2596225 0.010820492 100
0.18618679 1.2385184 0.031087559 63
0.1663003 1.2641282 0.054733805 100
0.18231556 1.2435038 0.073609084 15
0.1744228 1.2536681 0.096989371 25
0.18395224 1.2413961 0.11601187 79
0.18068239 1.2456069 0.13901976 29
0.15307707 1.281157 0.17340876 42
0.17517331 1.2561955 0.010715778 53
0.18050778 1.2492762 0.031715591 61
0.17410982 1.257575 0.053862248 51
0.17548651 1.2557893 0.075315252 45
0.17852557 1.2518473 0.096363634 37
0.17481178 1.2566645 0.11944643 12
0.18353465 1.2453499 0.13856985 22
0.15132523 1.2871294 0.17496167 49
0.18173432 1.2511492 0.010576159 67
0.17975518 1.2537349 0.031924933 30
0.1661264 1.2715414 0.055256739 49
0.19528234 1.2334483 0.071659178 64
0.18861413 1.2421606 0.094173551 52
0.19321835 1.236145 0.11410378 13
0.20296258 1.2234139 0.13182132 31
0.16370025 1.2747111 0.17030293 58
0.176157 1.2619848 0.010785587 52
0.1766125 1.2613854 0.032343622 30
0.1654686 1.276051 0.055605363 49
0.17408299 1.2647142 0.076290213 100
0.19982556 1.2308365 0.091670595 54
0.18772087 1.2467666 0.11639348 13
0.20218936 1.2277257 0.13272113 47
0.17013958 1.2699039 0.16823238 67
0.17065093 1.2728652 0.010995016 38
0.18314126 1.256308 0.031924933 30
0.18403575 1.2551223 0.053165004 52
0.17939863 1.2612692 0.07555899 100
0.20619485 1.2257482 0.090419121 55
0.19411665 1.2417591 0.11486702 13
0.20613644 1.2258255 0.13182132 39
0.17537716 1.2666001 0.16667947 67
0.17960081 1.2645828 0.010785587 39
0.18963 1.251191 0.031506244 31
0.19170299 1.2484231 0.052293446 53
0.1799258 1.2641487 0.075802729 45
0.20778781 1.2269455 0.090419121 55
0.19811928 1.2398555 0.11410378 13
0.21006599 1.2239035 0.13092151 40
0.18290308 1.2601733 0.16409127 69
0.19206744 1.2514298 0.010471444 82
0.18654525 1.2588573 0.031924933 30
0.18505391 1.2608632 0.053513627 52
0.19231251 1.2511001 0.073609084 77
0.19995615 1.2408192 0.092922069 66
0.20444697 1.2347789 0.1125773 13
0.20932704 1.2282151 0.13182132 31
0.18346369 1.263002 0.16460891 69
0.18900013 1.2591119 0.010611063 81
0.21316102 1.2263768 0.029726824 67
0.18440327 1.2653401 0.053862248 77
0.19753054 1.2475543 0.072877869 47
0.19925562 1.245217 0.093547814 78
0.20140803 1.2423007 0.11410378 13
0.22018653 1.216858 0.12822211 32
0.1817452 1.2689415 0.16616182 68
0.19315842 1.2572052 0.010541254 81
0.20067412 1.246944 0.030982886 63
0.18033484 1.2747136 0.054733805 100
0.20280212 1.2440385 0.072146654 79
0.20800307 1.2369375 0.091670595 100
0.21010181 1.234072 0.11181407 14
0.22067508 1.2196361 0.128672 16
0.18585938 1.2671708 0.16512655 68
0.19015744 1.2649174 0.010680873 93
0.21056277 1.2368525 0.030250182 65
0.18561384 1.2711666 0.054210871 100
0.19745472 1.2548809 0.073609084 62
0.21312004 1.2333353 0.090731993 95
0.20479664 1.244783 0.11410378 13
0.23714447 1.2002927 0.12282328 17
0.19214129 1.2621889 0.163056 70
0.19890904 1.2564416 0.010471444 82
0.20751894 1.2445126 0.03066887 64
0.19202957 1.2659732 0.053513627 100
0.20844349 1.2432315 0.071659178 64
0.2158955 1.2329066 0.090419121 100
0.21909478 1.228474 0.10990598 14
0.22496259 1.2203441 0.12822211 8
0.19612274 1.2603021 0.16202073 70
0.19827992 1.2609153 0.010541254 95
0.2115038 1.242458 0.030459527 65
0.19840455 1.2607414 0.05281638 100
0.20316067 1.2541029 0.073121607 100
0.20830962 1.2469163 0.092922069 100
0.21498013 1.2376059 0.11181407 14
0.2367512 1.2072188 0.12417299 16
0.19446099 1.2662456 0.16357364 69
0.20222825 1.2588202 0.010471444 96
0.21423024 1.2419505 0.030354854 97
0.19541383 1.2683983 0.053513627 100
0.21857721 1.2358404 0.07019674 66
0.2156187 1.2399988 0.09135773 100
0.20515147 1.2547114 0.11563025 20
0.23594341 1.2114309 0.12507279 16
0.19610855 1.2674218 0.16357364 69
0.20855084 1.2534974 0.010331824 98
0.21127114 1.2496455 0.030773543 96
0.19255841 1.2761428 0.054210871 100
0.21333459 1.2467235 0.071659178 80
0.22409844 1.2314818 0.089480512 97
0.20344794 1.2607231 0.1167751 46
0.23186544 1.2204835 0.1273223 24
0.20007586 1.265498 0.16253836 70
0.20785981 1.2579014 0.010401634 97
0.21745044 1.244225 0.030354854 97
0.19881451 1.2708004 0.053513627 100
0.2149173 1.2478373 0.071659178 64
0.21769145 1.2438813 0.091670595 100
0.20056835 1.2682993 0.11830158 91
0.2322422 1.2231315 0.1277722 56
0.20726675 1.2587472 0.15995017 72
0.20728019 1.2623754 0.010471444 96
0.21796682 1.2470222 0.030459527 97
0.21080878 1.2573059 0.051944822 100
0.21205106 1.2555212 0.072634131 78
0.22273314 1.2401745 0.090731993 100
0.22249833 1.2405119 0.11143246 84
0.22603282 1.2354341 0.13092151 88
0.20787126 1.2615261 0.1604678 72
0.21582097 1.2536973 0.010262015 98
0.21849868 1.2498215 0.030564198 97
0.20005426 1.2765183 0.053862248 100
0.21826136 1.250165 0.071659178 64
0.21988499 1.2478149 0.091983467 100
0.22860652 1.2351912 0.10990598 85
0.22101328 1.2461818 0.13362093 93
0.20739287 1.2658963 0.16150309 70
0.2152496 1.2581592 0.010331824 84
0.23260048 1.2328568 0.029412808 67
0.20858517 1.2678778 0.05281638 100
0.22443011 1.2447715 0.070684217 81
0.22267205 1.2473352 0.091670595 100
0.22357047 1.2460251 0.11219569 100
0.23259631 1.2328628 0.12957181 88
0.2124036 1.2623094 0.15995017 72
0.21479133 1.2626895 0.010401634 83
0.23542255 1.2323657 0.029308135 68
0.1958425 1.2905405 0.055082429 75
0.22393912 1.2492441 0.071171694 97
0.23109087 1.2387325 0.089793384 100
0.21648249 1.2602038 0.11524864 100
0.23648733 1.2308007 0.128672 97
0.2033433 1.2795157 0.16512655 68
0.21091777 1.2721428 0.010576159 40
0.24262702 1.2251849 0.028784776 34
0.20881164 1.2752616 0.053339314 52
0.21894851 1.2602501 0.072634131 78
0.23493993 1.2365686 0.089167647 100
0.22808385 1.2467217 0.11181407 91
0.23373547 1.2383523 0.13047162 96
0.21593511 1.2647126 0.15995017 72
0.22594777 1.2533332 0.0101573 42
0.22634256 1.2527443 0.030459527 32
0.21492708 1.2697709 0.05264207 53
0.22278696 1.2580476 0.072146654 79
0.23428878 1.2408923 0.089793384 100
0.23403963 1.2412639 0.1102876 92
0.23529032 1.2393985 0.13047162 96
0.21757749 1.2658176 0.15995017 72
0.22099021 1.2644503 0.010366729 41
0.21253964 1.2771502 0.031924933 30
0.21998483 1.2659612 0.052119136 54
0.23329005 1.2459655 0.07019674 66
0.23265153 1.2469251 0.090731993 100
0.23568657 1.2423639 0.1102876 99
0.23369208 1.2453613 0.13182132 100
0.2225208 1.26215 0.15839726 73
0.22924519 1.2555277 0.0101573 28
0.22523236 1.2616019 0.030878214 31
0.21504197 1.2770271 0.053165004 52
0.23705855 1.2437006 0.069709264 83
0.2364125 1.2446785 0.090106249 96
0.24158338 1.2368513 0.10876112 87
0.23956683 1.2399038 0.13002171 100
0.22308978 1.2648451 0.15891489 73
0.22874913 1.259989 0.01022711 28
0.1897175 1.3195221 0.03443706 27
0.21135178 1.2865243 0.054036561 51
0.24415606 1.2364895 0.068490572 50
0.24348676 1.2375104 0.08854191 84
0.23245049 1.2543435 0.1125773 96
0.24868837 1.2295766 0.12687239 100
0.22164145 1.27083 0.1604678 72
0.21964434 1.2779264 0.010576159 40
0.21786892 1.2806561 0.031924933 30
0.23171431 1.2593687 0.051073264 55
0.23396236 1.2559123 0.071171694 81
0.24735638 1.2353188 0.087916173 84
0.23636866 1.2522125 0.11181407 84
0.25037482 1.2306778 0.12687239 99
0.22874576 1.2639329 0.15787962 73
0.23877016 1.2521945 0.010017681 43
0.256479 1.2247579 0.028366089 35
0.232344 1.2621508 0.051247578 55
0.24642548 1.240334 0.068734311 84
0.25326744 1.2297336 0.086664692 86
0.24657109 1.2401084 0.10876112 87
0.24670076 1.2399075 0.1291219 96
0.23361474 1.2601819 0.1563267 74
0.24468625 1.2464892 0.0098780617 44
0.24398071 1.2475903 0.029726824 67
0.2372025 1.2581687 0.05072464 56
0.24691585 1.2430096 0.068978049 67
0.24839926 1.2406945 0.08854191 70
0.25025007 1.237806 0.10799789 79
0.24405527 1.247474 0.13092151 96
0.23524201 1.2612283 0.1563267 74
0.23991361 1.2576768 0.010087491 86
0.25315127 1.2368578 0.028994121 68
0.23463225 1.2659829 0.051421888 82
0.23472217 1.2658415 0.072146654 63
0.24580446 1.2484121 0.089793384 69
0.24135074 1.2554165 0.11181407 100
0.25513443 1.2337388 0.12687239 90
0.23073927 1.2721055 0.15943253 73
0.24055073 1.2604474 0.010122396 85
0.25798002 1.2328236 0.028680105 100
0.22998646 1.2771907 0.052467756 80
0.2481069 1.2484716 0.069465525 49
0.255909 1.236106 0.087290429 71
0.25352326 1.2398872 0.10799789 79
0.25987461 1.229821 0.12552269 99
0.23352474 1.271583 0.15891489 65
0.24438691 1.2581348 0.010052586 86
0.25111842 1.247383 0.029517479 100
0.24127436 1.2631062 0.050898954 83
0.2455653 1.2562526 0.070440479 49
0.26068255 1.2321069 0.086351827 58
0.2457889 1.2558955 0.11143246 77
0.26354969 1.2275274 0.12462288 100
0.2352775 1.2726846 0.15891489 65
0.24714792 1.2574999 0.010017681 72
0.25489452 1.2450303 0.029308135 100
0.25035715 1.2523341 0.049678773 86
0.25145459 1.2505676 0.069465525 66
0.25917017 1.2381477 0.087290429 57
0.24955887 1.2536191 0.11066922 92
0.26000676 1.2368011 0.12687239 99
0.24518961 1.2606523 0.15477379 67
0.25304866 1.251745 0.0098780617 73
0.2523624 1.2528583 0.029726824 100
0.2384516 1.2754259 0.051944822 81
0.24688411 1.2617458 0.070927955 48
0.26184261 1.2374785 0.086977564 57
0.26052043 1.2396235 0.10723466 73
0.25959286 1.2411283 0.1277722 97
0.24487674 1.2650024 0.15580906 67
0.25368869 1.2544847 0.0099129668 87
0.24988142 1.2607098 0.030145511 98
0.24125731 1.2748106 0.051770512 81
0.26103121 1.2424792 0.068003096 51
0.2603842 1.2435372 0.087916173 56
0.25601545 1.2506802 0.10952436 85
0.26937327 1.2288395 0.12417299 100
0.23854288 1.2792488 0.15995017 64
0.24915734 1.2657733 0.010122396 85
0.26195738 1.2446796 0.029098792 100
0.24198771 1.2775886 0.051944822 81
0.25856298 1.2502733 0.068978049 50
0.26511323 1.2394788 0.086977564 57
0.26482454 1.2399546 0.10685304 66
0.2740095 1.2248182 0.12282328 85
0.24032238 1.2803329 0.15995017 64
0.25381237 1.2615776 0.010017681 87
0.2644808 1.2438715 0.028994121 100
0.24769682 1.2717274 0.051247578 82
0.2539264 1.2613883 0.070440479 49
0.26964793 1.2352955 0.086038955 58
0.2592099 1.2526194 0.10952436 78
0.27543971 1.2256831 0.12282328 85
0.26103649 1.2495879 -0.0097733475 88
0.25787917 1.254828 0.15166797 69
0.2627123 1.2505937 0.0097733475 89
0.26511189 1.2465794 0.029098792 100
0.2555837 1.2625189 0.050201707 85
0.25156933 1.2692344 0.071415432 48
0.27026027 1.2379669 0.086351827 58
0.25988901 1.2553166 0.10990598 78
0.27503225 1.229984 0.12372308 92
0.25560844 1.2624774 0.15373851 68
0.26439163 1.2515936 0.0097733475 89
0.26066446 1.2578783 0.029726824 100
0.25628841 1.2652572 0.05037602 100
0.2695151 1.2429544 0.067515619 51
0.27088785 1.2406396 0.086664692 57
0.26959637 1.2428173 0.10685304 81
0.27067533 1.2409979 0.12642249 90
0.25535846 1.2668253 0.15477379 67
0.26404643 1.2560346 0.0098431576 88
0.27249709 1.2416711 0.028680105 100
0.24892613 1.2817345 0.051944822 81
0.26512802 1.2541962 0.068978049 50
0.27453578 1.2382059 0.086038955 58
0.26925743 1.2471775 0.10761628 79
0.28714386 1.2167759 0.11967396 78
0.25709447 1.2678508 0.15477379 67
0.26473674 1.2587569 0.0098780617 73
0.27414522 1.2426368 0.028680105 100
0.25473151 1.2758994 0.051247578 82
0.26982182 1.2500443 0.068246834 85
0.27816328 1.2357525 0.085413218 58
0.26696628 1.2549368 0.10914274 78
0.28477573 1.2244229 0.12147357 86
0.2549389 1.275544 0.15684435 66
0.26243672 1.2666719 0.010017681 72
0.26779076 1.2574245 0.029517479 100
0.26049244 1.27003 0.05055033 84
0.26851526 1.2561731 0.068978049 50
0.28177026 1.2332795 0.084787481 59
0.26275855 1.266116 0.11143246 91
0.2863636 1.225346 0.12147357 77
0.2586413 1.2732272 0.15580906 67
0.27413133 1.2503321 0.0096686333 75
0.27546212 1.2480149 0.028889447 100
0.27216241 1.2537603 0.048807215 88
0.27219132 1.25371 0.068490572 50
0.28240526 1.2359259 0.085100345 58
0.27915856 1.2415789 0.10570818 81
0.2821314 1.2364028 0.12417299 75
0.26715991 1.2624705 -0.0099129668 87
0.26617244 1.2641898 0.15270324 68
0.27976912 1.2443421 0.0095290141 76
0.27910969 1.2454996 0.028680105 100
0.26497656 1.2703078 0.05037602 84
0.27584675 1.2512271 0.068003096 51
0.27816635 1.2471554 0.086977564 57
0.27691907 1.2493448 0.10723466 88
0.28279647 1.2390281 0.12462288 92
0.26885548 1.263499 0.1521856 77
0.27650759 1.2539873 0.0097035384 90
0.27880597 1.24992 0.028889447 100
0.26476431 1.2747688 0.05072464 84
0.28338781 1.2418118 0.066540658 52
0.28566453 1.2377827 0.085100345 58
0.27955979 1.2485859 0.10685304 88
0.29210505 1.2263851 0.12102367 86
0.26202616 1.2796144 0.15684435 66
0.28308719 1.2462171 0.0095290141 61
0.28634194 1.2404101 0.028261416 100
0.26165739 1.2844515 0.051596198 82
0.27533075 1.2600559 0.068978049 50
0.28826481 1.2369794 0.084787481 59
0.27739248 1.2563775 0.10837951 79
0.29179412 1.2306825 0.12192347 85
0.27428788 1.2619166 -0.0098431576 87
0.26569587 1.2772462 0.15580906 67
0.28086472 1.254137 0.0096686333 75
0.28410387 1.2483102 0.028680105 100
0.28184801 1.2523682 0.048284281 88
0.27993658 1.2558067 0.068246834 68
0.29277584 1.2327106 0.083848871 59
0.27336851 1.2676216 0.11066922 85
0.29529747 1.2281744 0.12102367 86
0.27406344 1.2663715 -0.0099129668 87
0.27497736 1.2647276 0.15166797 69
0.2825563 1.2550735 0.0096686333 75
0.27806053 1.2632277 0.029517479 100
0.28257143 1.2550461 0.048458595 88
0.28259245 1.255008 0.068003096 51
0.29248506 1.2370653 0.084474608 59
0.2893258 1.2427955 0.10494494 82
0.29313475 1.2358869 0.12282328 85
0.2777288 1.2638295 -0.0098431576 87
0.28416792 1.2521505 0.14752686 71
0.28329176 1.2577586 0.0097035384 90
0.28936598 1.2466501 0.02847076 100
0.27948681 1.2647172 0.049330149 87
0.28428707 1.2559385 0.068003096 51
0.29411697 1.2379614 0.084474608 59
0.29286155 1.2402574 0.10418171 75
0.29663244 1.2333611 0.12192347 85
0.27561671 1.2717949 -0.0099827768 86
0.28214523 1.2598555 0.14959741 70
0.28976226 1.2498974 0.0095290141 76
0.2891272 1.2510684 0.028680105 100
0.2793158 1.2691613 0.049678773 86
0.29166266 1.2463928 0.066540658 52
0.29575202 1.2388518 0.084474608 59
0.28795347 1.253233 0.10685304 81
0.2764895 1.2743733 0.15373851 68
0.28859764 1.2560863 0.0096337283 90
0.29648378 1.2414219 0.028052073 100
0.27728525 1.2771223 0.05037602 84
0.29332718 1.2472917 0.066540658 52
0.29926136 1.2362568 0.083848871 59
0.28964186 1.2541447 0.10685304 81
0.27912655 1.2736982 -0.0099827768 86
0.27733678 1.2770264 0.15425615 75
0.28653219 1.2640538 0.0097733475 89
0.29437166 1.2493533 0.02847076 100
0.27905712 1.278071 0.05037602 84
0.28658801 1.2639492 0.068734311 84
0.29225725 1.2533182 0.10647142 73
0.28465027 1.2675828 -0.0098431576 87
0.28819859 1.2609289 0.14907977 78
0.29106274 1.2596672 0.0096686333 90
0.29604647 1.2502427 0.02847076 100
0.29014602 1.2614008 0.048632905 88
0.2864579 1.2683753 0.069221787 83
0.29669917 1.2490083 0.10532656 75
0.28825834 1.2649705 -0.0097733475 88
0.28810769 1.2652553 0.15011504 78
0.29370219 1.258797 0.0096337283 90
0.29586941 1.2546639 0.028680105 100
0.29741424 1.2517177 0.047587037 90
0.29649568 1.2534695 0.067028143 51
0.28813049 1.2694231 -0.0098431576 97
0.29073519 1.2644556 0.14959741 70
0.29174483 1.2667384 0.048981529 87
0.29635346 1.257874 0.067515619 51
0.29246274 1.2653576 0.14959741 70
0.29065391 1.2729044 0.049504463 57
0.29797271 1.2587124 0.067515619 51
0.29410681 1.2662089 0.14959741 70
0.29876 1.2613889 0.048284281 59
0.29787278 1.2631241 0.068003096 68
0.29584047 1.2670991 0.14959741 70
0.29314464 1.2765087 -0.0099129668 100
0.29836404 1.2662163 0.14907977 78
0.29784465 1.2810955 -0.0099478718 100
0.296078 1.2890069 0.05055033 28
