# .PCD v0.7 - Point Cloud Data file format
VERSION 0.7
FIELDS x y z intensity
SIZE 4 4 4 4
TYPE F F F F
COUNT 1 1 1 1
WIDTH 748
HEIGHT 1
VIEWPOINT 0 0 0 1 0 0 0
POINTS 748
DATA ascii
-1.0905153 0.1478311 0.057674225 26
-1.1705471 0.16284332 0.020628745 20
-1.1600733 0.16551605 0.02045422 30
-1.0526414 0.15393905 0.01856936 6
-1.0244108 0.15346482 0.018080693 5
-1.0179392 0.15613025 0.017975979 2
-0.97975016 1.0495511 0.025061656 6
-0.98287779 1.0602973 0.02523618 15
-0.98206544 1.0664929 0.02530599 20
-0.9768008 1.0686091 0.025271084 6
-1.0068586 1.1088536 0.026143705 1
0.12223566 0.027594924 0.044904251 13
0.055386603 0.0063211322 0.015881689 83
0.058160692 0.010604322 0.047416378 51
0.05018869 0.0038756728 0.047939736 38
0.040440619 0.00072324276 0.048358422 100
0.04095161 0.0075792074 0.04804441 72
0.043998837 0.017558277 0.047521047 48
0.034653485 0.0094083548 0.048149079 26
0.025960624 0.0080878735 0.048463095 8
0.030129671 0.019771576 0.047835063 9
0.029800653 0.024866164 0.047625721 9
0.0088187456 0.0005480051 0.049300469 7
-1.0255044 1.1285242 0.084679574 5
-1.0352619 1.1307447 0.14223817 4
-1.0320723 1.135541 0.028342709 8
-1.0048468 1.1292505 0.083632857 11
-1.0146446 1.1315143 0.14049506 16
-0.99185091 1.1319218 0.027644612 13
-1.0171943 1.1378707 0.084365562 75
-1.0153127 1.137429 0.14066938 65
-0.99634939 1.1389629 0.027749326 42
-0.9983508 1.1394404 0.083423518 100
-1.0197694 1.1445509 0.1411923 100
-0.98339123 1.141533 0.027539898 37
-0.97569972 1.1396694 0.08227212 100
-1.0203888 1.1504973 0.14136662 87
-0.99768585 1.1504345 0.027819136 32
-0.98610264 1.1475873 0.082900152 100
-1.0017054 1.1514225 0.13979781 86
-0.97888654 1.1514777 0.027504992 23
-0.9770239 1.1510129 0.082481466 66
-0.98683256 1.1534603 0.13857763 87
-0.96390921 1.1536403 0.027260659 34
-0.98723346 1.1595509 0.083109498 37
-0.99314219 1.1610482 0.13927488 73
-0.96643418 1.1599184 0.027330469 50
-0.98006135 1.1634223 0.082795486 39
-0.9859789 1.1649439 0.13875194 89
-0.96506387 1.1652093 0.027330469 59
-0.96901578 1.1662402 0.08227212 90
-0.98459095 1.1703031 0.13875194 92
-0.96367508 1.1704955 0.027330469 72
-0.96183091 1.1700076 0.081958108 98
-0.97740597 1.1741285 0.13822901 94
-0.94874829 1.1721492 0.027086135 81
-0.96428353 1.1763176 0.082167454 100
-0.96059138 1.1753269 0.13683452 100
-0.94733542 1.1773783 0.027086135 92
-0.95900148 1.1805522 0.081958108 100
-0.96493489 1.1821666 0.13735744 99
-0.95361513 1.1847293 0.027225753 96
-0.94215637 1.1815687 0.081120729 100
-0.97116953 1.1895713 0.1380547 92
-0.9406032 1.1867448 0.027016325 92
-0.93109316 1.184086 0.080597371 94
-0.96393925 1.1932691 0.13753176 94
-0.95075732 1.1949544 0.027225753 88
-0.94124204 1.19226 0.081225403 82
-0.94910818 1.1944875 0.13631158 100
-0.96079761 1.2034996 0.027435184 51
-0.93783921 1.1969121 0.081120729 58
-0.94187206 1.1980692 0.13578865 100
-0.94398934 1.204044 0.027155945 44
-0.93641537 1.2018435 0.081120729 22
-0.95001072 1.2057934 0.1366602 91
-0.93287355 1.2064334 0.026981421 63
-0.92340285 1.2036461 0.080492698 26
-0.95421427 1.2127143 0.13718314 84
-0.92750829 1.2104644 0.026911611 74
-0.91039604 1.205363 0.079864666 31
-0.9450224 1.2156855 0.13648589 89
-0.92404753 1.2150412 0.026876707 78
-0.92607564 1.2156534 0.080806717 56
-0.9339208 1.2180221 0.13561434 99
-0.90718645 1.2155066 0.026597468 81
-0.91878098 1.2190514 0.080492698 100
-0.92282122 1.2202866 0.13474278 100
-0.90944296 1.221773 0.026667276 85
-0.92292839 1.2259475 0.080806717 88
-0.91743392 1.2242466 0.13439415 87
-0.90404075 1.2256687 0.026597468 85
-0.90798682 1.2269053 0.080074012 72
-0.92154294 1.2311536 0.1349171 56
-0.91006571 1.2331601 0.026737086 81
-0.89876801 1.2295762 0.079655327 72
-0.91992432 1.2362874 0.1349171 43
-0.91224796 1.2394764 0.026806897 83
-0.90095824 1.2358518 0.079864666 85
-0.90500861 1.2371521 0.13369691 45
-0.88397473 1.2359266 0.02631823 89
-0.90312225 1.242148 0.080074012 100
-0.90905362 1.2440753 0.13421984 57
-0.88613898 1.2421784 0.026388038 99
-0.90526003 1.2484651 0.080283359 100
-0.91306812 1.2510324 0.13474278 71
-0.88448197 1.2471886 0.026388038 100
-0.89031488 1.2491291 0.079550654 100
-0.90759903 1.2548786 0.13439415 82
-0.88659805 1.2534686 0.026457848 93
-0.88106197 1.2516055 0.079131968 100
-0.90967423 1.2612346 0.13474278 77
-0.88111562 1.2571915 0.026388038 93
-0.88126284 1.2572416 0.079236634 100
-0.89852017 1.2631165 0.13387123 85
-0.87201411 1.2590835 0.02624842 93
-0.88727969 1.264334 0.079655327 100
-0.8781231 1.2611847 0.1321281 100
-0.87029821 1.2640443 0.02624842 81
-0.88365895 1.2686918 0.079550654 100
-0.90274507 1.2753308 0.13456847 78
-0.86479229 1.2676719 0.02617861 79
-0.86306864 1.2670656 0.078503937 70
-0.90473121 1.281721 0.1349171 42
-0.86116236 1.2719374 0.026143705 83
-0.84438902 1.2659712 0.077561885 29
-0.88979584 1.282122 0.13369691 31
-0.86128348 1.2775369 0.02617861 99
-0.85016686 1.2735391 0.077980578 21
-0.88237494 1.2851219 0.13317397 31
-0.85198587 1.279727 0.026038991 96
-0.85966295 1.2825181 0.07860861 65
-0.86746079 1.2853532 0.13195379 18
-0.84260088 1.2821014 0.025899371 100
-0.86152416 1.2890601 0.078817949 100
-0.86556238 1.290545 0.13195379 13
-0.84080487 1.2869594 0.025899371 100
-0.8409825 1.2870255 0.077771232 100
-0.88614744 1.3038131 0.13404553 3
-0.84282702 1.2929745 0.025969181 100
-0.8205623 1.2846146 0.076724514 51
-0.87131268 1.3036702 0.13282534 1
-0.84473234 1.299252 0.026038991 96
-0.83556372 1.2957729 0.077666558 51
-0.83591098 1.2959046 0.12968774 5
-0.83354074 1.3005375 0.025864467 72
-0.84304422 1.3041817 0.078189917 57
-0.85453016 1.3085861 0.13160518 33
-0.82058531 1.3007896 0.025655037 75
-0.84126514 1.3087983 0.078189917 72
-0.84530467 1.3103627 0.13090792 86
-0.82617301 1.3084853 0.025794657 88
-0.82263643 1.3071015 0.077247873 65
-0.85639781 1.320312 0.1321281 100
-0.82251996 1.3123109 0.025759751 96
-0.81899029 1.3109163 0.0771432 76
-0.83603531 1.3176512 0.130385 97
-0.82423729 1.3188212 0.025829561 100
-0.82256299 1.3181525 0.077457212 97
-0.82661754 1.3197718 0.12968774 97
-0.8149913 1.320384 0.025689943 100
-0.82629472 1.3249419 0.077771232 95
-0.82478696 1.3243338 0.12968774 100
-0.80185372 1.3208557 0.025480513 100
-0.81870276 1.3277214 0.077457212 97
-0.82274598 1.3293689 0.12968774 100
-0.7754367 1.3100913 0.17573559 15
-0.81111568 1.3299 0.025689943 100
-0.7965278 1.3238993 0.076305822 100
-0.82088345 1.3339181 0.12968774 100
-0.78098172 1.3175044 0.17671055 18
-0.80905443 1.334885 0.025689943 100
-0.79080003 1.3272977 0.076096483 100
-0.81512779 1.3374094 0.12933913 100
-0.78629833 1.3254266 0.1776855 24
-0.80717367 1.3393887 0.025689943 100
-0.79999501 1.3363769 0.076724514 100
-0.80956417 1.3403916 0.1289905 100
-0.79360169 1.3336947 0.17890419 21
-0.79034859 1.3381162 0.025410704 99
-0.79055446 1.3382034 0.076305822 92
-0.79462355 1.3399282 0.12777032 100
-0.77324969 1.3308687 0.17646681 18
-0.80316561 1.3488495 0.025689943 64
-0.82171625 1.3567851 0.078189917 40
-0.80188543 1.3483019 0.12864187 58
-0.77138251 1.3352536 0.17646681 13
-0.80837744 1.3569782 0.025829561 68
-0.81038934 1.3578475 0.077666558 68
-0.82170397 1.3627367 0.13073361 28
-0.78205758 1.3456049 0.17817298 5
-0.80642349 1.3614795 0.025829561 100
-0.80477089 1.3607588 0.077457212 100
-0.82338351 1.368875 0.13108224 93
-0.79469842 1.3563666 0.18012288 21
-0.8005864 1.364835 0.025759751 100
-0.8062523 1.3673304 0.077666558 100
-0.82300264 1.3747077 0.13125655 100
-0.79254025 1.3612913 0.18012288 35
-0.78946954 1.3652501 0.025585229 100
-0.81521493 1.3766911 0.07829459 100
-0.79914135 1.3695482 0.12916481 100
-0.77061766 1.3568726 0.17744176 30
-0.78545445 1.3693367 0.025550323 100
-0.81480426 1.3825085 0.078399263 100
-0.80057031 1.3761206 0.12951343 100
-0.75940245 1.3576449 0.17622307 20
-0.7962113 1.3795357 0.025794657 100
-0.80184895 1.3820882 0.077771232 100
-0.81307298 1.3871703 0.13090792 100
-0.77733856 1.3709905 0.17890419 19
-0.80316931 1.388387 0.025969181 100
-0.7978875 1.3859732 0.077666558 100
-0.80728608 1.3902683 0.1305593 100
-0.77162164 1.3739699 0.17841671 14
-0.8029272 1.393708 0.026004085 100
-0.80853409 1.3962928 0.078399263 100
-0.80160302 1.3930975 0.13021068 100
-0.77321702 1.3800113 0.17890419 10
-0.78794163 1.3927556 0.025759751 100
-0.80260807 1.3995821 0.078189917 100
-0.80292279 1.3997288 0.1305593 100
-0.78177053 1.3898833 0.18036664 10
-0.78586918 1.3971889 0.025759751 100
-0.81678408 1.4117035 0.079131968 100
-0.80082709 1.4042118 0.1305593 100
-0.77252001 1.3909216 0.17939167 5
-0.79621035 1.4080763 0.026004085 100
-0.80178934 1.4107206 0.078399263 100
-0.81289667 1.4159852 0.13195379 100
-0.76485389 1.393214 0.17866045 3
-0.80130357 1.4159868 0.026143705 100
-0.79965729 1.4151998 0.078399263 100
-0.81074697 1.4205012 0.13195379 100
-0.80072778 1.4218044 0.02617861 100
-0.80447847 1.4236143 0.078817949 100
-0.80117601 1.4220207 0.13125655 100
-0.79496282 1.4245299 0.0261088 100
-0.80230361 1.4281023 0.078817949 100
-0.7990064 1.4264977 0.13125655 100
-0.78189975 1.4239328 0.025899371 100
-0.8035838 1.4345791 0.079027295 100
-0.80743736 1.4364712 0.13230242 100
-0.78689224 1.431895 0.026038991 100
-0.79600281 1.4364057 0.078713275 100
-0.8123619 1.444505 0.13299966 100
-0.80222756 1.4459648 0.026388038 100
-0.79879361 1.4442482 0.079027295 100
-0.81332618 1.4515128 0.13334829 100
-0.79640716 1.4486451 0.02631823 100
-0.79476672 1.4478183 0.078922622 100
-0.80394214 1.452443 0.13265105 100
-0.78689986 1.4497156 0.02617861 100
-0.80307466 1.4579394 0.079550654 100
-0.79799968 1.455359 0.13230242 100
-0.78819758 1.4559696 0.02624842 100
-0.81145006 1.467889 0.080178685 100
-0.80635756 1.4652786 0.13334829 100
-0.79277903 1.4645445 0.026388038 99
-0.80356103 1.4701215 0.079864666 100
-0.81264848 1.4748219 0.13421984 100
-0.79046839 1.4689935 0.026388038 100
-0.78883523 1.4681419 0.079131968 100
-0.81030375 1.4793367 0.13421984 100
-0.79143685 1.475764 0.026457848 96
-0.79333764 1.4767642 0.079550654 100
-0.80945796 1.4852455 0.13439415 100
-0.79615551 1.4839563 0.026597468 45
-0.78392869 1.4774716 0.079131968 48
-0.79123729 1.4813479 0.13282534 90
0.13042167 1.2922235 0.011693113 11
0.1371876 1.2838023 0.03454173 27
0.098261416 1.3322513 0.063100755 19
0.13191953 1.290359 0.12975012 16
0.1972588 1.2090353 0.13002171 8
0.12045711 1.3046256 0.18376152 6
0.14712328 1.2748556 0.011274255 37
0.15633455 1.2633127 0.033076324 58
0.1610226 1.2574379 0.054559495 50
0.1463508 1.2758236 0.07945881 14
0.15325487 1.267172 0.10074379 11
0.14344391 1.2794664 0.12669717 64
0.20357871 1.2041099 0.12822211 16
0.15235683 1.2682973 0.17082056 14
0.15402991 1.2701277 0.011134636 100
0.18178734 1.2350688 0.031087559 94
0.15423983 1.2698624 0.055779677 98
0.15938598 1.2633626 0.077265166 29
0.17478585 1.243912 0.095737889 38
0.15880844 1.2640922 0.12249938 100
0.18589363 1.2298824 0.13542053 38
0.14827722 1.2773936 0.17340876 42
0.16310704 1.2620065 0.010925206 100
0.16481298 1.2598372 0.032657638 100
0.15836275 1.2680398 0.055431053 100
0.16347829 1.2615345 0.076777689 29
0.17880154 1.242048 0.095112152 25
0.17743883 1.243781 0.11715672 100
0.18742064 1.2310872 0.13542053 38
0.16429174 1.2605 0.16719711 45
0.17212588 1.2538309 0.010715778 100
0.17504498 1.2500932 0.031924933 91
0.15756375 1.2724762 0.055779677 98
0.17244163 1.2534266 0.075315252 30
0.18523252 1.2370491 0.093860678 26
0.18022043 1.2434666 0.1167751 100
0.17935568 1.2445738 0.13901976 36
0.15284032 1.2785242 0.17289113 35
0.17740929 1.2503411 0.010611063 94
0.18153563 1.2450213 0.031506244 62
0.15923217 1.2737749 0.055779677 73
0.18013018 1.2468333 0.07409656 30
0.17225465 1.2569864 0.097615108 37
0.19021556 1.2338313 0.11410378 61
0.18570906 1.2396411 0.13722014 30
0.14387241 1.2935765 0.17754987 40
0.17315865 1.259692 0.010785587 65
0.16509131 1.2701752 0.033076324 29
0.16845998 1.2657977 0.054733805 50
0.18801704 1.240384 0.072877869 47
0.1789462 1.2521713 0.096363634 37
0.17164463 1.2616594 0.12059128 12
0.18751502 1.2410364 0.13722014 22
0.1458858 1.2951322 0.17754987 54
0.16992745 1.2672942 0.010925206 52
0.17888016 1.2555802 0.032029606 30
0.16889635 1.2686433 0.054908119 50
0.17752466 1.2573538 0.075315252 60
0.1925424 1.2377043 0.093234941 53
0.18043008 1.2535522 0.11830158 19
0.19854581 1.2298493 0.13362093 31
0.17109126 1.2657714 0.16719711 60
0.18133551 1.2558736 0.010645968 66
0.16850477 1.2727835 0.033076324 29
0.1730479 1.2667961 0.054559495 50
0.1780282 1.2602324 0.07555899 75
0.18701297 1.2483912 0.095112152 51
0.20110759 1.2298154 0.11219569 14
0.20486486 1.2248635 0.13182132 39
0.17866275 1.2593961 0.16460891 69
0.18535566 1.2538993 0.010576159 40
0.18219396 1.258095 0.032029606 30
0.17589647 1.2664522 0.054385185 51
0.1916025 1.2456095 0.073121607 62
0.19097897 1.246437 0.094486415 52
0.20381582 1.2294019 0.11181407 14
0.20637515 1.2260056 0.13182132 39
0.18028769 1.2606248 0.16460891 69
0.18482175 1.2584993 0.010645968 66
0.17450404 1.2723012 0.032866981 29
0.17064786 1.2774596 0.055431053 49
0.20056272 1.2374425 0.071659178 64
0.18926278 1.2525585 0.095425025 51
0.19970492 1.23859 0.11372216 13
0.20579502 1.2304432 0.13272113 39
0.17754754 1.26823 0.16667947 67
0.18525171 1.2613131 0.010680873 93
0.19522038 1.2478853 0.03119223 31
0.17352039 1.2771151 0.055256739 49
0.19501504 1.248162 0.073121607 62
0.20146242 1.2394774 0.092609204 53
0.20009047 1.2413254 0.11410378 13
0.21661672 1.2190647 0.1291219 32
0.18150488 1.26636 0.16564418 68
0.18696892 1.2625833 0.010680873 80
0.19333589 1.2539443 0.031506244 62
0.17883897 1.2736146 0.054733805 75
0.19433087 1.2525942 0.073609084 77
0.21833864 1.220019 0.08854191 84
0.20872638 1.2330614 0.11181407 14
0.21703014 1.2217944 0.12957181 32
0.185532 1.264533 0.16460891 69
0.19332853 1.2573297 0.010541254 81
0.21381614 1.229337 0.029831495 66
0.19580835 1.2539415 0.052467756 80
0.19358835 1.2569747 0.07409656 92
0.20699942 1.2386508 0.091983467 93
0.21142334 1.2326064 0.11143246 14
0.22428486 1.2150333 0.1273223 16
0.18945584 1.2626212 0.16357364 69
0.20208415 1.2488651 0.010331824 98
0.20485595 1.2450501 0.030773543 64
0.19515759 1.2583987 0.05281638 100
0.197624 1.2550039 0.073609084 77
0.20283192 1.2478359 0.093547814 100
0.20957828 1.2385503 0.1125773 13
0.2372947 1.2004019 0.12282328 8
0.19004211 1.2654395 0.16409127 69
0.19431385 1.2629896 0.010611063 81
0.20643315 1.246192 0.030773543 64
0.18279019 1.2789617 0.054908119 100
0.20620313 1.2465107 0.072146654 79
0.21250895 1.2377708 0.09135773 94
0.20883653 1.2428608 0.11334054 13
0.24328449 1.1951151 0.12102367 8
0.19281733 1.2650638 0.16357364 69
0.20310757 1.2545342 0.010401634 97
0.20236754 1.2555679 0.031296901 94
0.18697771 1.2770641 0.054559495 100
0.2021741 1.255838 0.073365346 100
0.21422568 1.2390046 0.09135773 94
0.21285766 1.2409154 0.1125773 13
0.24030706 1.2025745 0.12282328 17
0.19350967 1.2679404 0.16409127 69
0.1978507 1.2655222 0.010611063 94
0.21679133 1.2388701 0.030145511 65
0.18874991 1.2783282 0.054559495 100
0.20502204 1.2554312 0.073121607 78
0.21929774 1.2353432 0.090419121 100
0.20767984 1.2516912 0.11486702 20
0.23843232 1.2084184 0.12417299 16
0.20420265 1.2565842 0.15995017 72
0.20197406 1.2635411 0.010541254 95
0.21621007 1.2433528 0.030354854 97
0.20439377 1.2601097 0.052467756 100
0.21252349 1.2485807 0.071902916 48
0.22328231 1.2333236 0.089793384 100
0.20605344 1.257756 0.11601187 53
0.23330307 1.2191129 0.12687239 33
0.2071017 1.2562695 0.15943253 73
0.2105791 1.2549233 0.010331824 98
0.21786442 1.2445151 0.030354854 97
0.19696668 1.2743711 0.053862248 100
0.21533442 1.2481296 0.071659178 64
0.22150335 1.2393161 0.090731993 100
0.21113551 1.2541285 0.11486702 100
0.22369796 1.2361808 0.13137141 55
0.20547783 1.2622114 0.16098544 72
0.21218905 1.2560463 0.010331824 98
0.2217195 1.2423337 0.030145511 65
0.19864115 1.2755392 0.053862248 100
0.2237193 1.2394564 0.07019674 66
0.22531623 1.2371588 0.090106249 96
0.22058597 1.2439647 0.11219569 84
0.22635785 1.2356601 0.13092151 96
0.20270181 1.2696966 0.163056 70
0.21388772 1.2572225 0.010331824 98
0.23017505 1.2336127 0.029517479 100
0.20040795 1.2767625 0.053862248 100
0.21070611 1.2618345 0.073365346 93
0.22582719 1.2399153 0.090419121 100
0.22001278 1.2483437 0.11295892 89
0.22909185 1.2351829 0.13047162 96
0.20444819 1.2709059 0.163056 70
0.21107143 1.2649927 0.010471444 96
0.225025 1.244614 0.030145511 65
0.20443028 1.2746918 0.053513627 100
0.22476164 1.2449987 0.070684217 65
0.23416561 1.2312645 0.08854191 100
0.2139203 1.2608321 0.11563025 100
0.23291954 1.2330843 0.12957181 96
0.21493027 1.259357 0.15891489 73
0.22179332 1.2529415 0.010192205 85
0.2278063 1.2440937 0.03004084 66
0.21851289 1.2577685 0.051596198 82
0.21749538 1.2592657 0.072634131 63
0.23244667 1.2372656 0.089480512 97
0.22887784 1.2425169 0.11105084 84
0.23125187 1.2390237 0.13092151 96
0.2188122 1.257328 0.15787962 81
0.22236288 1.2557421 0.01022711 42
0.21717778 1.2634292 0.03119223 31
0.21019036 1.2737885 0.053165004 52
0.22808564 1.2472577 0.070684217 81
0.23187041 1.2416465 0.090106249 96
0.23272485 1.2403798 0.1102876 85
0.23289102 1.2401334 0.13092151 96
0.21403363 1.2680906 0.16098544 72
0.21293622 1.2734998 0.010576159 40
0.22556859 1.2546299 0.030564198 32
0.20973426 1.2782829 0.053513627 52
0.22754496 1.2516776 0.071171694 65
0.23351872 1.2427541 0.090106249 100
0.23218441 1.2447473 0.11105084 91
0.23670217 1.2379987 0.13002171 100
0.21469966 1.2708657 0.16150309 70
0.22337723 1.2612346 0.010296919 42
0.21603423 1.2722784 0.031610917 30
0.21022961 1.2810085 0.053687938 52
0.22905979 1.2526882 0.071171694 81
0.23281801 1.247036 0.090731993 95
0.22824237 1.2539177 0.11295892 100
0.24572685 1.2276213 0.12687239 99
0.21413556 1.275134 0.16253836 70
0.22068843 1.269048 0.010436539 27
0.23098996 1.2534368 0.030354854 32
0.22189161 1.2672248 0.052119136 54
0.22855997 1.2571193 0.071659178 64
0.24536493 1.2316526 0.087603301 100
0.23209611 1.2517605 0.11219569 91
0.24303284 1.2351867 0.128672 89
0.22760499 1.2585666 0.15684435 74
0.22900572 1.2601571 0.01022711 28
0.21079525 1.2879646 0.032448292 29
0.22472078 1.2667003 0.051944822 54
0.23352492 1.2532563 0.070927955 97
0.24048495 1.2426285 0.089480512 97
0.23915762 1.2446553 0.1102876 85
0.24465853 1.2362554 0.128672 89
0.2314291 1.2564566 0.15580906 83
0.22635984 1.2679815 0.010366729 41
0.21913555 1.2790973 0.03182026 30
0.22971371 1.262821 0.051421888 55
0.23845893 1.2493647 0.07019674 66
0.24321306 1.2420497 0.089167647 84
0.24937508 1.2325683 0.10723466 88
0.24310213 1.2422203 0.13002171 96
0.2299709 1.2624252 0.15736198 74
0.23685557 1.2557188 0.010087491 43
0.25347045 1.2299474 0.028680105 69
0.23152214 1.2639916 0.051421888 55
0.24774742 1.2388245 0.068490572 50
0.24494526 1.243171 0.089167647 84
0.24894488 1.2369671 0.10799789 79
0.25011465 1.2351527 0.1277722 89
0.22759077 1.2700895 0.15943253 73
0.23855296 1.256809 0.010087491 57
0.24754328 1.2427566 0.029412808 67
0.23002723 1.2701352 0.051944822 54
0.24403676 1.2482375 0.069709264 83
0.24872792 1.2409049 0.08854191 56
0.23682231 1.2595141 0.11295892 89
0.25804141 1.2263474 0.12507279 92
0.22933835 1.2712119 0.15943253 73
0.23802483 1.2612151 0.0101573 71
0.2480419 1.2454429 0.029517479 67
0.23809648 1.2611023 0.050898954 55
0.24668857 1.2475737 0.069465525 49
0.25876349 1.2285614 0.086038955 72
0.24792022 1.2456346 0.10952436 85
0.25955632 1.227313 0.12507279 92
0.2320379 1.2706418 0.15891489 65
0.24400613 1.2555342 0.010017681 72
0.24757355 1.2498734 0.029726824 100
0.23662579 1.2672448 0.051421888 82
0.23883191 1.2637442 0.071659178 80
0.25825951 1.2329175 0.086664692 57
0.24958232 1.2466861 0.10952436 85
0.25595936 1.2365674 0.1273223 97
0.23790744 1.2652111 0.15684435 66
0.24472776 1.258348 0.010052586 86
0.25356916 1.2442043 0.029308135 100
0.23845038 1.2683899 0.051421888 82
0.25011376 1.249732 0.069465525 49
0.257864 1.2373338 0.087290429 57
0.26173806 1.2311364 0.10570818 81
0.25870433 1.2359896 0.12687239 82
0.23562855 1.2729042 0.15891489 65
0.24854237 1.256012 0.0099827768 87
0.25627899 1.2435389 0.029203463 100
0.23809162 1.2728608 0.051770512 81
0.25806826 1.2406542 0.068003096 68
0.25741461 1.241708 0.087916173 70
0.25403592 1.2471552 0.10914274 85
0.26546866 1.2287233 0.12462288 92
0.24349564 1.2641484 0.15580906 67
0.25024071 1.2570612 0.0099827768 87
0.26316792 1.2360566 0.028680105 100
0.24507022 1.2654625 0.050898954 83
0.25971293 1.2416704 0.068003096 51
0.2611337 1.2393619 0.087290429 71
0.25055826 1.2565453 0.11105084 84
0.27013585 1.2247348 0.12327318 85
0.2350969 1.2816676 0.16098544 64
0.25298485 1.256398 0.0099478718 73
0.2647965 1.2370551 0.028680105 100
0.24057147 1.2767265 0.051944822 81
0.25101566 1.2596228 0.070440479 49
0.26792124 1.2319379 0.08572609 58
0.26146695 1.2425076 0.10761628 72
0.26867807 1.2306985 0.12462288 83
0.24493927 1.2695736 0.15684435 66
0.25969833 1.2487791 0.0097733475 89
0.26419413 1.2413644 0.028889447 100
0.25456095 1.2572519 0.049853086 85
0.25461379 1.2571647 0.069953002 49
0.2663013 1.2378892 0.086664692 57
0.25786331 1.2518055 0.10952436 85
0.27012679 1.23158 0.12462288 83
0.24951509 1.2655737 0.15529142 75
0.25621727 1.2583572 0.0099478718 73
0.25760478 1.2560507 0.029726824 100
0.25934473 1.2531583 0.049330149 87
0.26245582 1.2479868 0.068490572 50
0.26589972 1.242262 0.087290429 71
0.2656191 1.2427285 0.10723466 81
0.2697306 1.2358938 0.12552269 90
0.24925512 1.2699305 0.1563267 57
0.26099825 1.2542284 0.0098431576 88
0.26749182 1.2433481 0.028889447 100
0.25694871 1.2610134 0.050027397 85
0.26616076 1.2455784 0.068003096 51
0.26957467 1.2398584 0.086664692 57
0.26123405 1.2538333 0.10952436 78
0.27735087 1.2268292 0.12282328 85
0.24803185 1.2759538 0.15787962 65
0.26269028 1.2552342 0.0098431576 88
0.27321619 1.237457 0.02847076 100
0.25257379 1.2723198 0.051073264 83
0.26579979 1.2499826 0.068490572 50
0.27725512 1.2306358 0.084787481 73
0.25992391 1.2599063 0.11066922 78
0.28291863 1.2210708 0.12102367 77
0.24979979 1.2770047 0.15787962 65
0.26236019 1.2596827 0.0099129668 87
0.26473379 1.2556417 0.029517479 100
0.25937462 1.2647653 0.050201707 85
0.2694878 1.2475483 0.068003096 51
0.27486271 1.2383981 0.086038955 72
0.2606414 1.2626086 0.11105084 84
0.27659872 1.2354426 0.12462288 92
0.26438582 1.2562342 -0.0098431576 87
0.26526976 1.2547293 0.15063268 70
0.27313235 1.2451339 0.0095988233 76
0.26844186 1.2531832 0.029308135 100
0.25909722 1.2692196 0.05055033 84
0.26915759 1.2519549 0.068490572 50
0.27848849 1.2359421 0.085413218 58
0.26631647 1.2568306 0.10952436 85
0.28214964 1.2296592 0.12282328 76
0.26205766 1.2641392 -0.0099827768 86
0.26501825 1.2590585 0.15166797 69
0.27679408 1.2426349 0.0095290141 76
0.27412835 1.2472465 0.028889447 100
0.26283577 1.2667822 0.050201707 85
0.27481544 1.2460579 0.067515619 51
0.28110519 1.2351768 0.085100345 58
0.27587768 1.2442201 0.10647142 88
0.28083003 1.2356528 0.12417299 83
0.2589927 1.2734305 0.15580906 67
0.27844554 1.2435856 0.0095290141 76
0.27380893 1.2516718 0.029098792 100
0.25862521 1.278152 0.051247578 82
0.28042862 1.2401272 0.066540658 52
0.27781755 1.2446809 0.086664692 71
0.27167523 1.2553929 0.10876112 79
0.2892426 1.2247558 0.12102367 77
0.26075178 1.2744431 0.15580906 67
0.26625931 1.2688656 0.010017681 87
0.27944171 1.2456886 0.028680105 100
0.26926604 1.2635792 0.049678773 86
0.28010845 1.2445164 0.067028143 51
0.28826573 1.2301744 0.083848871 59
0.27434188 1.254655 0.10837951 79
0.29564884 1.2171936 0.11877415 78
0.26724797 1.2671274 -0.0099827768 86
0.25869396 1.2821667 0.15787962 65
0.26898497 1.2681113 0.0099827768 87
0.28502932 1.2396721 0.028261416 100
0.26609576 1.2732326 0.05055033 84
0.2778649 1.2523713 0.068003096 51
0.2879324 1.2345262 0.084474608 59
0.27024734 1.2658737 0.11066922 92
0.29433879 1.2231705 0.12012386 86
0.26898497 1.2681113 -0.0099827768 86
0.27567127 1.2562596 0.14959741 70
0.28341973 1.2464033 0.0095290141 76
0.27886805 1.2545376 0.029098792 100
0.27174577 1.2672658 0.049853086 85
0.26694876 1.2758385 0.071171694 81
0.28859088 1.237162 0.084787481 59
0.28540161 1.2428615 0.10532656 67
0.2949706 1.2257608 0.12057377 77
0.27267841 1.265599 -0.0099129668 87
0.27548361 1.2605859 0.15063268 78
0.28120276 1.2543248 0.0096686333 75
0.27862263 1.2589737 0.029308135 100
0.27154955 1.2717181 0.050201707 85
0.27931249 1.2577307 0.068490572 50
0.29118177 1.2363445 0.084474608 59
0.28800654 1.2420657 0.10494494 82
0.29372609 1.23176 0.12192347 76
0.27907267 1.2581629 0.14959741 70
0.27912381 1.2623148 0.0098082526 74
0.28811902 1.2459661 0.02847076 100
0.27915302 1.2622617 0.049155839 87
0.28492966 1.2517627 0.067515619 51
0.28908375 1.2442127 0.08572609 58
0.2868993 1.248183 0.1060898 81
0.27430394 1.2710748 -0.0099827768 86
0.27061975 1.2777708 0.15529142 75
0.28275967 1.2597466 0.0097384425 75
0.28978205 1.2468773 0.02847076 100
0.27228382 1.2789447 0.05072464 84
0.29231808 1.2422298 0.066053182 52
0.29641786 1.2347165 0.083848871 59
0.28480849 1.2559919 0.10761628 79
0.27988613 1.2650127 -0.0098431576 87
0.27239391 1.278743 0.15529142 75
0.28429958 1.2605838 0.0097384425 75
0.29508618 1.2406676 0.028052073 100
0.28242376 1.2640471 0.049155839 87
0.28623989 1.2570012 0.068003096 51
0.2969383 1.2372478 0.084161744 59
0.28446662 1.2602754 0.10837951 79
0.28334725 1.2623421 -0.0097733475 88
0.28319377 1.2626255 0.15011504 78
0.28979841 1.2544615 0.0095988233 91
0.29484057 1.2450736 0.028261416 100
0.28697813 1.2597125 0.048632905 88
0.27948794 1.2736583 0.07019674 66
0.29670149 1.2416089 0.084787481 59
0.29361117 1.2473626 0.10532656 75
0.27939034 1.27384 -0.0099827768 86
0.28400087 1.2652557 0.15063268 78
0.29345524 1.2518817 0.0095290141 76
0.29095206 1.2565836 0.028889447 100
0.28783849 1.2624319 0.048807215 58
0.29532868 1.2483627 0.066540658 52
0.29564682 1.2477651 0.08572609 58
0.29813033 1.2431002 0.10418171 75
0.29907659 1.2413228 0.12327318 76
0.28311825 1.2712982 -0.0099129668 87
0.29217276 1.2542906 0.14700922 81
0.29140463 1.2598479 0.0096686333 90
0.2963818 1.2504199 0.02847076 100
0.28490826 1.2721537 0.049678773 86
0.29143959 1.2597816 0.068003096 51
0.29916051 1.2451563 0.085100345 58
0.29978329 1.2439766 0.10418171 67
0.28214034 1.2773969 0.15373851 68
0.29589826 1.2554326 0.0095639192 91
0.29220667 1.2624849 0.048632905 88
0.29499206 1.2571638 0.067515619 51
0.29597643 1.2552832 0.10647142 73
0.28847921 1.2696059 -0.0098431576 97
0.28212127 1.2817519 0.15477379 67
0.29483071 1.2616413 0.0096686333 75
0.29852304 1.2545271 0.067028143 51
0.29767191 1.2561669 0.10647142 73
0.29022476 1.2705157 -0.0098431576 97
0.29280862 1.2655373 0.14959741 70
0.29738876 1.2606854 0.048284281 59
0.29286227 1.2694778 0.068978049 50
0.28914008 1.2767081 -0.0099478718 100
0.29485798 1.2698814 0.029412808 100
0.29638582 1.266888 0.048807215 58
0.29189998 1.2756767 0.069709264 99
0.2900013 1.2793968 -0.0099827768 100
0.29355282 1.2724385 0.15115032 77
0.29812181 1.2677703 0.048807215 58
0.29994059 1.2641759 0.068003096 68
0.29535714 1.2776246 -0.0099129668 100
0.2936019 1.2811236 0.15322088 76
0.29906535 1.2748407 0.069221787 83
0.29899612 1.2794337 -0.0099129668 100
0.2980991 1.2855597 0.050201707 28
0.29980898 1.28206 -0.0099478718 100
