# .PCD v0.7 - Point Cloud Data file format
VERSION 0.7
FIELDS x y z intensity
SIZE 4 4 4 4
TYPE F F F F
COUNT 1 1 1 1
WIDTH 851
HEIGHT 1
VIEWPOINT 0 0 0 1 0 0 0
POINTS 851
DATA ascii
0.07591407 0.72593027 0.012740256 2
0.07930728 0.73361331 0.012879875 1
0.076764725 0.68762296 0.012077065 6
0.079164512 0.68735081 0.012077065 12
0.082620338 0.6970135 0.012251589 16
0.086985871 0.69245148 0.012181779 25
0.09017095 0.6980933 0.012286494 30
0.091817938 0.69182736 0.012181779 29
0.094772317 0.69546539 0.012251589 28
0.095814764 0.68522817 0.012077065 34
0.098206073 0.68488955 0.012077065 23
0.10059618 0.6845426 0.012077065 23
0.10387801 0.6901195 0.012181779 25
0.10506815 0.68184727 0.01204216 27
0.10620183 0.67357516 0.011902541 25
0.11022329 0.68508404 0.01211197 36
0.11228947 0.68272191 0.012077065 34
0.11434051 0.68035376 0.01204216 25
0.11908282 0.69374657 0.012286494 20
0.1157508 0.65982199 0.011693113 19
0.1187581 0.6633507 0.011762922 21
0.12358777 0.6767022 0.012007256 21
0.12411849 0.66643721 0.011832732 19
0.12868199 0.67778754 0.01204216 19
0.12800835 0.66162789 0.011762922 19
0.1282699 0.65138972 0.011588397 22
0.1325089 0.66074127 0.011762922 19
0.13372859 0.65437353 0.011658208 19
0.13641919 0.65586054 0.011693113 21
0.13847896 0.65542877 0.011693113 19
0.1399256 0.65103126 0.011623302 22
0.14134324 0.64663172 0.011553493 20
0.14533488 0.6539427 0.011693113 21
0.14849797 0.65733248 0.011762922 19
0.14676452 0.63926917 0.011448778 24
0.14717807 0.63096333 0.011309159 24
0.15122384 0.63822901 0.011448778 22
0.15625778 0.64936244 0.011658208 21
0.15852353 0.64881307 0.011658208 23
0.15704657 0.63270128 0.011378969 24
0.16023117 0.63602746 0.011448778 27
0.16569072 0.64908385 0.011693113 25
0.16795543 0.64850152 0.011693113 27
0.16840909 0.64011633 0.011553493 27
0.17115803 0.64145666 0.011588397 33
0.175372 0.64860708 0.011728018 46
0.1797497 0.65570509 0.011867637 53
0.18043123 0.6492936 0.011762922 51
0.18269658 0.64865983 0.011762922 53
0.18210408 0.63843542 0.011588397 56
0.18433152 0.63779587 0.011588397 56
0.18756869 0.64101958 0.011658208 53
0.19321479 0.65186441 0.011867637 53
0.19318917 0.643525 0.011728018 53
0.19194442 0.63136727 0.011518588 56
0.19591211 0.63642699 0.011623302 58
0.19991744 0.64146668 0.011728018 57
0.20456196 0.64839303 0.011867637 57
0.20560743 0.64386523 0.011797827 63
0.20231912 0.62601846 0.011483683 65
0.20439395 0.6253441 0.011483683 63
0.2103429 0.63601816 0.011693113 59
0.21245086 0.63531715 0.011693113 55
0.21606025 0.63832247 0.011762922 59
0.21558619 0.63003451 0.011623302 63
0.21396792 0.61790246 0.011413874 63
0.21667637 0.61907697 0.011448778 60
0.22406295 0.63343686 0.011728018 57
0.22279675 0.62327534 0.011553493 65
0.22382766 0.61865443 0.011483683 63
0.22587796 0.61790878 0.011483683 63
0.22398056 0.6058231 0.011274255 45
0.22738762 0.6088236 0.011344064 33
0.22809905 0.60428447 0.011274255 31
0.2286769 0.59978777 0.011204445 33
0.2265583 0.58775032 0.010995016 35
0.23213318 0.59631318 0.01116954 33
0.23714095 0.602943 0.011309159 33
0.24135333 0.60772878 0.011413874 38
0.235283 0.58646762 0.011029921 38
0.24022937 0.59309787 0.01116954 42
0.24705189 0.60327429 0.011378969 49
0.25745463 0.62277985 0.011762922 59
0.25423414 0.60896003 0.011518588 47
0.24693385 0.58600038 0.011099731 38
0.24809311 0.58333814 0.011064826 31
0.25318107 0.58986253 0.011204445 33
0.25385255 0.58521694 0.011134636 29
0.25195366 0.5808394 0.033180997 66
0.25819737 0.58986759 0.01123935 38
0.25548017 0.58366001 0.033390339 22
0.25540537 0.57798827 0.011029921 38
0.26220647 0.58809644 0.01123935 33
0.26199871 0.58161557 0.011134636 15
0.2700173 0.58895397 0.011309159 6
-1.1921011 0.1675389 0.021012697 25
-1.1202278 0.16162688 0.019756123 4
-1.0524255 0.15540867 0.01856936 6
-1.0083513 0.15267882 0.017801454 4
-1.0177202 0.15755141 0.017975979 1
0.052330077 0.0024829507 0.047939736 54
0.042111874 0.0044078231 0.048149079 100
0.046101987 0.01614815 0.047521047 78
0.036779463 0.0079721808 0.048149079 35
0.033001125 0.0081156492 0.048253752 17
0.038366139 0.021376908 0.047521047 19
0.030092537 0.014942408 0.04804441 9
0.036567569 0.02989012 0.047207031 10
0.019783139 0.017254531 0.048253752 8
0.012535453 0.01259464 0.048672438 8
-0.12912571 0.57025123 0.012356304 21
-0.14902276 0.56704736 0.012705352 69
-0.14008075 0.57212251 0.012530828 82
-0.12152588 0.57997733 0.012181779 86
-0.12407821 0.58166713 0.012216684 75
-0.14789873 0.57776666 0.012635542 70
-0.13116556 0.5848037 0.012321399 52
-0.14149755 0.58471376 0.012495923 71
-0.12664205 0.59109712 0.012216684 75
-0.13116348 0.59257019 0.012286494 74
-0.13562167 0.5938347 0.012356304 73
-0.1381405 0.59561801 0.012391209 94
-0.12513471 0.60129446 0.012146875 87
-0.11995184 0.60532004 0.01204216 99
-0.10883349 0.61036789 0.011832732 91
-0.13661802 0.60617119 0.012321399 31
-0.13326424 0.60936427 0.012251589 31
-0.14556623 0.60928798 0.012461018 20
-0.14609534 0.61159545 0.012461018 10
-0.15640092 0.61184174 0.012635542 20
-0.19793081 0.60514617 0.013368543 8
-0.21022755 0.60521626 0.013577973 16
-0.22250408 0.6052354 0.013787401 8
-0.21728712 0.60956556 0.013682687 16
-0.26482403 0.60244417 0.014520402 13
-0.26145512 0.60593975 0.014450593 13
-0.26986849 0.60721552 0.014590212 13
-0.2743572 0.60931319 0.014660021 13
-0.27884126 0.61144024 0.014729831 13
-0.31083572 0.60843241 0.015288308 11
-0.33499432 0.60709411 0.015707165 33
-0.33358967 0.61053944 0.015672261 29
-1.0467341 1.1342347 0.028587041 2
-1.0292108 1.1302375 0.08488892 3
-1.0409005 1.1329039 0.14276111 6
-1.0357127 1.1375484 0.028412517 8
-1.0045955 1.1303359 0.083632857 13
-1.0182736 1.1335063 0.14084367 19
-0.99360782 1.1331871 0.027679516 20
-0.99950379 1.1345743 0.083423518 78
-1.0325751 1.1423554 0.14223817 71
-0.99038571 1.1381083 0.027644612 38
-0.99433666 1.1390524 0.083214171 100
-1.0254521 1.1464881 0.14171524 100
-0.99492127 1.1448977 0.027749326 45
-0.97945255 1.1411439 0.082481466 100
-1.0028303 1.1468168 0.13979781 86
-0.99166161 1.1498098 0.027714422 28
-0.98396546 1.1479137 0.082795486 100
-0.98989815 1.1493753 0.13875194 92
-0.97092682 1.1503377 0.027365373 26
-0.9845745 1.1537505 0.082900152 60
-0.99049729 1.1552316 0.13892625 87
-0.96958989 1.1556444 0.027365373 35
-0.97741801 1.1576309 0.082586139 42
-1.0007303 1.1635472 0.13997212 69
-0.97017103 1.161445 0.027400278 59
-0.97605556 1.1629603 0.082586139 48
-0.9916293 1.1669705 0.13927488 91
-0.97266489 1.1677599 0.027470088 57
-0.96694499 1.1662656 0.082167454 90
-0.98059565 1.1698315 0.13840333 91
-0.95580322 1.1689752 0.027190849 74
-0.96941382 1.1725814 0.082376793 96
-0.9676351 1.1721101 0.13735744 99
-0.95053893 1.1731912 0.027121039 83
-0.96607035 1.1773645 0.08227212 98
-0.96622223 1.1774052 0.13735744 100
-0.94719309 1.1779009 0.027086135 93
-0.94922298 1.1784539 0.081434749 100
-0.9686355 1.1837428 0.13770607 99
-0.94961518 1.1841894 0.027155945 93
-0.94201261 1.1820896 0.081120729 100
-0.97870499 1.1922239 0.13875194 92
-0.95586282 1.1915779 0.027295563 96
-0.94056505 1.1872952 0.081120729 92
-0.95227975 1.1905748 0.13648589 98
-0.93899196 1.1924652 0.027016325 81
-0.93909937 1.1924957 0.081120729 82
-0.94505233 1.1941847 0.13596296 100
-0.94918972 1.2004521 0.027225753 52
-0.9377647 1.1971717 0.081120729 50
-0.94754237 1.1999791 0.13631158 100
-0.94575793 1.2051241 0.027190849 42
-0.91516918 1.1962256 0.079969339 22
-0.9555977 1.2079866 0.13718314 85
-0.93655735 1.2080815 0.027051231 64
-0.91175658 1.2007729 0.079864666 29
-0.95597082 1.2138026 0.13735744 82
-0.92735451 1.2109801 0.026911611 75
-0.91789931 1.2081578 0.080283359 28
-0.93723017 1.2139279 0.13578865 94
-0.91049308 1.2115052 0.026632372 75
-0.92018455 1.2144349 0.080492698 62
-0.92232138 1.2150809 0.13456847 100
-0.91085511 1.2171859 0.026667276 81
-0.92244381 1.2207333 0.080702044 100
-0.92456907 1.2213838 0.1349171 99
-0.90538639 1.2213526 0.026597468 89
-0.90552086 1.2213942 0.079864666 95
-0.92480773 1.2273755 0.13509139 84
-0.90761775 1.227628 0.026667276 83
-0.90393633 1.2264721 0.079864666 80
-0.92130131 1.2319241 0.1349171 54
-0.91363448 1.2351358 0.026806897 79
-0.89852709 1.2303348 0.079655327 72
-0.90828711 1.2334363 0.13387123 43
-0.8967728 1.2353437 0.026527658 78
-0.9102208 1.2396691 0.080388032 78
-0.90855712 1.2391341 0.13404553 45
-0.88373059 1.2366774 0.02631823 93
-0.90857238 1.2447634 0.080388032 100
-0.91259438 1.2460725 0.13456847 57
-0.8858915 1.2429304 0.026388038 99
-0.89362723 1.2454782 0.079655327 100
-0.91281599 1.2517983 0.13474278 77
-0.8919881 1.2499652 0.026527658 99
-0.8845461 1.247488 0.079236634 100
-0.91507608 1.2576499 0.13509139 82
-0.88651365 1.2537193 0.026457848 96
-0.88476354 1.2531301 0.079341307 100
-0.89825922 1.2576745 0.13369691 73
-0.8733744 1.2551106 0.02624842 93
-0.88865453 1.2603184 0.079655327 100
-0.89457613 1.2623366 0.1335226 95
-0.86411029 1.2574694 0.0261088 93
-0.88315779 1.2640355 0.07944598 100
-0.88719791 1.2654282 0.13299966 100
-0.86626273 1.2634721 0.02617861 85
-0.86453718 1.2628708 0.078503937 100
-0.90812463 1.2780581 0.13509139 66
-0.86641759 1.2690773 0.026213514 75
-0.85527319 1.2651505 0.078085244 70
-0.90634221 1.2831447 0.13509139 36
-0.87211317 1.2769511 0.026353134 83
-0.85533017 1.2709684 0.078189917 27
-0.88756126 1.2824581 0.1335226 39
-0.85340387 1.2758099 0.026038991 93
-0.85920972 1.2779025 0.078503937 25
-0.87826627 1.2847707 0.13282534 30
-0.84796077 1.2790924 0.025969181 93
-0.86690122 1.28599 0.079027295 74
-0.87280709 1.2881407 0.13247673 16
-0.84992844 1.2853508 0.026038991 100
-0.85009712 1.2854128 0.078189917 100
-0.86912006 1.2924157 0.13230242 13
-0.84437269 1.2888396 0.025969181 100
-0.8351863 1.2854214 0.077457212 100
-0.88035899 1.3022299 0.1335226 1
-0.84629649 1.2951114 0.026038991 100
-0.83337873 1.2902534 0.077457212 46
-0.87103301 1.3044143 0.13282534 1
-0.84071654 1.2985613 0.025969181 85
-0.8390221 1.2979174 0.077875905 51
-0.83749789 1.2973381 0.12986206 7
-0.82579571 1.298394 0.025724847 72
-0.84276432 1.304911 0.078189917 57
-0.86354762 1.3128932 0.13247673 41
-0.83149344 1.305846 0.025864467 75
-0.82794815 1.3044708 0.077457212 72
-0.85059422 1.3132547 0.13143086 90
-0.82961458 1.310665 0.025864467 90
-0.82421464 1.3085488 0.077352546 61
-0.85796458 1.3217752 0.13230242 97
-0.82585961 1.3147414 0.025829561 100
-0.82232636 1.3133423 0.077352546 82
-0.83009523 1.3164184 0.12986206 95
-0.81280965 1.3150849 0.025620133 100
-0.82227582 1.3188711 0.077457212 91
-0.82262975 1.3190126 0.12933913 99
-0.8108986 1.3198388 0.025620133 100
-0.82775885 1.3266506 0.077875905 95
-0.83363611 1.3290253 0.1305593 100
-0.80897099 1.3245858 0.025620133 100
-0.81841058 1.328438 0.077457212 100
-0.83905512 1.3368628 0.13125655 100
-0.795371 1.3190358 0.17841671 22
-0.8070268 1.3293262 0.025620133 100
-0.79614073 1.3248391 0.076305822 100
-0.82785767 1.3379118 0.130385 100
-0.77876383 1.3176769 0.17646681 16
-0.80875844 1.3355966 0.025689943 100
-0.7997275 1.3318373 0.076619841 100
-0.81115168 1.3365928 0.1289905 100
-0.79700321 1.3307033 0.17914793 15
-0.79571515 1.3356866 0.025480513 100
-0.79407567 1.3349974 0.076410495 100
-0.79447192 1.335164 0.12759601 100
-0.78771788 1.3323247 0.17817298 19
-0.77900654 1.3341298 0.025201274 99
-0.79577225 1.3412464 0.076619841 85
-0.80166107 1.3437461 0.12846756 100
-0.76930124 1.3300102 0.17597933 16
-0.80286235 1.3495581 0.025689943 57
-0.80855757 1.3519979 0.077457212 40
-0.82172793 1.35764 0.1305593 46
-0.77838522 1.3390722 0.17744176 13
-0.81734937 1.3614216 0.026004085 83
-0.8028515 1.3551508 0.077247873 72
-0.83246893 1.3679613 0.13177948 39
-0.79096633 1.3500102 0.17939167 10
-0.80621701 1.361953 0.025829561 100
-0.79907316 1.3588349 0.0771432 100
-0.80674011 1.3621812 0.12951343 97
-0.79631299 1.3576301 0.18036664 24
-0.78950304 1.3602328 0.025550323 100
-0.80797571 1.3683724 0.077771232 100
-0.81925064 1.3733406 0.13090792 100
-0.79243702 1.3615255 0.18012288 33
-0.79108876 1.3665304 0.025620133 100
-0.80952841 1.3747325 0.077980578 100
-0.80621368 1.3732581 0.12986206 100
-0.7667852 1.3557198 0.17695428 26
-0.79264683 1.3728461 0.025689943 100
-0.80923122 1.3802925 0.078085244 100
-0.81500512 1.382885 0.13090792 100
-0.77922004 1.3668176 0.17890419 33
-0.79953438 1.381892 0.025864467 100
-0.79970926 1.3819712 0.077666558 100
-0.82000798 1.3911748 0.13160518 100
-0.7752158 1.3708656 0.17866045 21
-0.79739028 1.3865991 0.025864467 100
-0.8048293 1.3900032 0.078085244 100
-0.80333775 1.3893206 0.13021068 100
-0.78033048 1.378792 0.17963541 14
-0.78978354 1.3887832 0.025759751 100
-0.8062833 1.3964036 0.07829459 100
-0.80116767 1.3940409 0.13021068 100
-0.77999955 1.3842643 0.17987914 10
-0.79305285 1.3959904 0.025864467 100
-0.81313986 1.405353 0.078817949 100
-0.79898113 1.3987536 0.13021068 100
-0.77065021 1.3855487 0.17890419 10
-0.79458898 1.4021423 0.025934275 100
-0.80198807 1.4056211 0.07829459 100
-0.81131321 1.4100051 0.13160518 100
-0.76321238 1.3873911 0.17817298 5
-0.80140764 1.4111176 0.0261088 100
-0.79976112 1.4103365 0.07829459 100
-0.81267101 1.416461 0.13195379 100
-0.78615826 1.4038831 0.18158533 3
-0.80107802 1.4164585 0.026143705 100
-0.8030352 1.417395 0.07860861 100
-0.80692536 1.4192562 0.13160518 100
-0.79341084 1.4185625 0.026038991 100
-0.80616301 1.4247191 0.078922622 100
-0.80106229 1.4222565 0.13125655 100
-0.78372067 1.4202108 0.025899371 100
-0.8072297 1.4316719 0.079131968 100
-0.80929321 1.432678 0.13230242 100
-0.78503174 1.4266276 0.025969181 100
-0.7995351 1.4337611 0.078817949 100
-0.81054741 1.4391774 0.13265105 100
-0.79717857 1.4381592 0.02624842 100
-0.79911584 1.4391201 0.078922622 100
-0.80832082 1.4436854 0.13265105 100
-0.80199152 1.4464366 0.026388038 100
-0.80034429 1.4456127 0.079131968 100
-0.79883379 1.4448569 0.13195379 100
-0.78891081 1.4457459 0.02617861 100
-0.80154377 1.4521219 0.079341307 100
-0.80358464 1.4531518 0.13265105 100
-0.78654379 1.4504155 0.02617861 100
-0.80627412 1.4604599 0.07976 100
-0.80474275 1.4596803 0.13299966 100
-0.79483384 1.4605575 0.026388038 100
-0.79674882 1.4615407 0.079341307 100
-0.81650621 1.4716859 0.13439415 100
-0.7924152 1.4652475 0.026388038 100
-0.79432672 1.4662375 0.079341307 100
-0.81581765 1.4773679 0.13456847 100
-0.79364747 1.4715464 0.026457848 100
-0.79555136 1.4725404 0.079550654 100
-0.80639988 1.4782047 0.13387123 100
-0.79119045 1.4762323 0.026457848 99
-0.79839259 1.4800247 0.079864666 100
-0.80391949 1.4829351 0.13387123 100
-0.77824348 1.4750506 0.02624842 38
-0.78191763 1.4770008 0.079027295 38
-0.79978806 1.4864867 0.13369691 78
0.16824484 1.2456571 0.010645968 13
0.13745669 1.2840183 0.03454173 27
0.098555863 1.3324878 0.063100755 19
0.099937797 1.3307658 0.11388429 9
0.13833627 1.2829224 0.12784202 17
0.13282901 1.2897842 0.17858514 6
0.15478003 1.2656155 0.011064826 38
0.14280924 1.2806273 0.034227714 82
0.15249741 1.2684779 0.055779677 49
0.14900267 1.2728605 0.078971334 14
0.16328117 1.2549549 0.098240845 12
0.14362177 1.2796082 0.12669717 64
0.18429056 1.2286086 0.13542053 15
0.15614417 1.2639048 0.16926765 14
0.16147763 1.2607208 0.010925206 100
0.17186916 1.2475959 0.031924933 91
0.1579501 1.2651763 0.055256739 99
0.15692154 1.2664754 0.077752642 28
0.17723823 1.2408144 0.095112152 25
0.16490176 1.2563961 0.12059128 100
0.18710327 1.2283545 0.13497064 30
0.15427309 1.2698205 0.17082056 36
0.16442871 1.260502 0.010890301 100
0.17724147 1.2442023 0.031610917 100
0.15352452 1.2743737 0.056128297 100
0.16479084 1.2600412 0.076533951 29
0.17400083 1.2483249 0.096363634 37
0.17145509 1.2515634 0.11906482 100
0.19352269 1.2234902 0.13317102 46
0.15482631 1.2727176 0.1713382 43
0.16491294 1.2634213 0.010925206 100
0.18258545 1.240777 0.031296901 94
0.15283591 1.2788959 0.056476921 100
0.18482363 1.2379092 0.072877869 31
0.17081141 1.2558634 0.097615108 24
0.17193049 1.2544296 0.11944643 100
0.1783224 1.2462394 0.13946965 36
0.147075 1.2862775 0.17547931 42
0.16549948 1.2664104 0.010960111 77
0.18186733 1.2452786 0.031506244 62
0.15592381 1.2787731 0.056302611 72
0.1853255 1.2408139 0.073121607 31
0.18227178 1.2447563 0.095112152 25
0.18212402 1.2449472 0.1167751 46
0.18842366 1.236814 0.13632034 30
0.13714015 1.3030237 0.18065569 39
0.1684536 1.2661643 0.010925206 78
0.17865857 1.2528937 0.031924933 61
0.17106214 1.2627721 0.054385185 51
0.17487019 1.2578201 0.07555899 100
0.19597298 1.2303779 0.091983467 40
0.17780021 1.25401 0.1186832 19
0.18411568 1.2457973 0.13856985 22
0.15077966 1.2891475 0.17547931 56
0.17989552 1.2547776 0.010645968 66
0.1706506 1.2668869 0.032762308 29
0.18003869 1.25459 0.053339314 52
0.18259826 1.2512374 0.074340299 46
0.19038993 1.2410316 0.093860678 39
0.19617081 1.2334596 0.11334054 13
0.19760409 1.2315822 0.13407083 31
0.1713509 1.2659698 0.16719711 60
0.17917415 1.2592539 0.010715778 39
0.16514879 1.2777584 0.033390339 28
0.17571506 1.2638177 0.054210871 51
0.19027576 1.2446069 0.073121607 46
0.18487707 1.2517297 0.095737889 51
0.19067541 1.2440796 0.11563025 13
0.19921747 1.2328095 0.13407083 38
0.17425138 1.2657489 0.16667947 75
0.18071303 1.2604165 0.010715778 39
0.17155156 1.272583 0.032971654 29
0.17966527 1.2618079 0.053862248 51
0.1810216 1.2600067 0.075315252 100
0.19233358 1.2449843 0.094173551 52
0.20397621 1.2295227 0.11181407 14
0.2077066 1.2245687 0.13137141 39
0.18045899 1.2607539 0.16460891 69
0.18242717 1.2617025 0.010715778 53
0.18526667 1.2579041 0.031924933 30
0.18496305 1.2583103 0.053339314 52
0.19461992 1.2453922 0.072877869 94
0.20463845 1.2319905 0.09135773 54
0.18795004 1.2543145 0.11753834 13
0.20929542 1.2257608 0.13137141 39
0.17639086 1.2697773 0.16719711 67
0.1889126 1.2565594 0.010576159 81
0.20363557 1.2367203 0.030459527 65
0.17598361 1.273981 0.054908119 50
0.19391549 1.249818 0.073365346 93
0.20978487 1.2284343 0.090419121 68
0.19549277 1.2476926 0.11563025 13
0.21088839 1.2269473 0.13137141 31
0.18389407 1.2633218 0.16460891 69
0.18942711 1.2594268 0.010611063 81
0.20171291 1.2427505 0.030773543 64
0.18719918 1.2624508 0.053513627 78
0.19912484 1.2462635 0.072634131 78
0.2055288 1.237571 0.091983467 93
0.20531377 1.2378628 0.11295892 13
0.21364138 1.2265593 0.13092151 32
0.18561831 1.2645967 0.16460891 69
0.19358373 1.2575165 0.010541254 95
0.19873297 1.2504733 0.03119223 63
0.18312716 1.2718192 0.054385185 76
0.20087278 1.2475463 0.072634131 63
0.19558653 1.254777 0.095112152 90
0.21745899 1.2248592 0.10952436 14
0.22566801 1.2136307 0.12687239 16
0.18971384 1.2628098 0.16357364 69
0.19528764 1.2587576 0.010541254 81
0.21097028 1.2371485 0.030250182 65
0.18020007 1.2795467 0.055082429 75
0.20720574 1.2423357 0.071659178 64
0.20076165 1.251215 0.094173551 100
0.21097681 1.2371396 0.11219569 14
0.22149548 1.2226459 0.1291219 16
0.19143626 1.2640644 0.16357364 69
0.19232035 1.2664828 0.010680873 93
0.21727285 1.231847 0.029831495 66
0.18547484 1.2759848 0.054559495 100
0.20189446 1.2531933 0.073121607 62
0.21283558 1.2380064 0.09135773 94
0.21490467 1.2351342 0.11143246 14
0.25383329 1.1810988 0.11697455 17
0.18864614 1.2715828 0.16564418 68
0.19638202 1.2644751 0.010611063 94
0.21423984 1.239504 0.030250182 65
0.19419706 1.2675304 0.053513627 100
0.20820215 1.2479467 0.072146654 79
0.21676943 1.2359668 0.090731993 100
0.20625216 1.2506734 0.11486702 13
0.20051295 1.2586987 0.16098544 72
0.20505539 1.2559228 0.010401634 97
0.21819299 1.2374159 0.03004084 99
0.20285577 1.2590215 0.052467756 100
0.20182902 1.2604678 0.073852822 62
0.21382415 1.2435703 0.091983467 93
0.20793211 1.2518704 0.11486702 20
0.22850958 1.222883 0.12822211 16
0.20669401 1.2536145 0.15891489 73
0.20905736 1.2538546 0.010331824 98
0.21292403 1.2483672 0.03066887 64
0.19997439 1.2667449 0.053165004 100
0.20926028 1.2535666 0.072634131 63
0.21889275 1.2398965 0.091044858 100
0.20509285 1.259481 0.11639348 59
0.22784743 1.2271883 0.1291219 32
0.19836941 1.2690226 0.16357364 69
0.20837092 1.2582595 0.010401634 97
0.22138226 1.2396636 0.03004084 66
0.19477028 1.2776978 0.054210871 100
0.21883199 1.2433085 0.070927955 65
0.21932036 1.2426105 0.09135773 100
0.20671794 1.260622 0.11639348 100
0.23048249 1.2266575 0.128672 65
0.2011337 1.2686031 0.163056 70
0.21235871 1.2561642 0.010331824 98
0.2218844 1.2424483 0.030145511 98
0.21018279 1.2592973 0.052119136 100
0.2216185 1.2428312 0.070684217 81
0.2254793 1.237272 0.090106249 96
0.21403208 1.2537547 0.1144854 81
0.22652039 1.235773 0.13092151 96
0.20397824 1.268231 0.16253836 70
0.20724818 1.2672184 0.010541254 95
0.23147047 1.2320799 0.029412808 67
0.20510805 1.2703229 0.053165004 100
0.22552431 1.2407057 0.07019674 82
0.23047578 1.2335228 0.089167647 100
0.21683702 1.2533081 0.11410378 89
0.2270422 1.2385038 0.13137141 94
0.20900881 1.2646642 0.16098544 72
0.22253612 1.2486073 0.010122396 85
0.22631851 1.2430791 0.03004084 66
0.21135685 1.2649463 0.052467756 100
0.21932277 1.2533038 0.071902916 48
0.23432663 1.2313747 0.08854191 84
0.2185261 1.2544681 0.11410378 100
0.22647873 1.2428448 0.13227122 94
0.21510109 1.2594739 0.15891489 73
0.22196192 1.253056 0.010192205 85
0.22460568 1.2491629 0.030354854 65
0.20860934 1.2727184 0.053165004 79
0.22547269 1.2478862 0.070927955 48
0.22817075 1.2439131 0.090731993 95
0.22683689 1.2458773 0.11181407 100
0.22703645 1.2455834 0.13272113 100
0.21789703 1.2590418 0.15839726 89
0.21806189 1.2624892 0.010366729 41
0.23409417 1.2387025 0.029622151 33
0.21259335 1.2706027 0.05281638 53
0.23269016 1.2407856 0.069709264 83
0.22872296 1.2466717 0.091044858 100
0.22959727 1.2453744 0.11143246 100
0.2341443 1.2386281 0.13047162 100
0.20880893 1.2762177 0.16357364 85
0.20866463 1.2802659 0.010715778 53
0.22018537 1.2630434 0.031087559 31
0.21212727 1.2750895 0.053165004 52
0.24095777 1.2319906 0.068246834 85
0.23148713 1.2461483 0.090731993 100
0.22907543 1.2497536 0.11219569 91
0.24011609 1.2332488 0.128672 97
0.20628154 1.2838284 0.16564418 76
0.21044785 1.2814543 0.010715778 39
0.20865217 1.2841591 0.032343622 30
0.22491235 1.259667 0.051421888 55
0.23598456 1.2429893 0.069709264 66
0.24189177 1.2340915 0.088229038 98
0.2318379 1.2492353 0.11181407 98
0.23957932 1.2375747 0.12957181 96
0.22624189 1.2576643 0.15684435 82
0.2275528 1.2592026 0.01022711 42
0.21035907 1.2852881 0.032343622 30
0.22434497 1.2640694 0.051770512 54
0.23100001 1.2539726 0.071171694 81
0.23690975 1.2450067 0.090106249 96
0.24099198 1.2388133 0.10914274 85
0.24113154 1.2386016 0.12957181 96
0.22360817 1.2651873 0.15891489 73
0.22050506 1.2737129 0.010506349 40
0.23183984 1.256385 0.030459527 32
0.22061822 1.2735399 0.05264207 53
0.23595133 1.2500995 0.070440479 98
0.23965108 1.2444435 0.089793384 100
0.23080844 1.2579618 0.11334054 100
0.23850206 1.2462001 0.13137141 94
0.2263962 1.2647069 0.15839726 73
0.23533118 1.2547326 0.010087491 43
0.23353958 1.2574925 0.030459527 32
0.22346276 1.2730155 0.052467756 53
0.23762912 1.2511928 0.070440479 49
0.24453583 1.2405534 0.088854775 98
0.24320346 1.2426058 0.10952436 85
0.24547157 1.2391119 0.1291219 96
0.22391751 1.2723149 0.1604678 72
0.23485923 1.2591902 0.0101573 57
0.23632482 1.2569152 0.030354854 65
0.22629958 1.2724773 0.052293446 53
0.24683604 1.2405987 0.068734311 84
0.24938959 1.2366349 0.087916173 84
0.24060214 1.2502756 0.11105084 84
0.25027704 1.2352574 0.1277722 97
0.2256729 1.2734501 0.1604678 72
0.24087706 1.2535479 0.010017681 43
0.24985987 1.2394966 0.029203463 68
0.23556757 1.2618533 0.051073264 55
0.2431345 1.2500168 0.069953002 49
0.25314826 1.2343527 0.087290429 71
0.24439541 1.2480444 0.1102876 78
0.25400218 1.233017 0.12687239 90
0.23575658 1.2615577 0.1563267 74
0.24042445 1.2580012 0.010087491 71
0.24936077 1.2439145 0.029412808 100
0.23728639 1.2629479 0.051073264 83
0.24481192 1.251085 0.069953002 49
0.25477096 1.235386 0.087290429 71
0.24291092 1.2540817 0.11143246 91
0.25248852 1.238984 0.12822211 89
0.2364395 1.2642829 0.15684435 66
0.24737239 1.2505645 0.0099129668 87
0.24986967 1.2465988 0.029517479 100
0.23892277 1.2639823 0.051073264 83
0.24852458 1.2487348 0.069465525 49
0.25210533 1.2430487 0.08854191 70
0.25602576 1.2368231 0.10723466 81
0.2581991 1.233372 0.12642249 99
0.23396257 1.2718589 0.15891489 65
0.24905172 1.2516179 0.0099129668 87
0.25576869 1.2408686 0.029098792 100
0.23959318 1.2667547 0.051247578 82
0.2501975 1.2497842 0.069465525 49
0.24957123 1.2507865 0.089793384 55
0.25037453 1.249501 0.10990598 92
0.26188371 1.2310824 0.12552269 99
0.22957397 1.2827889 0.16202073 63
0.25073472 1.2526655 0.0099129668 87
0.25320426 1.2486825 0.029517479 100
0.23712948 1.2746085 0.051944822 81
0.25501224 1.2457665 0.068734311 33
0.25957882 1.2384014 0.087290429 85
0.2561883 1.2438698 0.10837951 65
0.26349494 1.2320853 0.12552269 99
0.23340189 1.2806206 0.16098544 64
0.24508667 1.2656295 0.0101573 57
0.25906312 1.2429111 0.029098792 100
0.24515671 1.2655157 0.050898954 83
0.25147399 1.2552471 0.069953002 49
0.2612156 1.2394123 0.087290429 57
0.24447086 1.2666305 0.11334054 96
0.26715189 1.229763 0.12462288 92
0.24328431 1.2685592 0.15684435 66
0.25827906 1.2479156 0.0097733475 89
0.25863448 1.2473333 0.029308135 100
0.25519267 1.2529719 0.049504463 86
0.25730664 1.2495087 0.068978049 50
0.2649143 1.2370453 0.086664692 57
0.26257229 1.2408822 0.10723466 73
0.26774317 1.2324109 0.12507279 83
0.25307858 1.2564354 0.15270324 68
0.25891316 1.2506415 0.0098082526 74
0.25409466 1.2585979 0.029936166 99
0.25481611 1.2574065 0.049853086 85
0.26515222 1.2403396 0.067515619 51
0.26040655 1.2481756 0.08854191 56
0.25913262 1.2502791 0.10914274 85
0.26532102 1.2400609 0.12687239 90
0.25077537 1.2640786 0.15477379 67
0.25647303 1.2585109 0.0099478718 73
0.26094529 1.2510679 0.029412808 100
0.25138849 1.266973 0.05072464 84
0.26679572 1.2413311 0.067515619 68
0.27021661 1.2356378 0.086038955 58
0.26283321 1.2479258 0.10837951 79
0.27599663 1.2260182 0.12282328 85
0.24255207 1.2816793 0.15995017 64
0.25510824 1.2646855 0.010052586 86
0.26467165 1.2486427 0.029203463 100
0.24394339 1.2834148 0.052293446 80
0.262344 1.2525475 0.068978049 50
0.27285516 1.2349148 0.08572609 58
0.26048213 1.2556708 0.10990598 78
0.27858794 1.2252979 0.12237337 85
0.24631843 1.2794306 0.15891489 65
0.25878677 1.2622186 0.0099827768 87
0.26829445 1.2461483 0.028994121 100
0.25376368 1.2707088 0.050898954 83
0.2599026 1.2603326 0.069953002 99
0.27842179 1.2290308 0.084474608 59
0.2570959 1.2650765 0.11181407 84
0.27910697 1.2278726 0.12282328 85
0.25980499 1.2604976 -0.0099478718 86
0.2558789 1.2671336 0.15477379 67
0.26455554 1.2563338 0.0098431576 88
0.26490331 1.2557412 0.029517479 100
0.2635814 1.2579935 0.049504463 100
0.26563522 1.2544942 0.068978049 50
0.27502623 1.238494 0.086038955 58
0.27472612 1.2390053 0.10570818 73
0.28070691 1.2288156 0.12282328 76
0.26543897 1.2548287 0.15063268 70
0.27438706 1.2435504 0.0095639192 91
0.25965294 1.2688662 0.030250182 100
0.26938075 1.2521521 0.048807215 88
0.26541582 1.2589645 0.069465525 49
0.27475789 1.2429132 0.086664692 57
0.2715092 1.2484951 0.10761628 87
0.27748907 1.2382207 0.12507279 83
0.25750029 1.2725649 0.15580906 67
0.26804295 1.258364 0.0098431576 88
0.27637553 1.2439315 0.028680105 100
0.26309595 1.2669324 0.050201707 85
0.27506474 1.2462019 0.067515619 51
0.27838573 1.2404497 0.086038955 58
0.27121788 1.2528648 0.10837951 87
0.28594571 1.2273555 0.12192347 76
0.25539264 1.2802749 0.15787962 65
0.26767579 1.2627664 0.0099129668 87
0.28390595 1.2344384 0.028052073 100
0.261774 1.2730674 0.05072464 84
0.2746717 1.2505558 0.068003096 51
0.28387532 1.2344918 0.084787481 73
0.26794073 1.2623039 0.1102876 100
0.2884326 1.2265377 0.12147357 86
0.26092789 1.2745442 0.15580906 67
0.2693114 1.2636999 0.0099129668 87
0.27952474 1.2457359 0.028680105 100
0.26639801 1.2688243 0.050201707 85
0.26939893 1.263546 0.069709264 49
0.2863934 1.2336546 0.084474608 59
0.27927813 1.2461696 0.10647142 73
0.28898481 1.2290967 0.12192347 85
0.26832306 1.2654383 -0.0099478718 86
0.2721507 1.258706 0.15063268 70
0.27693006 1.2542257 0.0097035384 90
0.27726275 1.2536359 0.029098792 100
0.27597037 1.2559276 0.048807215 88
0.27404872 1.2593352 0.068978049 50
0.28704315 1.2362926 0.084787481 59
0.2761201 1.2556621 0.10837951 87
0.28771722 1.2350973 0.12327318 85
0.27670509 1.2546247 0.14907977 78
0.2785373 1.2551286 0.0097035384 100
0.28081864 1.2510517 0.028889447 100
0.27369159 1.2637883 0.049504463 86
0.27955034 1.2533183 0.068003096 51
0.29341394 1.2285428 0.083223134 60
0.28156686 1.2497146 0.10685304 81
0.29211581 1.2308626 0.12192347 76
0.27359691 1.2639576 0.15166797 77
0.27934712 1.257869 0.0097384425 90
0.28452137 1.2485421 0.028680105 100
0.28033596 1.2560866 0.048632905 88
0.28324962 1.2508345 0.067515619 51
0.28551346 1.2467538 0.086351827 58
0.28523171 1.2472616 0.1060898 81
0.29569739 1.2283967 0.12102367 86
0.27353486 1.268346 0.15270324 68
0.27807361 1.2640194 0.0098431576 88
0.28418353 1.2529192 0.028889447 100
0.27906713 1.2622144 0.049155839 87
0.28676006 1.2482383 0.067028143 51
0.29662138 1.2303228 0.083223134 60
0.28586912 1.2498569 0.10647142 81
0.29815862 1.2275302 0.12057377 86
0.27710932 1.2657712 -0.0098780617 87
0.27425739 1.2709525 0.15322088 68
0.28084397 1.2632573 0.0098082526 89
0.29360878 1.2398645 0.028052073 100
0.28278169 1.2597063 0.048807215 88
0.28376037 1.2579126 0.068246834 34
0.29641786 1.2347165 0.083848871 59
0.2810469 1.2628855 0.10914274 85
0.29797035 1.2318714 0.12147357 86
0.27892825 1.2667681 -0.0098780617 87
0.28349817 1.2583933 0.14907977 70
0.2929534 1.2448033 0.0094242999 93
0.29326659 1.2442249 0.028261416 100
0.28820127 1.2535813 0.048109971 59
0.28254461 1.26403 0.068978049 50
0.29890075 1.2338177 0.083536007 60
0.28829089 1.2534157 0.10685304 73
0.28057709 1.2676642 -0.0098780617 87
0.28511921 1.2592742 0.14907977 70
0.29280424 1.2492663 0.0094941091 92
0.29311758 1.2486824 0.02847076 100
0.28526485 1.2633154 0.048981529 87
0.28998911 1.2545121 0.067515619 51
0.29873428 1.2382162 0.084161744 59
0.29470617 1.2457222 0.10494494 75
0.28508726 1.2636464 0.15011504 70
0.29627439 1.2465863 0.0094242999 93
0.29470637 1.2495316 0.02847076 100
0.28502962 1.2677079 0.049330149 87
0.29532868 1.2483627 0.066540658 52
0.29750341 1.2442777 0.085100345 58
0.29628512 1.2465662 0.10494494 75
0.28217855 1.2730633 -0.0099478718 86
0.28491002 1.2679327 0.15115032 69
0.29055691 1.2616615 0.0097035384 90
0.2915048 1.2598653 0.048458595 88
0.29528481 1.2527019 0.1060898 73
0.28402415 1.2740415 -0.0099478718 86
0.28493366 1.272318 0.1521856 69
0.29033399 1.2660625 0.0097733475 89
0.29991284 1.2477632 0.028261416 100
0.29590264 1.2554243 0.047935657 89
0.29315084 1.2606812 0.068003096 51
0.29051355 1.2657194 0.10876112 79
0.29218873 1.2625192 -0.0097035384 100
0.29018453 1.266348 0.15011504 70
0.29592291 1.2599552 0.0096337283 90
0.29503679 1.2616638 0.068003096 51
0.29209226 1.267342 0.15011504 78
0.29938272 1.25723 0.047935657 59
0.29639387 1.2630408 0.14856213 79
0.29460588 1.270807 0.15063268 78
0.29539609 1.273375 0.15115032 69
0.29920575 1.2706063 -0.0097733475 100
0.29552862 1.2821803 -0.0099827768 100
