# .PCD v0.7 - Point Cloud Data file format
VERSION 0.7
FIELDS x y z intensity
SIZE 4 4 4 4
TYPE F F F F
COUNT 1 1 1 1
WIDTH 727
HEIGHT 1
VIEWPOINT 0 0 0 1 0 0 0
POINTS 727
DATA ascii
-1.0941079 0.15104154 0.057883568 28
-1.1958849 0.16934793 0.021082507 24
-1.1825627 0.16746138 0.062593803 30
-1.114206 0.16135362 0.019651409 5
-1.0266021 0.15232784 0.018115599 5
-1.0201333 0.1550092 0.018010883 3
-1.1499981 0.17885129 0.0203146 48
0.062532634 0.00068771839 0.047730394 50
0.058250636 0.011613786 0.015776975 57
0.047469079 0.00088083744 0.048149079 36
0.044171095 0.00170362 0.016056214 8
0.049180567 0.0093123317 0.047730394 20
0.048868418 0.014306366 0.047521047 100
0.038466275 0.0044355989 0.048253752 70
0.03579706 0.006225884 0.048253752 43
0.036497653 0.012984037 0.047939736 27
0.038366139 0.021376908 0.047521047 19
0.030092537 0.014942408 0.04804441 9
0.023171604 0.0100137 0.048463095 8
-1.0177145 1.1267514 0.084260888 5
-1.0391474 1.1316288 0.1425868 4
-1.0398657 1.1373417 0.028482327 8
-0.99900883 1.1279016 0.083318844 9
-1.0243509 1.1337569 0.14136662 14
-1.0073614 1.1358494 0.02792385 13
-1.0054641 1.1354036 0.08373753 73
-1.0191278 1.1386135 0.14101799 61
-1.000304 1.1396204 0.027819136 41
-1.002301 1.1400965 0.083632857 100
-1.0120826 1.1424286 0.14049506 100
-0.973674 1.1391785 0.027365373 44
-1.0028751 1.1462538 0.08373753 100
-0.99908894 1.1453364 0.13944919 91
-0.98409265 1.1470932 0.027574802 32
-0.98416311 1.1471105 0.082795486 100
-1.0017054 1.1514225 0.13979781 86
-0.97882003 1.1517445 0.027504992 23
-0.97695738 1.1512794 0.082481466 66
-1.0022299 1.1575899 0.13997212 82
-0.97948414 1.1573031 0.027539898 30
-0.98536533 1.1587923 0.083004825 37
-0.99321038 1.1607789 0.13927488 75
-0.96262866 1.1586585 0.027260659 50
-0.9762612 1.1621612 0.082586139 40
-0.97639924 1.1621966 0.13788038 87
-0.96133155 1.1636723 0.027260659 63
-0.97495228 1.1672204 0.082586139 88
-0.98087448 1.1687629 0.13840333 91
-0.96374494 1.1702313 0.027330469 72
-0.9638316 1.1702542 0.082062781 96
-0.97362405 1.1728433 0.13788038 98
-0.95468324 1.1731787 0.027190849 83
-0.94706243 1.1711366 0.081225403 94
-0.97420424 1.1784093 0.1380547 100
-0.95512503 1.1792154 0.027225753 89
-0.94365484 1.1760969 0.081120729 100
-0.96885198 1.1829476 0.13770607 100
-0.9460482 1.1820803 0.027086135 89
-0.9519276 1.1836998 0.081644088 100
-0.95786995 1.1853366 0.13683452 98
-0.9368965 1.185149 0.026946515 92
-0.95047444 1.1889399 0.081644088 90
-0.96024901 1.1916691 0.13718314 94
-0.93936008 1.1911657 0.027016325 89
-0.93370181 1.1895657 0.080806717 86
-0.96075958 1.1972171 0.13735744 100
-0.96464187 1.2046027 0.027504992 52
-0.92248088 1.1925052 0.080283359 60
-0.95144755 1.2008168 0.1366602 100
-0.96127206 1.2090651 0.027470088 38
-0.93449742 1.2012863 0.081016064 20
-0.9461841 1.2046816 0.13631158 91
-0.9290368 1.2053041 0.026911611 63
-0.92723483 1.2047739 0.080702044 26
-0.93701237 1.2076515 0.13561434 84
-0.91225356 1.2056389 0.026632372 75
-0.92961317 1.2108107 0.08091139 26
-0.92982453 1.2108736 0.13509139 89
-0.91830438 1.2133073 0.026771991 74
-0.92416364 1.2150762 0.080702044 54
-0.93582815 1.2185979 0.13578865 98
-0.91866034 1.2190145 0.026806897 81
-0.90541106 1.2149638 0.07976 100
-0.93234783 1.2231992 0.13561434 100
-0.91708404 1.2241384 0.026806897 88
-0.90575701 1.2206321 0.079864666 93
-0.92504698 1.2266033 0.13509139 87
-0.90404075 1.2256687 0.026597468 89
-0.91370445 1.2286972 0.080388032 80
-0.91393811 1.2287704 0.13421984 56
-0.89481694 1.228323 0.026457848 85
-0.91590184 1.2350115 0.080597371 64
-0.90852946 1.2326728 0.13387123 43
-0.89701623 1.2345861 0.026527658 81
-0.89905661 1.2352412 0.07976 85
-0.90500861 1.2371521 0.13369691 45
-0.89538568 1.2396343 0.026527658 89
-0.88982576 1.2378278 0.079341307 100
-0.91284341 1.2453066 0.13456847 52
-0.89373761 1.2446767 0.026527658 99
-0.89197856 1.2440984 0.079550654 100
-0.90549725 1.2485431 0.13404553 71
-0.88844389 1.2479489 0.026457848 100
-0.89048213 1.2486262 0.079550654 100
-0.90587741 1.2537415 0.13421984 85
-0.87539393 1.2491442 0.02624842 99
-0.89448208 1.2555606 0.079864666 100
-0.89096016 1.2543768 0.13299966 80
-0.86992627 1.2528293 0.02617861 96
-0.87954181 1.256099 0.079131968 100
-0.90623742 1.2651765 0.13456847 85
-0.87579614 1.2603843 0.02631823 96
-0.87217027 1.2591373 0.078817949 100
-0.90261608 1.2696087 0.13439415 100
-0.88163048 1.2679862 0.026457848 83
-0.87045425 1.2640986 0.078817949 100
-0.90650862 1.2766399 0.1349171 80
-0.87233788 1.2703261 0.02631823 79
-0.87060493 1.2697166 0.078922622 70
-0.89345425 1.2777542 0.13387123 40
-0.85927838 1.2712672 0.0261088 83
-0.86320668 1.2726645 0.07860861 31
-0.89542741 1.2841251 0.13421984 36
-0.86128348 1.2775369 0.02617861 93
-0.84828752 1.2728631 0.077875905 21
-0.88050014 1.2844477 0.13299966 30
-0.85950321 1.2824601 0.02617861 99
-0.85027772 1.2791059 0.078085244 65
-0.88618547 1.2921611 0.13369691 17
-0.85395187 1.2859974 0.0261088 99
-0.8466174 1.2833017 0.077980578 100
-0.86939341 1.2916727 0.13230242 13
-0.84473449 1.287866 0.025969181 100
-0.8486523 1.2893207 0.078189917 100
-0.86205226 1.294296 0.13177948 3
-0.83168513 1.2885158 0.025759751 100
-0.84496111 1.293498 0.078085244 48
-0.87140578 1.303422 0.13282534 1
-0.83716196 1.2966564 0.025899371 96
-0.83547193 1.2960148 0.077666558 51
-0.8563084 1.3039256 0.13160518 5
-0.8371821 1.3022115 0.025934275 74
-0.82430369 1.2972705 0.0771432 57
-0.8618769 1.311686 0.13230242 33
-0.84296221 1.3094555 0.026073895 74
-0.83009034 1.3044705 0.077561885 76
-0.85087854 1.3125212 0.13143086 90
-0.82617301 1.3084853 0.025794657 83
-0.82449633 1.3078291 0.077352546 63
-0.84526545 1.3159559 0.13108224 100
-0.81498677 1.3096099 0.025620133 99
-0.83189756 1.3162951 0.077875905 76
-0.83593971 1.317893 0.130385 97
-0.816809 1.3158545 0.025689943 100
-0.82256299 1.3181525 0.077457212 91
-0.83956963 1.3249444 0.13090792 100
-0.81860417 1.3221185 0.025759751 100
-0.81508452 1.3206987 0.0771432 97
-0.83762401 1.3297915 0.13090792 100
-0.81666857 1.3268926 0.025759751 100
-0.81685311 1.3269677 0.077352546 97
-0.83197135 1.3331282 0.1305593 100
-0.78646666 1.3145858 0.17719802 16
-0.80371827 1.3268571 0.025550323 100
-0.81130451 1.3299778 0.0771432 100
-0.8135131 1.3308862 0.1289905 100
-0.78832501 1.3205251 0.1776855 16
-0.79807287 1.3300447 0.025480513 100
-0.80380815 1.3324274 0.07682918 100
-0.81154698 1.3356423 0.1289905 100
-0.77722925 1.3213854 0.17646681 16
-0.79601115 1.3349819 0.025480513 100
-0.7906881 1.3327475 0.076201156 100
-0.81130177 1.3414 0.12916481 100
-0.77702981 1.3270144 0.17671055 24
-0.80507773 1.3443592 0.025689943 100
-0.77768224 1.3327475 0.075573124 85
-0.8166365 1.3492584 0.12986206 100
-0.76959437 1.3293192 0.17597933 18
-0.8067413 1.3506594 0.025759751 64
-0.79407138 1.3452369 0.076619841 40
-0.79812104 1.3469701 0.12829325 52
-0.7877087 1.3425138 0.17866045 12
-0.80837744 1.3569782 0.025829561 70
-0.8140561 1.359432 0.077875905 65
-0.81621712 1.3603659 0.13021068 22
-0.79116875 1.3495419 0.17939167 7
-0.80092448 1.3590816 0.025724847 100
-0.8066017 1.3615572 0.077561885 100
-0.77286297 1.3468451 0.17719802 18
-0.79886001 1.3637936 0.025724847 100
-0.80452853 1.366289 0.077561885 100
-0.82310814 1.3744681 0.13125655 100
-0.78174239 1.3562582 0.17866045 36
-0.80043381 1.3701226 0.025794657 100
-0.79878849 1.3693914 0.077352546 100
-0.81370693 1.376021 0.1305593 100
-0.7597335 1.3520356 0.17597933 24
-0.80745345 1.3789251 0.025969181 100
-0.80033273 1.3757308 0.077561885 100
-0.80431181 1.3775158 0.12986206 100
-0.7794283 1.3663535 0.17890419 19
-0.79256803 1.3778861 0.025724847 100
-0.80548781 1.3837359 0.077980578 100
-0.79855293 1.3805959 0.12951343 100
-0.78457206 1.3742657 0.17987914 17
-0.78680032 1.3809063 0.025655037 100
-0.81423658 1.3934445 0.07860861 100
-0.80366176 1.388612 0.13021068 100
-0.77162164 1.3739699 0.17841671 15
-0.79192322 1.3889191 0.025794657 100
-0.80661112 1.3956933 0.07829459 100
-0.80873114 1.3966712 0.13090792 100
-0.76049238 1.3744226 0.17719802 13
-0.79700631 1.3969748 0.025934275 100
-0.80079728 1.3987393 0.078085244 100
-0.81014794 1.4030917 0.13125655 100
-0.76017421 1.3798311 0.17744176 11
-0.79491979 1.4014382 0.025934275 100
-0.80412871 1.4057617 0.078399263 100
-0.80804104 1.4075987 0.13125655 100
-0.77431685 1.3917651 0.17963541 5
-0.79270738 1.406129 0.025934275 100
-0.81273085 1.4156154 0.079027295 100
-0.79500395 1.407217 0.13021068 100
-0.76855057 1.3946843 0.17914793 3
-0.78687042 1.4090872 0.025864467 100
-0.80506307 1.4177841 0.078713275 100
-0.79636651 1.4136267 0.1305593 100
-0.79003483 1.4163561 0.025969181 100
-0.80099469 1.4216425 0.07860861 100
-0.81205708 1.4269783 0.13230242 100
-0.80215508 1.42803 0.02624842 100
-0.79512006 1.4246063 0.078399263 100
-0.8097555 1.4317288 0.13230242 100
-0.79625994 1.4309833 0.02617861 100
-0.7999981 1.4328187 0.078817949 100
-0.80743736 1.4364712 0.13230242 100
-0.79036063 1.4339035 0.0261088 100
-0.80125576 1.4393001 0.079027295 100
-0.80510265 1.4412055 0.13230242 100
-0.79161257 1.4403658 0.02617861 100
-0.80784446 1.4484763 0.079550654 100
-0.80631608 1.4477127 0.13265105 100
-0.79283577 1.4468449 0.02624842 100
-0.8019008 1.4514141 0.079341307 100
-0.80927962 1.4551333 0.13317397 100
-0.79759508 1.4551533 0.026388038 100
-0.79239255 1.4525082 0.078922622 100
-0.81220776 1.4625828 0.13369691 100
-0.80231267 1.4635031 0.026527658 99
-0.80066508 1.4626582 0.079550654 100
-0.80800909 1.4664245 0.1335226 100
-0.79277903 1.4645445 0.026388038 99
-0.80356103 1.4701215 0.079864666 100
-0.79849118 1.4674991 0.13282534 100
-0.78704387 1.4669111 0.02631823 100
-0.79958373 1.4734472 0.07976 100
-0.8051272 1.4763366 0.13369691 100
-0.79168314 1.4752958 0.026457848 96
-0.79181641 1.4753659 0.07944598 100
-0.80618042 1.4829167 0.13404553 100
-0.78921312 1.4799749 0.026457848 52
-0.766406 1.4678838 0.078085244 53
-0.81072491 1.4913793 0.13474278 85
0.15028766 1.2671418 0.011134636 12
0.13542846 1.2856231 0.12860526 17
0.20198995 1.2028372 0.12822211 8
0.15710166 1.2623515 0.010995016 25
0.15508878 1.2648739 0.033180997 28
0.15605164 1.2636672 0.055256739 49
0.13892165 1.2851334 0.080921248 13
0.13846934 1.2857001 0.10449822 11
0.14956677 1.2717936 0.12478908 54
0.18899253 1.2223881 0.13362093 15
0.1607917 1.2577274 0.16719711 7
0.15997863 1.2620845 0.010960111 100
0.16789734 1.2520936 0.032238949 90
0.14160249 1.2852695 0.057522789 93
0.16652593 1.2538239 0.075802729 30
0.16472176 1.2561002 0.098240845 24
0.17318344 1.2454242 0.11791996 100
0.18565288 1.2296916 0.13542053 38
0.15161151 1.2726412 0.17185585 36
0.16178483 1.2635107 0.010960111 100
0.17584112 1.2456419 0.031715591 100
0.15334848 1.2742352 0.056128297 100
0.16830179 1.2552261 0.075802729 30
0.16894862 1.2544038 0.097615108 37
0.15914878 1.2668617 0.122881 100
0.19938868 1.2157075 0.13092151 40
0.14629 1.2832081 0.17496167 49
0.16465461 1.2632196 0.010925206 100
0.17865011 1.2453063 0.031610917 92
0.15992934 1.2692677 0.055431053 100
0.1625801 1.2658749 0.077265166 29
0.18515101 1.2369854 0.093860678 26
0.16442469 1.2635139 0.12173614 100
0.18407193 1.2383666 0.13722014 30
0.15750903 1.2723656 0.17082056 36
0.16760427 1.2629817 0.010890301 91
0.17419082 1.2544903 0.032134276 60
0.16411677 1.2674776 0.055082429 100
0.16188002 1.2703612 0.077752642 28
0.17709753 1.2507429 0.096363634 25
0.18780899 1.2369338 0.11486702 60
0.18929225 1.2350216 0.13587044 30
0.15097669 1.2844177 0.17444403 42
0.17778382 1.2531581 0.010645968 80
0.17214283 1.2604804 0.032448292 59
0.17063227 1.2624412 0.054385185 51
0.17444465 1.2574925 0.07555899 60
0.17387164 1.2582363 0.097615108 37
0.17737797 1.2536849 0.1186832 13
0.18370059 1.2454778 0.13856985 22
0.15150577 1.2872685 0.17496167 56
0.17712805 1.2576963 0.010715778 53
0.1800085 1.2539288 0.031924933 30
0.1639688 1.2749078 0.055605363 49
0.18949658 1.2415189 0.072877869 47
0.18046281 1.2533345 0.096363634 50
0.19107759 1.2394511 0.11486702 13
0.19728196 1.2313361 0.13407083 31
0.16396457 1.2749133 0.17030293 58
0.17874736 1.2589301 0.010715778 53
0.15745893 1.2869663 0.034018371 27
0.16323552 1.2793587 0.055953987 48
0.19826493 1.2332259 0.071415432 48
0.19998643 1.2309587 0.091670595 54
0.18788731 1.2468929 0.11639348 13
0.20470613 1.2247431 0.13182132 47
0.16914582 1.271575 0.16875002 66
0.17572808 1.2666756 0.010855397 39
0.17858803 1.2628803 0.032343622 30
0.17589647 1.2664522 0.054385185 51
0.1916025 1.2456095 0.073121607 62
0.19573423 1.2401266 0.093234941 53
0.1931822 1.2435132 0.11524864 13
0.21106628 1.2197802 0.13002171 40
0.17679983 1.2652533 0.16616182 68
0.18456605 1.2583079 0.010645968 53
0.16825768 1.2800999 0.033390339 28
0.18112612 1.2629045 0.053862248 51
0.18842408 1.2531527 0.07409656 76
0.20439661 1.2318095 0.09135773 54
0.19710699 1.2415502 0.1144854 13
0.20555398 1.230263 0.13272113 39
0.18075919 1.2633948 0.16512655 76
0.18738016 1.2579122 0.010611063 94
0.18663058 1.2589207 0.031924933 30
0.18751654 1.2577286 0.053165004 52
0.19950119 1.241603 0.072146654 79
0.20239496 1.2377094 0.092296332 53
0.21038356 1.2269607 0.11066922 14
0.20243242 1.237659 0.13452072 38
0.17548323 1.2739196 0.16823238 75
0.18900013 1.2591119 0.010611063 94
0.19655627 1.2488742 0.03119223 63
0.18085378 1.2701492 0.054385185 76
0.201067 1.2427628 0.072146654 63
0.19690949 1.2483957 0.094173551 78
0.20723733 1.2344027 0.11219569 14
0.22134376 1.2152902 0.1277722 32
0.18059799 1.2704959 0.16667947 67
0.19324347 1.2572675 0.010541254 81
0.21491584 1.2276669 0.029726824 67
0.18395391 1.2699554 0.054210871 76
0.19936681 1.2489041 0.072877869 63
0.20341679 1.2433726 0.092922069 79
0.21018282 1.2341313 0.11181407 14
0.23226565 1.20397 0.12417299 16
0.19165236 1.2594407 0.16253836 70
0.19250935 1.2616826 0.010611063 94
0.21056277 1.2368525 0.030250182 65
0.18327054 1.2743895 0.054559495 100
0.19278526 1.2613032 0.074584037 61
0.21195838 1.234933 0.091044858 100
0.20941475 1.2384315 0.1125773 13
0.2337065 1.2050213 0.12417299 16
0.19100523 1.2637514 0.16357364 69
0.19656843 1.2596846 0.010541254 95
0.21570107 1.233176 0.029936166 99
0.1978597 1.2578955 0.05264207 100
0.19450238 1.2625471 0.074584037 76
0.20895907 1.2425171 0.092296332 100
0.22254172 1.2236981 0.10876112 14
0.24321032 1.1950616 0.12102367 17
0.19273093 1.2650015 0.16357364 69
0.20052406 1.2576032 0.010471444 82
0.20909435 1.2456456 0.03066887 64
0.19251558 1.268777 0.053687938 100
0.21001464 1.2443616 0.071659178 80
0.20707563 1.2484622 0.093234941 100
0.21032375 1.2439303 0.11334054 13
0.24802727 1.1913248 0.11967396 17
0.19662517 1.2630432 0.16253836 70
0.20231357 1.2588809 0.010471444 96
0.21199751 1.2452643 0.030564198 97
0.19550082 1.2684603 0.053513627 100
0.21405655 1.2423691 0.071171694 81
0.20883158 1.2497159 0.093234941 100
0.20068473 1.2611711 0.11715672 19
0.23150277 1.217838 0.12687239 16
0.19955429 1.2627606 0.16202073 70
0.20162958 1.263298 0.010541254 95
0.22624895 1.2284366 0.029412808 67
0.19485706 1.2728879 0.053862248 100
0.21791506 1.2402375 0.070684217 65
0.21612182 1.2427768 0.091670595 100
0.20911056 1.2527049 0.11486702 47
0.23861036 1.2109326 0.12462288 25
0.19896147 1.2670761 0.163056 70
0.20794499 1.2579613 0.010401634 83
0.21409389 1.2491894 0.03066887 96
0.20118919 1.2675987 0.053165004 100
0.21727961 1.2446449 0.071171694 65
0.22344354 1.2358516 0.090106249 96
0.20065531 1.2683604 0.11830158 97
0.22784692 1.2295699 0.12957181 56
0.20402539 1.2635527 0.16150309 70
0.20736614 1.2624352 0.010471444 96
0.22261298 1.2405224 0.03004084 99
0.20520416 1.2655424 0.05281638 100
0.21440336 1.2523212 0.072146654 63
0.22507167 1.2369887 0.090106249 96
0.21921656 1.2454036 0.1125773 96
0.22611406 1.2354906 0.13092151 80
0.21126714 1.2568285 0.15891489 73
0.21363264 1.2570465 0.010331824 84
0.21858242 1.2498794 0.030564198 97
0.20240712 1.2733006 0.053513627 100
0.22736982 1.2371556 0.069709264 99
0.22670373 1.2381201 0.090106249 96
0.22534069 1.2400937 0.11105084 98
0.22109637 1.2462392 0.13362093 93
0.2107729 1.2611872 0.15995017 72
0.2153348 1.2582176 0.010331824 84
0.22477654 1.2444438 0.030145511 98
0.19966009 1.2810843 0.054210871 100
0.22675771 1.2415535 0.07019674 82
0.22052163 1.250651 0.092296332 100
0.22254354 1.2477014 0.1125773 96
0.23157528 1.2345256 0.13002171 96
0.21467409 1.2591815 0.15891489 73
0.21825105 1.2577875 0.010296919 70
0.23101047 1.2390265 0.029726824 67
0.2037766 1.2790699 0.053862248 77
0.23072094 1.2394524 0.069709264 66
0.22561818 1.2469552 0.09135773 100
0.2242966 1.2488983 0.1125773 96
0.23328 1.2356896 0.13002171 96
0.20995075 1.2699918 0.16202073 70
0.21100539 1.272202 0.010576159 40
0.22929731 1.2451035 0.03004084 33
0.21558806 1.265413 0.052293446 53
0.21125972 1.2718252 0.074340299 100
0.23612657 1.2349863 0.088854775 98
0.22706866 1.2484051 0.11219569 91
0.23708805 1.2335619 0.1291219 96
0.21602148 1.264771 0.15995017 72
0.21935236 1.2633564 0.010366729 41
0.2130836 1.2727101 0.031715591 30
0.2205604 1.261554 0.051770512 54
0.22729281 1.2515087 0.071171694 81
0.23437098 1.2409474 0.089793384 100
0.23302889 1.24295 0.11066922 92
0.23428732 1.2410722 0.13092151 96
0.22196612 1.2594566 0.15787962 73
0.23215139 1.2478576 0.010017681 43
0.22590181 1.2572533 0.03066887 32
0.21896794 1.2676778 0.052293446 53
0.23777074 1.2394094 0.069221787 83
0.23711082 1.2404015 0.089480512 97
0.23685634 1.2407842 0.10990598 92
0.23161653 1.2486618 0.13272113 100
0.22153679 1.2638156 0.15891489 73
0.2194123 1.2706017 0.010471444 27
0.22531816 1.2616587 0.030878214 31
0.22171807 1.2671102 0.052119136 54
0.23714125 1.2437552 0.069709264 66
0.23976102 1.2397881 0.089167647 98
0.23517361 1.2467347 0.11105084 91
0.24287048 1.2350795 0.128672 97
0.22424072 1.2632902 0.15839726 73
0.22225788 1.2700801 0.010436539 41
0.21827802 1.2761527 0.031715591 30
0.22127104 1.2715859 0.052467756 53
0.23770875 1.2465047 0.069953002 99
0.24465117 1.2359117 0.088229038 98
0.23361117 1.2527568 0.11219569 100
0.24876857 1.2296292 0.12687239 90
0.22066993 1.2725031 0.16098544 72
0.22200105 1.2746882 0.010506349 27
0.22457743 1.2707241 0.031296901 31
0.22754228 1.266162 0.051770512 54
0.23088676 1.261016 0.071902916 100
0.24751884 1.2354244 0.087916173 84
0.23439732 1.2556143 0.1125773 96
0.2526595 1.2275145 0.12597258 82
0.2299709 1.2624252 0.15736198 74
0.23243546 1.2623862 0.01022711 42
0.25230768 1.2315742 0.028784776 34
0.23575544 1.2572385 0.05072464 56
0.2379823 1.2537857 0.070684217 65
0.2491453 1.2364774 0.087916173 84
0.24779931 1.2385644 0.10837951 87
0.24580857 1.2416511 0.12957181 96
0.23378587 1.2602923 0.1563267 74
0.24269608 1.2499639 0.0099478718 58
0.24845523 1.2409689 0.029308135 68
0.23307565 1.2649896 0.051421888 55
0.24065867 1.2531459 0.070440479 98
0.24856356 1.2407997 0.08854191 84
0.24829617 1.2412174 0.10876112 87
0.24947587 1.2393749 0.128672 97
0.23541349 1.2613382 0.1563267 74
0.24115622 1.2560971 0.010052586 86
0.25117213 1.2403328 0.029203463 68
0.23480541 1.2660929 0.051421888 82
0.24234706 1.2542229 0.070440479 49
0.2502088 1.2418491 0.08854191 70
0.25415421 1.2356393 0.10723466 81
0.25529632 1.2338417 0.12687239 82
0.23195052 1.2705863 0.15891489 65
0.24597019 1.2520444 0.0099478718 73
0.25592986 1.2362533 0.028889447 100
0.22794926 1.280617 0.05281638 79
0.24607244 1.2518823 0.069953002 49
0.25809795 1.2328157 0.086664692 71
0.23894265 1.2631868 0.11334054 96
0.26203403 1.226575 0.12462288 100
0.22948998 1.2781742 0.16098544 64
0.24341124 1.2598832 0.010087491 71
0.25120175 1.2474351 0.029517479 100
0.23818949 1.2682269 0.051421888 82
0.24459705 1.2579885 0.070684217 32
0.26181117 1.2304828 0.086038955 58
0.24795678 1.2526201 0.11066922 85
0.26156187 1.2308812 0.12552269 99
0.23946473 1.2661891 0.15684435 66
0.24942738 1.2542077 0.0099478718 73
0.25506037 1.2451333 0.029308135 100
0.24737319 1.257517 0.050201707 85
0.24534073 1.2607911 0.070927955 48
0.26141724 1.2348926 0.086664692 57
0.25283396 1.2487199 0.10952436 99
0.26119751 1.2352467 0.12642249 90
0.24536088 1.2607586 0.15477379 67
0.25321683 1.2518487 0.0098780617 88
0.24938869 1.2580639 0.03004084 100
0.24698702 1.2619631 0.05055033 84
0.25330204 1.2517103 0.069465525 49
0.25993392 1.240943 0.087603301 57
0.2575956 1.2447394 0.10837951 65
0.26077932 1.2395704 0.1273223 97
0.2470758 1.2618191 0.15477379 67
0.24960107 1.2613608 0.010052586 86
0.25413418 1.2539459 0.029726824 100
0.24446315 1.2697649 0.051247578 82
0.25697196 1.2493043 0.068978049 50
0.26252759 1.240217 0.087290429 57
0.25405127 1.2540816 0.1102876 85
0.27046984 1.2272258 0.12372308 92
0.24367008 1.271062 0.15736198 66
0.25131807 1.2624063 0.010052586 86
0.26100439 1.2464375 0.029203463 100
0.2462095 1.2708282 0.051247578 82
0.26070586 1.2469296 0.068490572 50
0.2692931 1.2327728 0.08572609 58
0.25676104 1.2534331 0.10990598 85
0.27509955 1.2232003 0.12237337 85
0.24441907 1.27378 0.15787962 65
0.25088975 1.2668204 0.010122396 85
0.26258591 1.2473933 0.029203463 100
0.24992728 1.2684191 0.050898954 83
0.26024124 1.2512877 0.068978049 50
0.26981038 1.2353934 0.086038955 58
0.25431529 1.2611307 0.11143246 77
0.27057314 1.2341264 0.12507279 100
0.25206989 1.2648603 0.15477379 67
0.25877836 1.257561 0.0099129668 87
0.25708482 1.2603962 0.029936166 99
0.25882068 1.2574902 0.049678773 86
0.25377947 1.2659301 0.070927955 48
0.2734625 1.2329769 0.085413218 58
0.26509213 1.2469904 0.10799789 79
0.27719143 1.2267339 0.12282328 85
0.25181779 1.2692143 0.15580906 67
0.26566297 1.2500225 0.0097384425 90
0.26295573 1.2545929 0.029517479 100
0.25553235 1.2671251 0.05055033 84
0.26571602 1.249933 0.068490572 50
0.27616802 1.2322878 0.085100345 58
0.26784286 1.2463424 0.10761628 79
0.27688095 1.2310841 0.12372308 83
0.25758773 1.2636552 0.15373851 68
0.27037966 1.24584 0.0096337283 90
0.27476785 1.2383723 0.02847076 100
0.25726944 1.2681501 0.05055033 84
0.27141589 1.2440765 0.067515619 68
0.27678257 1.2349439 0.085413218 58
0.26950732 1.2473243 0.10761628 79
0.28046671 1.2286744 0.12282328 85
0.2612702 1.2613418 0.15270324 68
0.26591477 1.257129 0.0098431576 88
0.27229789 1.2461836 0.028889447 100
0.26394156 1.2605126 0.049678773 86
0.27098945 1.2484273 0.068003096 51
0.28330159 1.2273153 0.083848871 59
0.26515752 1.2584275 0.10990598 78
0.28395265 1.2261989 0.12192347 85
0.25316894 1.2789845 0.15787962 65
0.26160875 1.2685032 0.010052586 86
0.26796094 1.2575229 0.029517479 100
0.26864859 1.2563343 0.049155839 100
0.27266118 1.2493982 0.068003096 51
0.2829212 1.2316632 0.084474608 59
0.26489794 1.2628175 0.11066922 92
0.28554672 1.2271248 0.12192347 85
0.26655608 1.2599514 0.15166797 69
0.26932245 1.2591004 0.0098431576 88
0.26966444 1.2585045 0.029517479 100
0.26737291 1.2624977 0.049678773 86
0.27236021 1.2538069 0.068490572 50
0.27961829 1.2411592 0.086038955 72
0.2754145 1.2484846 0.10723466 73
0.28714398 1.2280451 0.12192347 85
0.26538342 1.2659645 0.15322088 76
0.28092396 1.2426986 0.0094941091 92
0.27334741 1.2560086 0.029308135 100
0.26810813 1.2652128 0.049853086 85
0.27601475 1.2513227 0.068003096 51
0.28126457 1.2421001 0.086038955 58
0.28000006 1.2443216 0.1060898 81
0.28199616 1.2408149 0.12507279 83
0.26707444 1.2670286 -0.0099827768 86
0.26807207 1.2652761 0.15270324 68
0.27667654 1.2540827 0.0097035384 90
0.28486538 1.2395794 0.028261416 100
0.26592013 1.2731335 0.05055033 84
0.27769655 1.2522762 0.068003096 51
0.28291416 1.2430353 0.086038955 58
0.28069213 1.2469708 0.10647142 81
0.29226437 1.2264752 0.12102367 86
0.26980263 1.2662572 0.15270324 68
0.28032216 1.2515445 0.0096337283 90
0.29040977 1.2335317 0.027842728 100
0.27059868 1.268907 0.050027397 85
0.27938166 1.2532239 0.068003096 51
0.28842783 1.2370707 0.084787481 59
0.27948084 1.2530468 0.10761628 87
0.29576373 1.2239716 0.12012386 86
0.27055123 1.2689917 -0.0099827768 86
0.26209718 1.2840874 0.15787962 65
0.27714974 1.2612234 0.0098082526 89
0.28427085 1.2484031 0.028680105 100
0.26943955 1.2751044 0.05055033 84
0.27721444 1.261107 0.068978049 50
0.28814143 1.2414347 0.085413218 58
0.27640215 1.2625694 0.10952436 85
0.29451117 1.229967 0.12147357 77
0.27229473 1.2699641 -0.0099827768 86
0.27327397 1.2682011 0.15270324 76
0.29237452 1.2376518 0.0093195848 78
0.28594241 1.2493277 0.028680105 100
0.27985668 1.2603748 0.048981529 87
0.28276175 1.2551013 0.068003096 51
0.29264811 1.2371552 0.084474608 59
0.28380704 1.2532039 0.10723466 81
0.295178 1.2325629 0.12192347 85
0.27404162 1.2709304 -0.0099827768 86
0.27967545 1.2607037 0.15011504 78
0.28633836 1.2525872 0.0095988233 76
0.28570199 1.253752 0.028889447 100
0.27965951 1.2648116 0.049330149 87
0.29016733 1.2455789 0.066540658 52
0.29428035 1.2380507 0.084474608 59
0.29020184 1.2455157 0.10532656 75
0.29585987 1.2351596 0.12237337 68
0.27861127 1.2667303 0.15166797 69
0.29088241 1.24823 0.0094941091 92
0.28518501 1.2587452 0.048632905 88
0.2908833 1.2482283 0.066784397 52
0.29215148 1.2458878 0.08572609 58
0.29279855 1.2446935 0.10494494 75
0.27850619 1.2710717 0.15270324 68
0.28498137 1.2632236 0.0097733475 89
0.29664835 1.2415104 0.028052073 100
0.28783569 1.2579114 0.048458595 88
0.29537296 1.243884 0.066053182 52
0.29942414 1.2363443 0.083848871 59
0.28888163 1.2559649 0.10723466 81
0.27930239 1.2737927 -0.0099827768 86
0.28025693 1.2720163 0.15270324 68
0.28952569 1.2588513 0.0096686333 90
0.294539 1.2494425 0.02847076 100
0.28672972 1.2640986 0.048981529 87
0.28769395 1.262289 0.068490572 50
0.29427236 1.2499428 0.10570818 73
0.28482398 1.2676754 -0.0098431576 87
0.28291935 1.2712499 0.1521856 77
0.29505461 1.2527298 0.0095290141 76
0.29629797 1.2503755 0.02847076 100
0.29970789 1.2439189 0.046889789 91
0.28486478 1.2720238 0.069709264 33
0.29419947 1.254349 0.10647142 81
0.28291437 1.2757169 -0.0099827768 86
0.29468232 1.2534347 0.14649157 81
0.29859659 1.2500738 0.009459204 93
0.29612321 1.2547969 0.028680105 100
0.28749922 1.271265 0.049504463 57
0.29674885 1.2536021 0.067028143 51
0.28653663 1.2731031 -0.0099129668 97
0.29278654 1.2611685 0.14856213 71
0.29558092 1.2597775 0.0096337283 90
0.29926577 1.2526839 0.047587037 90
0.29085457 1.2688762 0.15063268 70
0.29091728 1.2730402 0.049504463 57
0.29179844 1.2713293 -0.0098431576 100
0.29259756 1.2697778 0.15063268 70
0.29536879 1.2686656 0.0097733475 100
0.29811126 1.2632948 0.048458595 59
0.2926406 1.2740085 -0.0098780617 100
0.29610077 1.2672322 0.14959741 70
0.29982054 1.264199 0.0096686333 100
0.29526854 1.2775801 -0.0099129668 100
0.29793385 1.2811396 -0.0099478718 100
