# .PCD v0.7 - Point Cloud Data file format
VERSION 0.7
FIELDS x y z intensity
SIZE 4 4 4 4
TYPE F F F F
COUNT 1 1 1 1
WIDTH 731
HEIGHT 1
VIEWPOINT 0 0 0 1 0 0 0
POINTS 731
DATA ascii
-1.0782799 0.14885649 0.057046194 26
-1.1741056 0.16626377 0.020698555 25
-1.0924363 0.15820107 0.019267457 5
-1.0364923 0.15379535 0.018290121 6
-1.0161792 0.15440838 0.017941074 3
-1.084792 0.16871023 0.019162742 1
0.053570062 0.0064404607 0.047730394 47
0.046670973 0.0072408915 0.015951499 8
0.045866191 0.011504829 0.047730394 100
0.046555698 0.018247664 0.047416378 79
0.038216591 0.011820912 0.047939736 27
0.036696374 0.015263498 0.047835063 18
0.040517509 0.03201431 0.046997689 10
0.028951883 0.020589113 0.047835063 9
0.026339114 0.022412479 0.047835063 9
-1.0426445 1.1341792 0.028517231 3
-1.015393 1.1279478 0.084156215 5
-1.025172 1.1301839 0.14136662 6
-1.016042 1.1338532 0.028063469 10
-1.0024612 1.1306978 0.083528183 16
-1.0219646 1.1352292 0.1411923 30
-0.99147111 1.1335362 0.027644612 23
-0.99736875 1.134927 0.083318844 84
-1.0265622 1.141812 0.14171524 84
-0.99408215 1.1398463 0.027714422 38
-0.99025851 1.1389306 0.083004825 100
-1.0175045 1.1454566 0.14101799 95
-0.9966678 1.1461791 0.02778423 41
-0.97537655 1.1410007 0.08227212 100
-1.0065045 1.1485716 0.14014643 84
-0.98563832 1.1491789 0.027609708 25
-0.97988933 1.1477593 0.082586139 100
-0.98583072 1.1492263 0.13840333 92
-0.96678168 1.1504264 0.027295563 26
-0.98818082 1.1557935 0.083109498 60
-0.99795812 1.1582458 0.13962349 78
-0.96544451 1.1557186 0.027295563 39
-0.97908252 1.1591898 0.082690813 33
-0.99659353 1.1636468 0.13962349 71
-0.96602505 1.1615062 0.027330469 59
-0.97384709 1.1635262 0.082481466 56
-0.99520999 1.1690431 0.13962349 84
-0.96851808 1.1678092 0.027400278 64
-0.97246414 1.168843 0.082481466 100
-0.97646147 1.1698902 0.1380547 91
-0.95745701 1.1705399 0.027225753 78
-0.96720201 1.1731292 0.08227212 92
-0.96350282 1.1721463 0.13700883 99
-0.94832629 1.1737185 0.027086135 93
-0.96192867 1.1773835 0.082062781 100
-0.96593744 1.1784637 0.13735744 100
-0.95083743 1.1797382 0.027155945 92
-0.94515544 1.1781869 0.081225403 100
-0.9722628 1.1855874 0.1380547 99
-0.94554359 1.1839077 0.027086135 92
-0.93602186 1.1812725 0.080806717 100
-0.97080284 1.1908985 0.1380547 91
-0.95949262 1.1934465 0.027365373 96
-0.93650025 1.1869967 0.08091139 88
-0.96356934 1.1945901 0.13753176 94
-0.95031148 1.1965258 0.027225753 79
-0.93695682 1.1927291 0.081016064 80
-0.94674641 1.1955123 0.13613728 100
-0.95273215 1.202605 0.027295563 56
-0.93362743 1.1971052 0.08091139 42
-0.95107108 1.2021269 0.1366602 99
-0.94161433 1.2050483 0.027121039 39
-0.92829281 1.2011631 0.080702044 22
-0.959117 1.2101532 0.13753176 84
-0.93042153 1.2076778 0.026946515 68
-0.917126 1.203747 0.080178685 28
-0.9498511 1.2134221 0.13683452 84
-0.92696911 1.2122691 0.026911611 74
-0.9156031 1.2088656 0.080178685 28
-0.93493348 1.214654 0.13561434 92
-0.91983086 1.215168 0.026806897 78
-0.92568618 1.2169415 0.080806717 78
-0.92971557 1.2181618 0.13526571 100
-0.90297347 1.2156054 0.026527658 89
-0.92984551 1.2238467 0.081120729 100
-0.92433256 1.2221559 0.1349171 99
-0.9089691 1.2233012 0.026667276 85
-0.903377 1.2215637 0.07976 91
-0.92266542 1.2275566 0.1349171 80
-0.9073779 1.2283912 0.026667276 83
-0.90179187 1.2266341 0.07976 76
-0.91535741 1.230901 0.13439415 52
-0.91339082 1.2359021 0.026806897 83
-0.90399534 1.2329109 0.079969339 72
-0.9194352 1.2378265 0.1349171 42
-0.90033561 1.2373277 0.026597468 81
-0.90427166 1.238596 0.080074012 84
-0.90072578 1.2374535 0.13334829 48
-0.87968367 1.2361882 0.02624842 96
-0.90832359 1.245527 0.080388032 100
-0.9085564 1.2456028 0.13421984 57
-0.88192815 1.242179 0.02631823 100
-0.89156431 1.2453566 0.079550654 100
-0.90886337 1.251061 0.13439415 77
-0.89165264 1.2509717 0.026527658 100
-0.88421243 1.2484895 0.079236634 100
-0.91284531 1.2580421 0.1349171 85
-0.88626021 1.2544714 0.026457848 93
-0.88640279 1.2545196 0.07944598 100
-0.89800364 1.2584327 0.13369691 75
-0.87312013 1.2558558 0.02624842 93
-0.88083702 1.2584904 0.079236634 100
-0.89431816 1.2630929 0.1335226 95
-0.86015946 1.2566583 0.026038991 96
-0.88298529 1.2645357 0.07944598 100
-0.8926751 1.2678797 0.1335226 100
-0.86969358 1.2657793 0.02624842 77
-0.8604216 1.2625413 0.07829459 97
-0.8983646 1.2757915 0.13421984 61
-0.86992747 1.2711499 0.026283324 75
-0.85689706 1.2665509 0.078189917 57
-0.89855808 1.2812548 0.13439415 36
-0.86808115 1.2763507 0.026283324 83
-0.8475439 1.2690177 0.077771232 23
-0.8872928 1.2832108 0.1335226 39
-0.8569892 1.277657 0.0261088 99
-0.86091107 1.2790722 0.07860861 38
-0.86871582 1.2818882 0.13195379 28
-0.84393686 1.2784538 0.025899371 99
-0.8647545 1.2860473 0.078922622 82
-0.87253565 1.2888856 0.13247673 16
-0.84224302 1.2830734 0.025899371 100
-0.85179108 1.2865922 0.07829459 100
-0.85959023 1.2894664 0.13143086 11
-0.84419149 1.2893262 0.025969181 100
-0.83313471 1.2852077 0.077352546 91
-0.90257794 1.3110747 0.13561434 1
-0.84620482 1.2953551 0.026038991 100
-0.82394141 1.286978 0.076933853 51
-0.88212818 1.3088722 0.13387123 1
-0.83679396 1.2976246 0.025899371 83
-0.8463046 1.3012431 0.07829459 53
-0.83917588 1.2985308 0.13003637 11
-0.82197028 1.2971995 0.025655037 74
-0.84267098 1.3051541 0.078189917 59
-0.85973328 1.3117106 0.1321281 48
-0.8312127 1.3065692 0.025864467 75
-0.82952982 1.3059156 0.077561885 68
-0.85773832 1.3168738 0.1321281 100
-0.82942575 1.3111465 0.025864467 90
-0.81472999 1.3053814 0.07682918 60
-0.84849793 1.3186285 0.13143086 99
-0.83310539 1.3181686 0.025969181 99
-0.82956356 1.316765 0.077771232 85
-0.82990438 1.3169 0.12986206 100
-0.8127144 1.3153228 0.025620133 100
-0.82588857 1.3205948 0.077666558 91
-0.82993299 1.3222132 0.13003637 97
-0.80699891 1.3188143 0.025550323 100
-0.8238613 1.3256339 0.077666558 95
-0.82974678 1.3280141 0.13021068 100
-0.80887419 1.3248229 0.025620133 100
-0.81091672 1.3256569 0.077038527 100
-0.83711165 1.3363521 0.13108224 100
-0.78976172 1.3170195 0.1776855 22
-0.8141275 1.3330885 0.025759751 100
-0.7940039 1.3247819 0.076201156 100
-0.82940179 1.3393935 0.1305593 100
-0.78031188 1.3191299 0.17671055 16
-0.8122527 1.3376091 0.025759751 100
-0.79953128 1.3323084 0.076619841 100
-0.81279296 1.3378341 0.12916481 100
-0.80230457 1.3334639 0.17987914 22
-0.79183131 1.3346052 0.025410704 100
-0.7994011 1.3377903 0.076724514 99
-0.81080264 1.3425877 0.12916481 100
-0.79301065 1.3351014 0.17890419 24
-0.78985232 1.3392856 0.025410704 99
-0.79924911 1.3432782 0.07682918 72
-0.80329436 1.3449969 0.12864187 100
-0.75997061 1.3265893 0.17476064 16
-0.80990952 1.35342 0.025829561 56
-0.81375915 1.3550715 0.077771232 48
-0.80860299 1.3528595 0.12933913 35
-0.76166838 1.3327239 0.17524812 5
-0.81520456 1.3613427 0.025969181 86
-0.80621034 1.3574468 0.077457212 93
-0.83581215 1.3702688 0.1321281 46
-0.79430562 1.3522902 0.17987914 15
-0.80569988 1.3631363 0.025829561 100
-0.80953759 1.3648152 0.077771232 100
-0.81900007 1.3689553 0.13073361 100
-0.78670639 1.3548263 0.17914793 26
-0.79447514 1.3638253 0.025655037 100
-0.80745298 1.3695574 0.077771232 100
-0.80596584 1.3689005 0.12968774 100
-0.79373616 1.3634989 0.18036664 31
-0.78701895 1.3658385 0.025550323 100
-0.80728167 1.3748685 0.077875905 100
-0.80943185 1.3758268 0.13021068 100
-0.76274961 1.3550229 0.17646681 22
-0.79587299 1.3754241 0.025759751 100
-0.79787618 1.3763251 0.077457212 100
-0.81457692 1.3838378 0.13090792 100
-0.76975125 1.3636736 0.1776855 22
-0.79932076 1.3823631 0.025864467 100
-0.8067705 1.3857439 0.078085244 100
-0.81253392 1.3883595 0.13090792 100
-0.79127473 1.3787115 0.18085411 24
-0.80444723 1.3904003 0.026004085 100
-0.80824453 1.3921397 0.07829459 100
-0.80674428 1.3914526 0.1305593 100
-0.78192276 1.3800831 0.17987914 15
-0.79138249 1.3900899 0.025794657 100
-0.81331629 1.4002292 0.078713275 100
-0.79371578 1.3911684 0.12951343 100
-0.76897377 1.3797308 0.17841671 12
-0.791022 1.3956138 0.025829561 100
-0.81291801 1.4058287 0.078817949 100
-0.79876155 1.3992245 0.13021068 100
-0.77403325 1.3876882 0.17939167 8
-0.7888301 1.400291 0.025829561 100
-0.80346221 1.4071795 0.078399263 100
-0.80376738 1.4073231 0.13090792 100
-0.76109284 1.387233 0.17792924 3
-0.80287796 1.412683 0.026143705 100
-0.80303377 1.4127572 0.078503937 100
-0.81233233 1.4171743 0.13195379 100
-0.76430947 1.3943611 0.17866045 3
-0.79690725 1.415908 0.026073895 100
-0.8006689 1.4177119 0.078503937 100
-0.80276519 1.4187171 0.13125655 100
-0.79104418 1.4188638 0.026004085 100
-0.81098479 1.4285119 0.079236634 100
-0.80049247 1.4234352 0.13125655 100
-0.78708798 1.4224303 0.025969181 100
-0.8087936 1.4330215 0.079236634 100
-0.80548066 1.4314049 0.13195379 100
-0.79197878 1.4306264 0.0261088 100
-0.80109519 1.4351141 0.078922622 100
-0.81031376 1.4396522 0.13265105 100
-0.79682857 1.4388645 0.02624842 100
-0.79339892 1.4371612 0.07860861 100
-0.80796796 1.4443965 0.13265105 100
-0.79806131 1.4453532 0.02631823 100
-0.79284757 1.4427412 0.078713275 100
-0.80382425 1.4482403 0.13247673 100
-0.79212624 1.4482508 0.02624842 100
-0.79762131 1.4510278 0.079131968 100
-0.80322665 1.4538605 0.13265105 100
-0.78975052 1.4529315 0.02624842 100
-0.80947119 1.4629841 0.079969339 100
-0.80970675 1.4631041 0.1335226 100
-0.78747851 1.4573705 0.02624842 100
-0.79828376 1.4629238 0.07944598 100
-0.81094497 1.4694307 0.13387123 100
-0.79927379 1.4693971 0.026527658 100
-0.78699082 1.4630301 0.078922622 100
-0.81557065 1.4778446 0.13456847 100
-0.79327995 1.4722497 0.026457848 100
-0.79872328 1.4750955 0.07976 100
-0.80779451 1.4798379 0.13404553 100
-0.78374499 1.4732039 0.02631823 93
-0.79448718 1.4788677 0.079655327 100
-0.80530852 1.4845731 0.13404553 100
-0.78834468 1.4816105 0.026457848 28
-0.79024106 1.4826188 0.079550654 25
-0.79752833 1.4864936 0.1335226 60
0.13055867 1.2892628 0.12975012 5
0.16590869 1.2489102 0.010715778 13
0.10389727 1.32623 0.037367873 23
0.12368307 1.3015599 0.059614528 21
0.13605872 1.2861291 0.12860526 17
0.18057284 1.230626 0.13632034 7
0.12092382 1.3050003 0.18376152 6
0.15263483 1.26902 0.011134636 37
0.16556036 1.2527878 0.032343622 60
0.15656883 1.2640796 0.055256739 49
0.14935383 1.2731403 0.078971334 14
0.17100286 1.245953 0.096363634 25
0.14886948 1.2737485 0.12517071 72
0.18582472 1.2273393 0.13497064 15
0.13964149 1.2853372 0.1765146 13
0.16421553 1.2577873 0.010855397 100
0.16592452 1.2556264 0.032448292 100
0.16068128 1.262256 0.054908119 100
0.15348732 1.2713521 0.078483857 28
0.17258328 1.2472072 0.096363634 25
0.16028506 1.2627571 0.12211776 100
0.18129903 1.2361869 0.13722014 45
0.15932837 1.2639667 0.16875002 36
0.16715556 1.2575582 0.010820492 100
0.167622 1.2569642 0.032448292 100
0.15871054 1.2683131 0.055431053 100
0.1748552 1.2477527 0.074584037 30
0.17669126 1.2454144 0.095737889 38
0.17413226 1.2486733 0.11830158 100
0.18774262 1.2313403 0.13542053 45
0.15031728 1.2790021 0.17340876 42
0.17123398 1.2556714 0.010750682 100
0.1864346 1.2361805 0.030982886 95
0.15178829 1.2806056 0.056651235 95
0.1727792 1.25369 0.075315252 30
0.16855142 1.2591112 0.098240845 24
0.17813635 1.2468209 0.11753834 100
0.18448079 1.2386857 0.13722014 30
0.15081933 1.281848 0.1739264 49
0.16567278 1.2665445 0.010960111 77
0.17347589 1.2564629 0.032238949 60
0.16097942 1.2726083 0.055605363 73
0.16847938 1.2629184 0.076533951 29
0.16309214 1.2698786 0.10011806 24
0.17748314 1.2512857 0.11830158 32
0.19335777 1.230776 0.13452072 31
0.14087358 1.2985847 0.17910278 33
0.17097765 1.2630601 0.010855397 65
0.17143944 1.2624593 0.032552965 29
0.16143402 1.275475 0.055779677 49
0.16890624 1.2657547 0.076777689 100
0.18882993 1.2398365 0.093860678 52
0.1790812 1.2525184 0.11830158 13
0.19013706 1.2381361 0.13632034 22
0.15087029 1.2892172 0.17547931 56
0.18483287 1.2484837 0.010506349 54
0.16589054 1.273304 0.033180997 28
0.17407954 1.2625738 0.054210871 51
0.18268228 1.2513015 0.074340299 61
0.19406745 1.2363834 0.092922069 53
0.18910527 1.2428854 0.11563025 13
0.203596 1.2238979 0.13182132 31
0.17612553 1.2598929 0.16512655 61
0.17675838 1.2624412 0.010785587 39
0.1772131 1.2618413 0.032343622 30
0.17090109 1.270169 0.054908119 50
0.18907666 1.2461889 0.073365346 62
0.19442278 1.2391355 0.093234941 53
0.20372018 1.2268687 0.11143246 14
0.19686323 1.2359155 0.13497064 45
0.17075062 1.2703676 0.16823238 75
0.17865196 1.2638707 0.010785587 39
0.1695019 1.2760397 0.033180997 28
0.17282438 1.271621 0.054908119 50
0.18852177 1.2507445 0.073852822 46
0.19266525 1.2452338 0.094173551 52
0.20783672 1.2250566 0.11066922 14
0.20919517 1.22325 0.13092151 40
0.16803068 1.2779963 0.17030293 72
0.18747053 1.2554858 0.010576159 67
0.1998623 1.2388912 0.03066887 32
0.17091361 1.2776582 0.055431053 49
0.20080751 1.2376255 0.071659178 80
0.19424316 1.2464162 0.094173551 52
0.19995034 1.2387733 0.11372216 13
0.21769595 1.2150091 0.12822211 32
0.17896435 1.2668769 0.16616182 68
0.18083134 1.2679933 0.010820492 78
0.19436467 1.2497374 0.031296901 62
0.18218011 1.2661738 0.054036561 51
0.18589157 1.2611673 0.075071514 75
0.20767218 1.2317861 0.091044858 68
0.19925046 1.2431467 0.1144854 13
0.21460927 1.2224283 0.13002171 32
0.18645334 1.2604095 0.16357364 85
0.18959796 1.2595526 0.010611063 81
0.20187795 1.242872 0.030773543 64
0.18618992 1.264182 0.053687938 78
0.19458359 1.2527803 0.073609084 62
0.20100757 1.2440543 0.093234941 92
0.20314926 1.2411451 0.11372216 13
0.21149012 1.2298154 0.13182132 23
0.18579099 1.2647238 0.16460891 69
0.19847241 1.2511821 0.010401634 97
0.20950437 1.2360811 0.030250182 65
0.1774258 1.2799914 0.055256739 99
0.20103949 1.2476681 0.072634131 63
0.20507798 1.2421402 0.092609204 93
0.21066904 1.2344869 0.11181407 14
0.2258229 1.2137438 0.12687239 16
0.19558388 1.255136 0.16098544 72
0.19772148 1.2555823 0.010471444 96
0.20870617 1.240441 0.030459527 65
0.18613887 1.2715478 0.054210871 100
0.20612249 1.2440023 0.071902916 48
0.20432559 1.2464792 0.093234941 100
0.21451694 1.2324314 0.11105084 14
0.2444613 1.1911559 0.12012386 8
0.18925366 1.2672544 0.16460891 69
0.1995036 1.2568703 0.010471444 96
0.21043271 1.2416887 0.030459527 65
0.18565148 1.2761121 0.054559495 100
0.21134147 1.2404263 0.071171694 81
0.21299896 1.2381239 0.09135773 94
0.21392003 1.2368445 0.11181407 14
0.23462144 1.2080884 0.12462288 16
0.19333598 1.2654376 0.16357364 69
0.20112005 1.2580298 0.010471444 96
0.21083724 1.244437 0.030564198 97
0.1942839 1.2675925 0.053513627 100
0.19789559 1.2625403 0.074340299 100
0.22029713 1.231204 0.089793384 83
0.20062736 1.258719 0.1167751 19
0.23947585 1.204376 0.12327318 17
0.19273391 1.2697607 0.16460891 69
0.2051402 1.255983 0.010401634 83
0.21480706 1.2423604 0.030354854 97
0.19602299 1.2688313 0.053513627 100
0.20306343 1.2589097 0.073609084 62
0.21390682 1.243629 0.091983467 100
0.21028852 1.2487279 0.11410378 27
0.22746086 1.2245283 0.128672 16
0.20454243 1.2568254 0.15995017 72
0.21366468 1.2473161 0.010192205 99
0.22097704 1.2369386 0.029936166 99
0.19767913 1.2700022 0.053513627 100
0.21269056 1.2486985 0.071902916 48
0.21661711 1.2431262 0.091670595 100
0.19943863 1.2675052 0.11830158 65
0.22111255 1.2367463 0.13182132 31
0.20170769 1.2642851 0.16202073 70
0.20624971 1.2616565 0.010471444 82
0.22383511 1.2365046 0.029831495 66
0.19494751 1.2778218 0.054210871 100
0.21558481 1.2483047 0.071659178 64
0.21835345 1.2443448 0.091670595 100
0.20801416 1.2591329 0.11601187 100
0.2306419 1.226769 0.128672 65
0.20794952 1.2592252 0.15995017 72
0.21244359 1.2562231 0.010331824 98
0.22766188 1.2343023 0.029622151 100
0.19890592 1.275723 0.053862248 100
0.21717277 1.2494111 0.071659178 64
0.21992823 1.245442 0.091670595 100
0.21635574 1.2505879 0.11372216 100
0.23215836 1.2278255 0.128672 81
0.2029635 1.2698784 0.163056 70
0.20288429 1.2739252 0.010680873 93
0.22370088 1.2437047 0.030145511 98
0.20980361 1.26388 0.052467756 100
0.2200582 1.2489929 0.071415432 48
0.22727591 1.2385147 0.090106249 100
0.21700573 1.2534244 0.11410378 89
0.22831121 1.2370117 0.13092151 88
0.21137327 1.2616013 0.15995017 72
0.21358845 1.261869 0.010401634 83
0.22865611 1.2398385 0.029831495 66
0.21594232 1.2584274 0.051770512 100
0.22164842 1.2500844 0.071415432 48
0.22102514 1.2509958 0.092296332 100
0.2241523 1.2464235 0.11219569 100
0.23316205 1.2332503 0.12957181 96
0.21954891 1.2531542 0.15684435 82
0.2210077 1.2548251 0.01022711 56
0.21580118 1.2624979 0.03119223 63
0.20990357 1.271189 0.05299069 79
0.21895167 1.2578552 0.072390392 95
0.23166376 1.2391217 0.089793384 100
0.22590065 1.2476146 0.11219569 100
0.225014 1.2489212 0.13362093 93
0.21264401 1.2671505 0.16098544 80
0.22261727 1.2559135 0.01022711 42
0.22748005 1.248696 0.030250182 32
0.2037746 1.2838805 0.054210871 51
0.22833559 1.2474262 0.070684217 65
0.23653245 1.23526 0.088854775 100
0.23297119 1.2405457 0.1102876 85
0.23313722 1.2402993 0.13092151 96
0.21861222 1.2618579 0.15891489 73
0.21773285 1.2670851 0.010436539 41
0.23367637 1.243233 0.029831495 33
0.220054 1.2636125 0.051944822 54
0.23450017 1.2420005 0.069709264 66
0.23823982 1.2364058 0.088854775 98
0.22815189 1.2514977 0.1125773 89
0.24569252 1.2252563 0.12642249 100
0.21612298 1.2694936 0.16098544 72
0.2149601 1.2748489 0.010576159 40
0.2175771 1.2709055 0.031506244 31
0.22059101 1.2663641 0.052119136 54
0.23167646 1.2496601 0.070684217 81
0.24197277 1.2341453 0.088229038 98
0.22757918 1.2558341 0.11334054 82
0.23966092 1.2376289 0.12957181 96
0.22098586 1.265769 0.15943253 73
0.22763819 1.2592589 0.01022711 42
0.21044901 1.2853475 0.032343622 30
0.223335 1.26579 0.051944822 54
0.23436099 1.2490554 0.070440479 98
0.24242681 1.2368138 0.08854191 98
0.23675317 1.2454247 0.11066922 100
0.24442986 1.2337736 0.12822211 97
0.2300719 1.2555652 0.15580906 75
0.22050506 1.2737129 0.010506349 40
0.21215984 1.2864707 0.032343622 30
0.2184369 1.2768745 0.05299069 52
0.23051798 1.2584057 0.071659178 80
0.24613923 1.2345248 0.087916173 98
0.24477977 1.2366031 0.10837951 94
0.23850206 1.2462001 0.13137141 94
0.22956881 1.2598568 0.15684435 74
0.23114747 1.261553 0.01022711 42
0.24023122 1.2475493 0.029831495 33
0.21821707 1.281487 0.053339314 52
0.24319854 1.2429748 0.069221787 100
0.2425501 1.2439744 0.089480512 97
0.24230003 1.24436 0.10990598 85
0.24669585 1.2375833 0.128672 89
0.22934943 1.264325 0.15787962 81
0.23277929 1.2626078 0.01022711 42
0.24830461 1.2384987 0.029203463 34
0.22422987 1.2758839 0.05264207 53
0.24261916 1.2473276 0.069709264 66
0.24947104 1.2366873 0.087916173 84
0.23962301 1.2519802 0.11143246 84
0.25246838 1.2320328 0.12687239 90
0.22785264 1.2702582 0.15943253 73
0.23889288 1.2570262 0.010087491 71
0.24894857 1.2412845 0.029308135 68
0.22823134 1.2737164 0.052293446 53
0.24543932 1.246778 0.069465525 49
0.25118357 1.2377857 0.087916173 56
0.2445623 1.2481511 0.1102876 78
0.25206569 1.2364048 0.1277722 89
0.23696816 1.2600393 0.15580906 75
0.24265143 1.2546778 0.010017681 72
0.24516508 1.2507138 0.029831495 66
0.24484134 1.2512243 0.049853086 57
0.24702206 1.2477853 0.069465525 49
0.25062069 1.2421105 0.08854191 84
0.24509817 1.2508193 0.11066922 92
0.2546576 1.2357445 0.1273223 81
0.23445663 1.2676007 0.15787962 65
0.24762404 1.2507229 0.0099129668 87
0.24799246 1.2501372 0.029726824 100
0.23918146 1.264145 0.051073264 83
0.24771833 1.2505729 0.069709264 66
0.25024956 1.2465488 0.089167647 56
0.25627023 1.236977 0.10723466 81
0.25532904 1.2384733 0.1277722 89
0.23422539 1.2720244 0.15891489 65
0.24604258 1.2568116 0.010017681 87
0.25170189 1.2477478 0.029517479 100
0.22815925 1.2854532 0.053165004 79
0.24510825 1.2583081 0.070684217 81
0.25601631 1.2408378 0.087916173 56
0.245343 1.2579321 0.11181407 98
0.25894839 1.2361419 0.12687239 99
0.23691505 1.27143 0.15839726 65
0.25309318 1.249422 0.0098431576 88
0.2597644 1.2386498 0.028889447 100
0.23529571 1.27816 0.052293446 80
0.24794519 1.2577345 0.070440479 49
0.2598241 1.2385534 0.087290429 57
0.25747013 1.2423544 0.10799789 79
0.26784104 1.2256083 0.12372308 100
0.231635 1.284071 0.16202073 63
0.24421248 1.2674395 0.010192205 85
0.25295255 1.2532216 0.029726824 100
0.24845985 1.2605301 0.05037602 100
0.25372252 1.2519691 0.069465525 66
0.26551741 1.2327818 0.086038955 58
0.24567237 1.2650646 0.11295892 75
0.26833293 1.2282016 0.12417299 75
0.24548173 1.2653748 0.15580906 67
0.2553221 1.253139 0.0098780617 73
0.2588011 1.2474351 0.029308135 100
0.24913651 1.2632806 0.05055033 84
0.25333938 1.2563899 0.069953002 49
0.26816314 1.2320855 0.08572609 58
0.25558066 1.2527151 0.10990598 78
0.26688987 1.2341731 0.12552269 90
0.24721277 1.2664347 0.15580906 67
0.25899705 1.2506922 0.0098082526 74
0.25831726 1.2518152 0.029517479 100
0.25077394 1.2642757 0.05055033 84
0.25495395 1.2573709 0.069953002 49
0.26969704 1.2330176 0.08572609 58
0.26124993 1.2469709 0.10837951 79
0.26338464 1.2434447 0.1277722 97
0.25286251 1.2608256 0.15373851 68
0.25861752 1.2551336 0.0098780617 88
0.26205763 1.2494061 0.029308135 100
0.2525011 1.2653171 0.05055033 84
0.26278961 1.2481874 0.068490572 50
0.26622948 1.2424603 0.087290429 71
0.26291662 1.2479759 0.10837951 79
0.26905254 1.2377599 0.12597258 82
0.24463075 1.2784207 0.15891489 65
0.2571561 1.2612503 0.0099827768 87
0.26773971 1.2434961 0.028889447 100
0.25414526 1.2663009 0.05055033 100
0.2603111 1.2559576 0.069465525 49
0.27386665 1.233218 0.085413218 87
0.26048213 1.2556708 0.10990598 78
0.2775901 1.2269719 0.12282328 93
0.2482968 1.2761118 0.15787962 65
0.25904453 1.2623711 0.0099827768 87
0.26955989 1.2445763 0.028889447 100
0.25402588 1.2708638 0.050898954 83
0.26621875 1.2502303 0.068490572 67
0.27564731 1.2342749 0.085413218 58
0.2623491 1.2567788 0.10990598 78
0.27538115 1.2347252 0.12462288 83
0.26514849 1.2520416 -0.0097733475 88
0.25810486 1.2639612 0.15373851 68
0.26674855 1.2529836 0.0097733475 89
0.2691144 1.2489494 0.029098792 100
0.25972009 1.264968 0.050201707 85
0.26379591 1.2580181 0.069465525 49
0.27319115 1.241998 0.086664692 57
0.26992399 1.247569 0.10761628 79
0.27692375 1.2356334 0.12462288 83
0.26169908 1.2615936 0.15270324 68
0.27145296 1.2487839 0.0096686333 75
0.26877925 1.2533797 0.029308135 100
0.26445535 1.2608118 0.049678773 86
0.2664994 1.2572985 0.069221787 50
0.27484044 1.2429613 0.086664692 57
0.27455449 1.2434528 0.10647142 81
0.27659085 1.2399526 0.12552269 82
0.2634168 1.262597 0.15270324 68
0.26704311 1.2600957 0.0098780617 73
0.28037003 1.2370129 0.028261416 100
0.26209974 1.2686579 0.05037602 100
0.27506474 1.2462019 0.067515619 51
0.28036109 1.2370282 0.085413218 58
0.27219951 1.2511646 0.10799789 79
0.28594571 1.2273555 0.12192347 85
0.25829041 1.2752558 0.1563267 74
0.27380878 1.2524524 0.0097035384 90
0.27414528 1.2518644 0.029098792 100
0.26392934 1.2697097 0.05037602 84
0.27681193 1.2472063 0.067515619 51
0.28501889 1.2328705 0.084474608 59
0.27689111 1.247068 0.10685304 88
0.29149652 1.2215552 0.12012386 77
0.26302359 1.271292 0.15477379 67
0.26948377 1.2637979 0.0099129668 87
0.28166389 1.242357 0.02847076 100
0.26460388 1.272388 0.05055033 84
0.26368812 1.274 0.071171694 81
0.28557956 1.2354641 0.084787481 59
0.27459568 1.2547992 0.10837951 87
0.28914508 1.2291877 0.12192347 85
0.2734347 1.256843 -0.0097733475 88
0.26850441 1.2655219 0.15270324 68
0.27423957 1.2595958 0.0098082526 74
0.27947634 1.2502981 0.028889447 100
0.27329153 1.2612789 0.049330149 87
0.26943403 1.2681277 0.07019674 82
0.2853485 1.2398725 0.085413218 58
0.28119177 1.2472525 0.10647142 81
0.28987348 1.2318387 0.12237337 76
0.27129552 1.2648227 -0.0099129668 87
0.27032247 1.2665503 0.15270324 76
0.27976692 1.2535251 0.0096686333 90
0.27717301 1.2581664 0.029308135 100
0.27395019 1.2639329 0.049504463 86
0.28174034 1.2499942 0.067515619 51
0.28498068 1.2441962 0.086038955 72
0.28564924 1.243 0.10532656 90
0.29045573 1.2343998 0.12282328 85
0.27197063 1.267475 0.15270324 68
0.2766951 1.2632581 0.0098431576 88
0.28477198 1.2486811 0.028680105 100
0.27865928 1.2597132 0.048981529 87
0.28734976 1.2440287 0.066540658 52
0.28959262 1.2399807 0.085100345 58
0.28453013 1.2491175 0.10647142 81
0.29593745 1.2285297 0.12102367 77
0.27379584 1.2684907 0.15270324 68
0.27745551 1.2659616 0.0098780617 88
0.29413956 1.2356009 0.027842728 100
0.27077499 1.2781185 0.05072464 84
0.28135785 1.2588603 0.068490572 50
0.28933206 1.2443492 0.08572609 58
0.28620419 1.2500412 0.10647142 81
0.2984781 1.2277058 0.12057377 86
0.27456635 1.2712191 -0.0099827768 86
0.26809451 1.2829962 0.15684435 66
0.28397307 1.2581306 0.0097035384 90
0.28812024 1.2505209 0.028680105 100
0.27827096 1.2685933 0.049678773 86
0.28306594 1.2597951 0.068490572 50
0.29193476 1.2435218 0.085413218 58
0.2822445 1.2613024 0.10876112 79
0.27823147 1.2686658 -0.0099129668 87
0.28282946 1.260229 0.14959741 78
0.28948176 1.2520194 0.0095639192 91
0.28979915 1.2514322 0.028680105 100
0.28569698 1.2590222 0.048632905 88
0.29044038 1.2502458 0.067028143 51
0.28769499 1.2553254 0.10723466 81
0.2818754 1.266093 -0.0098431576 87
0.28362375 1.2628582 0.15011504 78
0.28919172 1.2564054 0.0096337283 90
0.28950948 1.2558128 0.028889447 100
0.29014459 1.2546283 0.048109971 89
0.29484853 1.2458555 0.06629692 35
0.29672772 1.2423508 0.10418171 82
0.29952103 1.2371414 0.12237337 76
0.27974215 1.2740288 -0.0099827768 86
0.28617251 1.2620362 0.14959741 78
0.28995237 1.2590785 0.0096686333 75
0.2968328 1.2461382 0.028261416 100
0.28341952 1.2713649 0.049678773 86
0.29185143 1.2555069 0.067515619 51
0.29775178 1.2444099 0.085100345 58
0.29284793 1.2536328 0.10647142 81
0.28426382 1.2697771 0.15166797 69
0.28988203 1.2635664 0.0097384425 75
0.28154323 1.279389 0.05037602 84
0.29548365 1.2529376 0.067028143 51
0.29736826 1.2493615 0.10532656 75
0.28522044 1.2724116 -0.0099129668 87
0.28339532 1.2758749 0.15322088 76
0.29160649 1.2644714 0.0097384425 75
0.29531881 1.2573674 0.048109971 59
0.29349345 1.2608604 0.068003096 51
0.29722455 1.2537205 0.1060898 73
0.29438493 1.2591544 -0.0096337283 89
0.29142582 1.2648171 0.14959741 78
0.29977375 1.2529416 0.0094941091 92
0.29703489 1.2582277 0.067515619 51
0.28965428 1.2724724 -0.0098780617 97
0.29670957 1.2588556 0.14752686 71
0.29874068 1.2591077 0.067515619 51
0.29665205 1.2631735 0.14856213 79
0.29952127 1.2618043 0.0096337283 100
0.29982641 1.2612052 0.028889447 100
0.29772374 1.2653338 0.048632905 59
0.29399139 1.272662 0.15115032 77
0.29496425 1.275104 0.049504463 57
0.29402906 1.2769562 -0.0099129668 100
0.29661828 1.2718282 0.15063268 78
0.29580021 1.2778466 -0.0099129668 100
0.29579684 1.2823135 -0.0099827768 100
