# .PCD v0.7 - Point Cloud Data file format
VERSION 0.7
FIELDS x y z intensity
SIZE 4 4 4 4
TYPE F F F F
COUNT 1 1 1 1
WIDTH 808
HEIGHT 1
VIEWPOINT 0 0 0 1 0 0 0
POINTS 808
DATA ascii
0.17499641 0.9844144 0.017452406 4
0.17521982 0.96608919 0.017138263 4
0.18150087 0.98120236 0.017417502 6
0.18529539 0.98252785 0.017452406 6
0.18721412 0.97402006 0.017312787 7
0.19099724 0.97532308 0.017347692 8
0.1936183 0.97072828 0.017277882 7
0.19979154 0.98376435 0.017522216 10
0.20403396 0.98697752 0.017592026 10
0.20665458 0.98234558 0.017522216 16
0.2121748 0.99139529 0.01769674 19
0.21605943 0.99260259 0.017731644 22
0.2206452 0.99773824 0.01783636 22
0.2228108 0.99110895 0.017731644 15
0.2235966 0.9786284 0.017522216 10
0.22791572 0.98173773 0.017592026 9
0.23455431 0.9945603 0.01783636 9
0.23942195 0.99956954 0.017941074 12
0.23865636 0.98124027 0.01762693 9
0.2430388 0.98428398 0.01769674 9
0.24775887 0.98929197 0.017801454 9
0.25564376 1.0058639 0.018115599 13
0.25515866 0.98947459 0.01783636 8
0.26265973 1.0040547 0.018115599 8
0.26154739 0.98573631 0.017801454 9
0.26602581 0.98867935 0.017871264 11
0.27175876 0.99748558 0.018045789 14
0.27896562 1.0100236 0.018290121 16
0.28536287 1.0186222 0.018464645 13
0.28400138 1.0003068 0.018150503 11
0.2852799 0.99162239 0.018010883 11
0.29489487 1.0117384 0.018394837 12
-1.1722412 0.16516505 0.020663649 25
-1.1451026 0.16134131 0.060605038 31
-1.112283 0.16067877 0.019616505 4
-1.06424 0.1575329 0.01877879 6
-1.0201873 0.15465309 0.018010883 4
-1.1046113 0.1713977 0.019511791 51
0.11929187 0.0269894 0.045008924 13
0.054967642 0.0042104721 0.015916595 128
0.054486483 0.0034661293 0.047835063 57
0.051813811 0.0052004457 0.047835063 43
0.045993388 0.0018470287 0.048149079 26
0.041112125 0.00027889013 0.048358422 100
0.036597133 0.0056878328 0.048253752 61
0.052100539 0.033775508 0.046579 33
0.038287222 0.019012749 0.047625721 19
0.030016959 0.01257062 0.048149079 17
0.025883675 0.01785785 0.04804441 9
0.027851701 0.026230574 0.047625721 9
-0.42968041 0.83524203 0.017138263 2
-0.43343633 0.83894104 0.017208073 2
-0.42123634 0.84132314 0.016998643 5
-0.40104342 0.84317881 0.016649596 26
-0.40277547 0.84665847 0.016684501 21
-0.39453137 0.84931451 0.016544882 23
-0.40221709 0.8533082 0.016684501 25
-0.38399726 0.85500038 0.016370358 29
-0.37772244 0.85769558 0.016265642 31
-0.37741065 0.86093342 0.016265642 27
-0.37312502 0.86360484 0.016195834 28
-0.37279266 0.86682653 0.016195834 28
-0.35851556 0.86869633 0.015951499 35
-0.36611444 0.87275869 0.016091119 33
-0.36976016 0.87609452 0.016160928 32
-0.3634271 0.87859619 0.016056214 29
-0.36304247 0.88178396 0.016056214 25
-0.3626467 0.88497043 0.016056214 25
-0.35428685 0.88728583 0.015916595 35
-0.36180061 0.89149821 0.016056214 34
-0.36141443 0.89436209 0.016056214 34
-0.35303116 0.89659131 0.015916595 30
-0.3565197 0.90046996 0.015986403 26
-0.33823127 0.90116256 0.015672261 24
-0.34767771 0.90560073 0.015846785 31
-0.35310316 0.90980774 0.015951499 39
-0.35268438 0.91248667 0.015951499 43
-0.33636338 0.91324204 0.015672261 43
-0.32799149 0.91487825 0.015532642 46
-0.34125721 0.92042488 0.015776975 46
-0.34666556 0.92439759 0.015881689 40
-0.3421548 0.92698985 0.015811881 46
-0.33772051 0.92908639 0.015742071 57
-0.32139522 0.92945933 0.015462833 63
-0.33262783 0.93470103 0.015672261 53
-0.33398265 0.93830895 0.015707165 38
-0.31774378 0.93804371 0.015427927 36
-0.31712204 0.94122303 0.015427927 47
-0.30867726 0.9426719 0.015288308 60
-0.3178336 0.94782495 0.015462833 63
-0.32118613 0.95136559 0.015532642 51
-0.3146469 0.95331323 0.015427927 42
-0.30031842 0.95337933 0.015183593 45
-0.2996406 0.95649469 0.015183593 45
-0.29905051 0.95916301 0.015183593 33
-0.30036896 0.96241885 0.015218498 39
-1.0220451 1.1257174 0.084470235 3
-1.0512476 1.1323253 0.14363267 4
-0.31528276 0.96897107 0.015497737 35
-1.0149546 1.12986 0.084156215 5
-1.022789 1.1316615 0.1411923 9
-0.29514486 0.96729344 0.015148689 40
-1.0137525 1.1350477 0.084156215 48
-1.0099399 1.1341575 0.14014643 45
-0.28663343 0.96854281 0.01500907 36
-1.0046308 1.138932 0.08373753 100
-1.0124717 1.1407926 0.14049506 91
-0.2820822 0.97037971 0.01493926 42
-0.99369019 1.1417472 0.083214171 100
-1.0151076 1.1469049 0.14084367 92
-0.30461431 0.97928089 0.015358117 32
-0.97091204 1.1424462 0.082062781 100
-1.005908 1.1510161 0.14014643 84
-0.29615271 0.98018539 0.015218498 33
-0.96773022 1.1470062 0.081958108 88
-0.99690145 1.1542523 0.13944919 91
-0.27796268 0.97873813 0.014904355 36
-0.98189837 1.1562078 0.082795486 43
-0.99361879 1.1591625 0.13927488 78
-0.27532858 0.98098731 0.014869451 43
-0.98834926 1.1632643 0.083214171 31
-0.97108632 1.1588511 0.13735744 80
-0.28229195 0.98602039 0.01500907 42
-0.97916478 1.1668929 0.082795486 73
-0.98893577 1.1694289 0.13910057 91
-0.28543878 0.98979676 0.015078879 41
-0.96431953 1.1684045 0.082062781 98
-0.98374921 1.1735163 0.13875194 91
-0.30008364 0.9969843 0.015358117 37
-0.95706016 1.1724063 0.081748761 94
-0.97071022 1.176051 0.13770607 100
-0.27616286 0.99353468 0.01493926 42
-0.95378953 1.17688 0.081644088 100
-0.95973915 1.1784898 0.13683452 100
-0.25991112 0.99232644 0.014660021 46
-0.9561401 1.1834464 0.081853434 100
-0.96015316 1.1845479 0.13700883 99
-0.27458215 0.9992969 0.01493926 42
-0.93936688 1.1841578 0.081016064 98
-0.96644837 1.1916887 0.13770607 92
-0.28151649 1.0041986 0.015078879 35
-0.93414026 1.1880116 0.080806717 86
-0.9592883 1.1950946 0.13718314 98
-0.27688926 1.0058577 0.01500907 42
-0.94042856 1.1951222 0.081225403 70
-0.9463746 1.1968182 0.13613728 100
-0.27977735 1.0102875 0.015078879 47
-0.93487316 1.1999907 0.081016064 34
-0.94082159 1.2017133 0.13578865 98
-0.28089494 1.0136005 0.015113784 51
-0.93152255 1.2043505 0.08091139 22
-0.94511753 1.2083362 0.13631158 84
-0.28391665 1.0174924 0.015183593 16
-0.91858572 1.2058514 0.080283359 28
-0.9417457 1.2127249 0.13613728 87
-0.30990344 1.0283105 0.015672261 14
-0.92095798 1.2118683 0.080492698 38
-0.93645304 1.2165229 0.13578865 98
-0.82164329 1.1875217 0.025026752 4
-0.91168576 1.2149302 0.080074012 94
-0.92908841 1.2202275 0.13526571 100
-0.90242797 1.2173803 0.026527658 13
-0.91592854 1.2215387 0.080388032 92
-0.91045028 1.2198513 0.13369691 94
-0.89688188 1.2217618 0.026457848 26
-0.91799694 1.2283547 0.080597371 76
-0.91631955 1.2278309 0.13439415 70
-0.90300316 1.2289667 0.026597468 33
-0.90694636 1.2302122 0.080074012 68
-0.91669315 1.233291 0.13456847 45
-0.91091579 1.2370807 0.026771991 34
-0.89201432 1.2310375 0.079341307 82
-0.91127151 1.2371944 0.13421984 43
-0.9112615 1.242538 0.026806897 53
-0.89997941 1.2388896 0.079864666 100
-0.91160995 1.2426506 0.13439415 49
-0.89059788 1.2414166 0.026457848 78
-0.90402848 1.2458116 0.080178685 100
-0.90048319 1.2446514 0.1335226 73
-0.88143295 1.2436783 0.02631823 100
-0.89865035 1.2493758 0.079969339 100
-0.90646738 1.2519625 0.13421984 80
-0.87968713 1.2489216 0.02631823 99
-0.89120215 1.2527789 0.079655327 100
-0.90469104 1.2572975 0.13421984 80
-0.87809116 1.25366 0.02631823 96
-0.88013464 1.2543521 0.079131968 100
-0.91250259 1.2653143 0.13509139 78
-0.88387543 1.2614845 0.026457848 93
-0.88023919 1.2602382 0.079236634 100
-0.89371473 1.2648571 0.1335226 100
-0.87090081 1.2623087 0.02624842 89
-0.88049287 1.2656322 0.079341307 100
-0.8883006 1.2683374 0.13317397 97
-0.86513942 1.2666842 0.02617861 81
-0.87283808 1.2693862 0.079027295 76
-0.90132815 1.2793856 0.13456847 52
-0.86348456 1.2713742 0.02617861 79
-0.86176246 1.2707634 0.078503937 46
-0.89963108 1.2841957 0.13456847 36
-0.86934382 1.2787577 0.02631823 93
-0.8506934 1.2720726 0.077980578 17
-0.89041573 1.2863109 0.13387123 36
-0.86388856 1.2820996 0.02624842 99
-0.86216599 1.2814758 0.078713275 57
-0.87183601 1.2849782 0.13230242 22
-0.8507362 1.2831511 0.026038991 99
-0.85653108 1.285274 0.078503937 97
-0.85684329 1.2853885 0.13108224 15
-0.84152538 1.285017 0.025899371 100
-0.86043388 1.2920152 0.078817949 100
-0.84952098 1.2879763 0.1305593 3
-0.8359732 1.2884698 0.025829561 100
-0.83802599 1.2892377 0.077666558 76
-0.90928549 1.3158948 0.13631158 1
-0.83798748 1.2944767 0.025899371 100
-0.82508653 1.2896018 0.077038527 51
-0.86460048 1.304533 0.13230242 3
-0.83979183 1.3009878 0.025969181 77
-0.83250147 1.2982025 0.077561885 55
-0.84774238 1.3040254 0.13090792 20
-0.82869536 1.3019942 0.025794657 72
-0.83633226 1.3049412 0.077875905 68
-0.84410506 1.3079404 0.13073361 58
-0.82301027 1.3055904 0.025724847 83
-0.83622307 1.3107445 0.077980578 68
-0.84954864 1.3159426 0.13143086 100
-0.82680827 1.3123392 0.025829561 96
-0.8176977 1.3087504 0.077038527 69
-0.83846182 1.3169296 0.1305593 100
-0.82481128 1.3173819 0.025829561 100
-0.82128066 1.3159761 0.077352546 91
-0.83829898 1.322752 0.13073361 99
-0.8192777 1.320446 0.025759751 100
-0.82316881 1.3220103 0.077561885 95
-0.82721525 1.323637 0.12986206 100
-0.81725103 1.325461 0.025759751 100
-0.82113642 1.3270395 0.077561885 95
-0.82333094 1.3279312 0.12968774 100
-0.79439265 1.3161745 0.17817298 12
-0.80050379 1.3241572 0.025480513 100
-0.81918365 1.3318223 0.077561885 100
-0.82137507 1.3327215 0.12968774 100
-0.79982394 1.3238783 0.17914793 21
-0.80595058 1.3319304 0.025620133 100
-0.79691809 1.3281872 0.076410495 100
-0.82676476 1.3405561 0.130385 100
-0.78504533 1.3232669 0.17744176 20
-0.80398077 1.3366601 0.025620133 100
-0.78943425 1.3305721 0.076096483 100
-0.82660276 1.3461277 0.1305593 100
-0.79409307 1.3325219 0.17890419 22
-0.80946261 1.3442595 0.025759751 100
-0.79308754 1.3373424 0.076410495 99
-0.81000179 1.3444872 0.12916481 100
-0.77759117 1.3307965 0.17695428 18
-0.7964136 1.3442941 0.025550323 83
-0.7966103 1.344378 0.076724514 56
-0.79332703 1.3429775 0.12777032 96
-0.78475529 1.3393214 0.17817298 14
-0.80174714 1.3521543 0.025689943 60
-0.82761592 1.3632951 0.07860861 55
-0.79187578 1.347903 0.17939167 3
-0.80337447 1.358464 0.025759751 99
-0.80355722 1.3585434 0.077352546 100
-0.81304699 1.3626697 0.13003637 60
-0.77710718 1.3470426 0.1776855 16
-0.80497426 1.3647921 0.025829561 100
-0.79966575 1.3624618 0.077247873 100
-0.82009166 1.3714283 0.13090792 100
-0.78235561 1.3548632 0.17866045 33
-0.80106157 1.3687081 0.025794657 100
-0.80671948 1.3712153 0.077771232 100
-0.81251925 1.3737855 0.130385 100
-0.76941663 1.3546849 0.17719802 31
-0.79531258 1.3717874 0.025724847 100
-0.81008202 1.3783941 0.078085244 100
-0.79767233 1.372843 0.12916481 100
-0.79092449 1.3698244 0.18036664 36
-0.78955871 1.3748339 0.025655037 100
-0.81523138 1.3864255 0.078503937 100
-0.80645508 1.382463 0.13021068 100
-0.76349348 1.363065 0.17695428 20
-0.79653758 1.3836524 0.025829561 100
-0.80580157 1.3878744 0.078085244 100
-0.81156093 1.3904991 0.13090792 100
-0.75960892 1.3668232 0.17671055 15
-0.79620403 1.3891847 0.025864467 100
-0.80182201 1.3917687 0.077980578 100
-0.81119674 1.3960805 0.13108224 100
-0.77374882 1.3788564 0.17890419 17
-0.8049174 1.3989317 0.026073895 100
-0.80688983 1.3998473 0.078399263 100
-0.80358142 1.3983116 0.1305593 100
-0.78061837 1.3876524 0.18012288 12
-0.7954703 1.4002643 0.025934275 100
-0.8119176 1.4079688 0.078817949 100
-0.79777151 1.4013423 0.13021068 100
-0.7802518 1.3931355 0.18036664 7
-0.78805906 1.4019263 0.025829561 100
-0.80629462 1.4105384 0.07860861 100
-0.79938465 1.407275 0.1305593 100
-0.77110773 1.3939207 0.17939167 3
-0.78765029 1.4074533 0.025864467 100
-0.80405051 1.4152689 0.07860861 100
-0.80794352 1.417124 0.13160518 100
-0.79611701 1.4175531 0.026073895 100
-0.79807669 1.4184957 0.078399263 100
-0.81992608 1.4290065 0.13299966 100
-0.79924542 1.4248674 0.02617861 100
-0.79939836 1.4249417 0.07860861 100
-0.80327803 1.4268246 0.13160518 100
-0.78988212 1.4258215 0.026038991 100
-0.8026008 1.4320469 0.078922622 100
-0.80109245 1.4313086 0.13160518 100
-0.79117066 1.4322654 0.0261088 100
-0.80386323 1.4385329 0.079131968 100
-0.80949455 1.4413137 0.13265105 100
-0.79589337 1.4407444 0.02624842 100
-0.79782873 1.4417089 0.078922622 100
-0.8105914 1.4480693 0.13299966 100
-0.79711705 1.4472347 0.02631823 100
-0.79012245 1.4437183 0.07860861 100
-0.81533664 1.4563942 0.13369691 100
-0.80187875 1.4555507 0.026457848 100
-0.8020131 1.4556186 0.07944598 100
-0.80937845 1.4593537 0.13334829 100
-0.79235631 1.4566228 0.02631823 100
-0.80494601 1.4630625 0.07976 100
-0.80164236 1.4613726 0.13282534 100
-0.78995138 1.4613043 0.02631823 100
-0.80251855 1.467788 0.07976 100
-0.80630332 1.4697406 0.1335226 100
-0.7946257 1.4696696 0.026457848 100
-0.79653102 1.4706609 0.079550654 100
-0.81092221 1.4781494 0.13421984 100
-0.79950505 1.4776049 0.026597468 100
-0.79432315 1.4748878 0.079550654 100
-0.81398445 1.4851971 0.13474278 100
-0.80056232 1.4841808 0.026667276 79
-0.78479213 1.4758415 0.079131968 95
-0.80443448 1.4862283 0.13404553 94
-0.80518979 1.4933 0.13439415 24
0.12758955 1.2944348 0.13089497 11
0.15783522 1.260378 0.010960111 25
0.14334407 1.2784984 0.034123044 27
0.14184684 1.2803705 0.057174169 23
0.1428645 1.279098 0.10324675 11
0.14536297 1.2759738 0.12593393 36
0.18608478 1.2250537 0.13452072 15
0.15062869 1.2693894 0.1713382 7
0.16452324 1.2554797 0.010820492 91
0.17120266 1.2470675 0.031924933 91
0.15354228 1.2693094 0.055779677 73
0.15499431 1.2674807 0.077996381 28
0.1790379 1.2371995 0.094486415 26
0.16056058 1.2604704 0.12173614 93
0.19494617 1.2171643 0.13182132 23
0.1535756 1.2692674 0.17082056 29
0.15507823 1.2709558 0.011134636 100
0.17657971 1.2436813 0.031610917 100
0.15528762 1.2706902 0.055779677 100
0.17148075 1.2501494 0.075071514 30
0.18311688 1.235389 0.093860678 39
0.15376693 1.2726192 0.12440746 100
0.18685758 1.230644 0.13542053 38
0.15053678 1.2767167 0.17289113 42
0.16915441 1.2565843 0.010785587 100
0.18192849 1.2402636 0.031296901 100
0.16194978 1.2657893 0.055082429 100
0.16092399 1.2670999 0.077508904 29
0.17987356 1.242889 0.095112152 25
0.17246452 1.2523551 0.11906482 100
0.18606555 1.234978 0.13632034 38
0.16302425 1.2644165 0.16823238 45
0.16840121 1.2610687 0.010855397 100
0.16396409 1.2667787 0.032971654 87
0.16001523 1.2718604 0.055605363 98
0.17118788 1.2574826 0.075802729 30
0.17910233 1.2472978 0.095737889 25
0.1837877 1.2412683 0.11601187 100
0.18290788 1.2424005 0.13811995 30
0.15408406 1.2794931 0.17289113 35
0.17361194 1.2575166 0.010750682 79
0.18017325 1.2490181 0.031715591 61
0.15794104 1.2778144 0.056128297 48
0.18485239 1.2429574 0.073365346 46
0.16611749 1.2672238 0.099492319 36
0.17963019 1.2497215 0.13991955 22
0.14742255 1.2914383 0.1765146 41
0.17409948 1.2604146 0.010785587 52
0.18792272 1.2423801 0.03119223 31
0.16577634 1.2712733 0.055256739 49
0.18288267 1.2489557 0.07409656 61
0.18588117 1.2450438 0.094799288 51
0.18453264 1.246803 0.1167751 19
0.2014606 1.2247181 0.13227122 31
0.1539461 1.2867074 0.17444403 56
0.17339173 1.2649064 0.010855397 52
0.16538417 1.2754292 0.03328567 28
0.17235461 1.2662692 0.054559495 50
0.18335465 1.2518139 0.074340299 61
0.19711146 1.2337359 0.092296332 53
0.19452146 1.2371395 0.11410378 20
0.2042301 1.2243812 0.13182132 39
0.17680991 1.2604145 0.16512655 68
0.17994314 1.2598357 0.010715778 53
0.1671508 1.2767687 0.03328567 28
0.17769217 1.2628152 0.054036561 51
0.17307279 1.26893 0.076777689 87
0.1939694 1.2412696 0.093547814 65
0.2020714 1.230545 0.11219569 14
0.21051702 1.2193658 0.13002171 48
0.17968857 1.2601727 0.16460891 69
0.18645453 1.2547255 0.010576159 54
0.18330237 1.2589283 0.032029606 30
0.17702383 1.2672997 0.054385185 51
0.19387361 1.2448335 0.072877869 94
0.19680181 1.2409291 0.093234941 53
0.20250317 1.2333274 0.1125773 13
0.20624143 1.228343 0.13227122 47
0.17908362 1.2645533 0.16564418 68
0.19053721 1.2527837 0.010506349 68
0.1850113 1.2602054 0.032029606 30
0.17638227 1.2717948 0.054733805 50
0.1872347 1.2572192 0.074584037 100
0.19254929 1.2500813 0.094799288 64
0.19943273 1.2408364 0.11410378 13
0.21366245 1.2217249 0.13002171 32
0.17965847 1.2673945 0.16616182 76
0.1862815 1.2620759 0.010680873 80
0.20453227 1.2373844 0.030459527 65
0.17695186 1.274698 0.054908119 75
0.20309693 1.2393264 0.071659178 96
0.20127228 1.2417949 0.092922069 79
0.19290966 1.2531087 0.1167751 13
0.22334963 1.2119263 0.12687239 33
0.18369356 1.2655772 0.16512655 68
0.1903674 1.2601181 0.010611063 94
0.21089208 1.2321465 0.03004084 66
0.1822519 1.2711782 0.054385185 76
0.19534239 1.2533381 0.073609084 77
0.21110159 1.231861 0.090731993 95
0.20505118 1.2401066 0.11334054 13
0.21797711 1.2224908 0.12957181 16
0.18999714 1.2606227 0.163056 70
0.19443515 1.2581378 0.010541254 95
0.20427582 1.244628 0.030773543 64
0.18869585 1.266017 0.053687938 100
0.2017068 1.2481549 0.072634131 78
0.20806363 1.2394279 0.091983467 93
0.21594158 1.2286127 0.1102876 14
0.23217964 1.2063202 0.12462288 16
0.1905745 1.2634379 0.16357364 69
0.20317155 1.2496532 0.010331824 84
0.20359409 1.2490689 0.030982886 63
0.18459228 1.2753478 0.054559495 100
0.20686749 1.2445419 0.071902916 96
0.20623192 1.2454208 0.092922069 100
0.21409336 1.2345487 0.11143246 14
0.21886042 1.2279561 0.13047162 16
0.19569501 1.2599931 0.16202073 70
0.19543335 1.2637954 0.010611063 94
0.21100923 1.2421032 0.030459527 97
0.18394592 1.2797935 0.054908119 100
0.20728517 1.2472897 0.072146654 79
0.20550606 1.2497673 0.093547814 100
0.21678078 1.2340653 0.11105084 14
0.23515692 1.2084734 0.12462288 16
0.19056123 1.2705806 0.16512655 68
0.20180181 1.2585164 0.010471444 96
0.21845549 1.2351516 0.029936166 66
0.19266617 1.2713336 0.053862248 100
0.21356207 1.242017 0.071171694 81
0.21750179 1.2364897 0.090731993 100
0.20244959 1.2576077 0.11639348 19
0.23895156 1.206396 0.12372308 16
0.19679591 1.2655396 0.163056 70
0.19675374 1.2696469 0.010680873 93
0.22600895 1.228267 0.029412808 100
0.18999308 1.2792094 0.054559495 100
0.20850113 1.2530308 0.072634131 78
0.22157612 1.234537 0.090106249 96
0.20319104 1.2605417 0.1167751 33
0.23612955 1.2139521 0.12552269 24
0.19870123 1.2668922 0.163056 70
0.20768952 1.257782 0.010401634 97
0.21728492 1.2441089 0.030354854 97
0.20550668 1.2608925 0.052467756 100
0.21475053 1.2477204 0.071659178 80
0.22206494 1.2372975 0.090419121 100
0.20039442 1.2681773 0.11830158 91
0.22424808 1.2341866 0.13092151 48
0.20931563 1.2554649 0.15891489 73
0.2160849 1.2490124 0.010192205 99
0.21877602 1.2451518 0.030354854 97
0.1956569 1.278317 0.054210871 100
0.21625298 1.2487712 0.071659178 64
0.21336788 1.2529099 0.093234941 100
0.22216994 1.2402831 0.11143246 91
0.21902153 1.2447996 0.13362093 93
0.20531869 1.2644567 0.16150309 70
0.21320775 1.2567527 0.010331824 98
0.21930021 1.2479475 0.030459527 97
0.19516611 1.2828276 0.054559495 100
0.22018525 1.2466685 0.071171694 65
0.21842754 1.2492088 0.092296332 100
0.22046229 1.246268 0.1125773 96
0.22511619 1.2395419 0.13182132 94
0.20374915 1.2704229 0.163056 70
0.2081165 1.2678158 0.010541254 95
0.22210124 1.2474526 0.030354854 97
0.20147008 1.2774936 0.053862248 100
0.22409874 1.244544 0.070684217 65
0.23240358 1.2324514 0.088854775 100
0.21879247 1.2522705 0.11372216 100
0.23668614 1.2262156 0.1277722 97
0.20987269 1.2652586 0.16098544 72
0.20985627 1.2690061 0.010541254 95
0.22601974 1.2452936 0.030145511 65
0.20997682 1.2688293 0.05281638 100
0.21345833 1.2637217 0.073365346 93
0.23290715 1.2351894 0.089167647 100
0.21826637 1.2566681 0.1144854 100
0.23059729 1.2385781 0.13092151 100
0.21813208 1.2568651 0.15787962 73
0.21504822 1.2652801 0.010436539 41
0.22105071 1.2564045 0.030773543 32
0.216272 1.2634705 0.052119136 81
0.22305456 1.2534415 0.071659178 80
0.2357209 1.2347122 0.088854775 100
0.22885093 1.2448705 0.11143246 91
0.23340857 1.2381314 0.13047162 96
0.22424769 1.2516773 0.15580906 75
0.21677914 1.2664462 0.010436539 41
0.2182982 1.264183 0.03119223 31
0.21466544 1.2695954 0.05264207 53
0.23248827 1.2430421 0.069953002 66
0.23294139 1.242367 0.090106249 96
0.23160464 1.2443585 0.11105084 98
0.23504457 1.2392336 0.13047162 96
0.22162446 1.2592275 0.15787962 73
0.22286299 1.2608924 0.010296919 42
0.22436914 1.2586323 0.030773543 32
0.21300933 1.2756785 0.053165004 52
0.22415113 1.2589594 0.072146654 79
0.23231864 1.2467035 0.090731993 100
0.23862308 1.2372432 0.10914274 85
0.23984438 1.2354106 0.1291219 100
0.21789205 1.2683517 0.1604678 72
0.21795979 1.2720387 0.010506349 27
0.21726254 1.273093 0.031610917 30
0.22137108 1.2668809 0.052119136 54
0.22695497 1.2584381 0.071902916 100
0.24052283 1.2379239 0.088854775 98
0.23917294 1.2399648 0.10952436 85
0.24577093 1.2299888 0.1273223 97
0.21963364 1.2695079 0.1604678 72
0.21962643 1.2731371 0.010506349 27
0.22551018 1.2641765 0.030982886 31
0.22411418 1.2663025 0.051944822 54
0.22966602 1.2578474 0.071659178 64
0.24207622 1.2389475 0.088854775 98
0.23211244 1.2541217 0.1125773 96
0.24515873 1.234253 0.12822211 97
0.22659361 1.2625265 0.15787962 73
0.23230216 1.2575334 0.0101573 42
0.22723716 1.2653061 0.030982886 31
0.2280241 1.2640985 0.051596198 54
0.24004108 1.2456574 0.069709264 83
0.24371502 1.2400196 0.088854775 98
0.24345091 1.2404249 0.10914274 92
0.24252543 1.241845 0.13002171 96
0.23147896 1.2587967 0.1563267 74
0.23834947 1.2519228 0.010017681 43
0.22029153 1.2798468 0.03182026 30
0.22866887 1.2668924 0.051770512 54
0.24385923 1.2434027 0.069221787 83
0.2442849 1.2427444 0.089167647 98
0.24189657 1.2464377 0.1102876 85
0.24734902 1.2380062 0.128672 97
0.23213807 1.2615278 0.15684435 74
0.23787355 1.2563736 0.010087491 57
0.25335571 1.2322484 0.028784776 69
0.23901391 1.2545966 0.05037602 56
0.24444145 1.2461392 0.069465525 49
0.24807072 1.2404838 0.08854191 84
0.24250117 1.2491626 0.11066922 85
0.25214201 1.2341397 0.1273223 97
0.22968224 1.2691379 0.15891489 65
0.23742494 1.2608336 0.0101573 57
0.25282541 1.2366503 0.028994121 68
0.22465411 1.2808875 0.05299069 79
0.24077386 1.2555748 0.070684217 98
0.25395915 1.2348701 0.087290429 71
0.2452302 1.2485771 0.1102876 78
0.25899783 1.2269579 0.12507279 83
0.2272757 1.2767708 0.16098544 64
0.23700365 1.2653027 0.01022711 84
0.24592057 1.251192 0.029831495 99
0.23921156 1.2618088 0.050898954 55
0.24777293 1.2482607 0.069465525 49
0.25769418 1.2325609 0.086664692 71
0.23956114 1.2612555 0.11295892 89
0.25643057 1.2345604 0.12687239 99
0.23317465 1.2713618 0.15891489 65
0.24404621 1.2579213 0.010052586 86
0.24972418 1.2488663 0.029622151 100
0.23775482 1.2679546 0.051421888 82
0.24733505 1.2526764 0.069953002 49
0.2593106 1.2335783 0.086664692 71
0.25692254 1.2373867 0.10723466 81
0.25805399 1.2355824 0.12687239 99
0.23903185 1.265918 0.15684435 66
0.2499769 1.2521949 0.0099129668 87
0.24295652 1.2634779 0.030459527 97
0.24054745 1.2673497 0.051247578 82
0.25426528 1.2453026 0.068734311 67
0.25675628 1.2412992 0.087916173 70
0.25025848 1.2517424 0.1102876 100
0.25968096 1.2365985 0.12687239 82
0.24280596 1.2637199 0.15580906 67
0.245359 1.2634485 0.010122396 85
0.25727141 1.244153 0.029203463 100
0.23600554 1.2785989 0.052293446 100
0.25279775 1.2513994 0.069465525 49
0.25840318 1.2423198 0.087916173 56
0.25812995 1.2427624 0.10799789 79
0.26335889 1.2342927 0.12597258 82
0.24250156 1.2680769 0.15684435 66
0.25335056 1.2542776 0.0099129668 87
0.25997159 1.2434689 0.029098792 100
0.23778278 1.2796919 0.052293446 80
0.2565538 1.2490484 0.068978049 50
0.26624471 1.233228 0.086038955 58
0.24747592 1.2638679 0.1125773 96
0.26803508 1.2303052 0.12462288 100
0.23415101 1.2856207 0.16202073 63
0.24465698 1.2723985 0.010262015 84
0.25955144 1.2478919 0.029308135 100
0.25612044 1.2535371 0.049504463 86
0.25719675 1.2517661 0.069221787 33
0.27094126 1.2291515 0.085100345 58
0.25735891 1.2514993 0.10952436 71
0.27369204 1.2246255 0.12282328 85
0.24999964 1.263608 0.15477379 67
0.2536408 1.2614741 0.010017681 72
0.25915864 1.2523235 0.029517479 100
0.25781009 1.25456 0.049504463 86
0.2568301 1.2561852 0.069709264 33
0.26948553 1.2351977 0.086038955 58
0.26005524 1.2508366 0.10914274 85
0.27125546 1.2322625 0.12462288 92
0.25172448 1.2646521 0.15477379 67
0.26040685 1.2538749 0.0098431576 88
0.26486239 1.2464303 0.029098792 100
0.24918681 1.2726222 0.051247578 82
0.25742453 1.258858 0.069953002 49
0.26697198 1.2429054 0.087290429 71
0.26568419 1.2450571 0.10761628 87
0.26978764 1.2382007 0.12597258 90
0.24939811 1.2722692 0.15684435 66
0.25801393 1.2617606 0.0099827768 87
0.2644878 1.2508574 0.029308135 100
0.25094312 1.2736692 0.051247578 82
0.27129444 1.2393937 0.067028143 69
0.2726585 1.2370963 0.086038955 72
0.25832325 1.2612396 0.11105084 98
0.28037792 1.2240953 0.12192347 85
0.25312576 1.2699932 0.15580906 67
0.26176214 1.2593307 0.0099129668 100
0.27123648 1.2432466 0.028784776 100
0.25674793 1.2678432 0.05055033 84
0.26688957 1.2506261 0.068490572 50
0.27328807 1.2397636 0.086351827 58
0.27000406 1.2453388 0.10723466 73
0.28097558 1.2267128 0.12237337 85
0.25973228 1.2627769 -0.0099827768 86
0.2529119 1.2743555 0.15684435 66
0.25943637 1.26724 0.010052586 86
0.27591312 1.2390435 0.02847076 100
0.25647709 1.2723043 0.050898954 83
0.26656592 1.2550393 0.068978049 50
0.27891609 1.2339046 0.085100345 58
0.26275036 1.2615688 0.11066922 78
0.28552103 1.2226015 0.12102367 86
0.26448086 1.2586074 -0.0098780617 76
0.26149693 1.2637138 0.15322088 76
0.26719102 1.257871 0.0098431576 88
0.26853725 1.2555487 0.029412808 100
0.26622587 1.259536 0.049504463 86
0.26328301 1.2646127 0.07019674 49
0.28152773 1.233139 0.084787481 73
0.27529854 1.2438849 0.10647142 81
0.28417057 1.2285798 0.12237337 100
0.26419094 1.2630465 0.15270324 76
0.26789892 1.2605889 0.0098780617 73
0.27720311 1.2444084 0.028680105 100
0.26495686 1.2657052 0.050027397 100
0.27688581 1.2449601 0.067271881 86
0.27723783 1.2443479 0.086664692 71
0.27793303 1.243139 0.1060898 88
0.28577295 1.2295049 0.12237337 76
0.26206172 1.27074 0.15477379 67
0.27357617 1.2546226 0.0097384425 90
0.28083989 1.2418879 0.02847076 100
0.25977892 1.2788117 0.051247578 82
0.28149599 1.2407377 0.066540658 52
0.28281012 1.2384337 0.085413218 73
0.27569541 1.2509072 0.10761628 87
0.28448197 1.2355027 0.12372308 83
0.26572567 1.2683859 0.15373851 68
0.27231541 1.2608058 0.0098431576 88
0.2824887 1.2428246 0.02847076 100
0.26450005 1.2746195 0.05072464 84
0.27043325 1.2641326 0.069709264 83
0.2844469 1.2393636 0.085413218 58
0.27447549 1.2569879 0.10876112 79
0.29282573 1.2245541 0.12057377 77
0.27034602 1.2642868 -0.0099129668 87
0.26366195 1.2761009 0.15580906 67
0.2710945 1.2670038 0.0099478718 87
0.28023112 1.2507225 0.028889447 100
0.27406359 1.2617129 0.049330149 87
0.28284594 1.246063 0.067028143 51
0.28802034 1.2368423 0.084787481 59
0.27713785 1.2562346 0.10837951 79
0.29059926 1.2322466 0.12237337 85
0.27598757 1.2582843 -0.0097733475 88
0.27299362 1.2636195 0.15166797 69
0.28450134 1.2470069 0.0095290141 92
0.28288212 1.2499161 0.028784776 100
0.27868855 1.2574505 0.048807215 100
0.27485514 1.2643378 0.069465525 49
0.29253361 1.2325759 0.083848871 59
0.2845656 1.2468915 0.1060898 81
0.29126665 1.2348521 0.12282328 93
0.27753696 1.2595195 0.15011504 78
0.28810087 1.2444295 0.009459204 77
0.27973276 1.2595882 0.029308135 100
0.28231752 1.2549059 0.048458595 100
0.28713533 1.2461785 0.066784397 34
0.28555787 1.2490361 0.086664692 57
0.28812948 1.2443776 0.10532656 82
0.29665804 1.2289282 0.12102367 86
0.27747026 1.2636868 -0.0098431576 87
0.2745792 1.2689239 0.15270324 68
0.28015551 1.262881 0.0098082526 59
0.28719819 1.2500173 0.028680105 100
0.28783894 1.248847 0.047761347 90
0.28403267 1.2557993 0.068003096 51
0.29197475 1.2412927 0.085100345 58
0.28695858 1.250455 0.10647142 81
0.27725017 1.2681878 0.1521856 77
0.28760266 1.2532758 0.0095988233 76
0.29078138 1.2474213 0.02847076 100
0.27335036 1.2795253 0.05072464 84
0.29141328 1.2462575 0.066540658 52
0.29927686 1.2317746 0.083223134 60
0.2867637 1.2548209 0.10723466 81
0.28283182 1.2620625 -0.0097733475 88
0.27438182 1.2776256 0.15477379 75
0.28739515 1.2577101 0.0096686333 75
0.2867682 1.2588744 0.029098792 100
0.28268719 1.2664537 0.049330149 87
0.29119506 1.2506529 0.067028143 51
0.29995376 1.2343862 0.083536007 60
0.28845766 1.2557368 0.10723466 73
0.28834319 1.2559495 -0.0096337283 89
0.2834824 1.264977 0.15063268 78
0.28815728 1.2603878 0.0097035384 90
0.29035777 1.2562667 0.028889447 100
0.28723708 1.2621112 0.048807215 88
0.28726444 1.2620599 0.068490572 50
0.29570308 1.2462559 0.10494494 75
0.28344789 1.2692077 -0.0098780617 97
0.28703165 1.262496 0.14959741 70
0.29454926 1.2524625 0.0095290141 76
0.2976642 1.2465794 0.028261416 100
0.28988877 1.2612647 0.048632905 88
0.29269919 1.2559566 0.067515619 51
0.29736707 1.2471406 0.10494494 75
0.28612781 1.2683679 -0.0098431576 87
0.28604048 1.2685328 0.15115032 77
0.2915872 1.2622039 0.0097035384 90
0.29932931 1.2474573 0.028261416 100
0.29253131 1.2604055 0.048458595 88
0.29624256 1.2533367 0.067028143 51
0.299321 1.2474731 0.085413218 73
0.29538372 1.2549726 0.10647142 81
0.28415087 1.276368 -0.0099827768 86
0.28419027 1.2762929 0.15322088 76
0.29146019 1.2666504 0.0097733475 89
0.29424474 1.2613013 0.048458595 59
0.29976448 1.250698 0.066540658 69
0.29889122 1.2523755 0.10570818 81
0.29053682 1.2684242 -0.0098082526 99
0.28685123 1.2755041 0.15270324 68
0.296864 1.260442 0.0096337283 90
0.29780212 1.2586244 0.067515619 51
0.29967609 1.2549937 0.1060898 66
0.2950297 1.2639959 -0.0097035384 100
0.2939336 1.2661195 0.14959741 70
0.29615432 1.266058 0.029203463 100
0.29770067 1.2630361 0.068003096 68
0.29810426 1.2660844 0.14907977 78
0.29574606 1.2799544 0.049853086 57
0.29916152 1.2731042 0.15063268 78
