# .PCD v0.7 - Point Cloud Data file format
VERSION 0.7
FIELDS x y z intensity
SIZE 4 4 4 4
TYPE F F F F
COUNT 1 1 1 1
WIDTH 785
HEIGHT 1
VIEWPOINT 0 0 0 1 0 0 0
POINTS 785
DATA ascii
-1.1682209 0.15442152 0.061756428 21
-1.1725277 0.16311885 0.020663649 22
-1.1580648 0.16543572 0.020419316 31
-1.0565987 0.15451777 0.01863917 6
-1.0303168 0.15453345 0.018185407 5
-1.0337518 0.15855558 0.018255217 2
-0.30394441 1.0798696 0.019581599 1
-0.30659392 1.1040454 0.020000458 1
-0.28635973 1.0453211 0.018918408 3
-0.28166592 1.0424534 0.0188486 3
-0.27563149 1.0337207 0.018674076 2
-0.27913976 1.0617522 0.019162742 2
-0.27392676 1.0569129 0.019058028 3
-0.26033702 1.0191131 0.018359931 3
-0.25939864 1.0296663 0.018534455 5
-0.25821155 1.0402696 0.01870898 4
-0.25457877 1.0411645 0.01870898 6
-0.21187396 0.98327881 0.01755712 5
-0.21483316 1.0133193 0.018080693 6
-0.21030259 1.0101844 0.018010883 6
-0.20534727 1.00304 0.017871264 6
-0.20184475 1.0037507 0.017871264 4
-0.19463784 0.984797 0.017522216 4
-0.19182259 0.9914602 0.01762693 5
-0.18890707 0.99405539 0.017661836 6
-0.18634327 0.99860793 0.017731644 7
-0.18303074 0.99922037 0.017731644 6
-0.1777817 0.99204242 0.017592026 6
-0.17587584 1.0005045 0.017731644 6
-0.17152964 0.99720091 0.017661836 6
-0.16855432 0.99973607 0.01769674 7
-0.16163673 0.98061645 0.017347692 7
-0.15902135 0.98509532 0.017417502 7
-0.15637805 0.98956764 0.017487312 9
-0.15462357 0.99996179 0.017661836 9
-0.15197481 1.0084577 0.017801454 9
-0.14309262 0.97136748 0.017138263 7
-0.14254628 0.99165457 0.017487312 8
-0.13797344 0.98422474 0.017347692 8
-0.14915472 1.0916899 0.019232552 10
-0.18306373 1.3756616 0.02422394 16
0.12249482 0.027445674 0.044904251 13
0.058921605 0.0053603053 0.047625721 68
0.055303812 0.0053160787 0.047730394 52
0.050456166 0.0037012696 0.047939736 38
0.040709138 0.0005454421 0.048358422 100
0.042459011 0.0089743733 0.047939736 82
0.042033553 0.01406616 0.047730394 47
0.034919024 0.0092285275 0.048149079 26
0.027764499 0.0044313669 0.048567768 16
0.033014178 0.01778096 0.047835063 18
0.030391634 0.019590139 0.047835063 9
0.030190885 0.02459389 0.047625721 9
-0.83581525 0.6411978 0.024293751 1
-0.80835062 0.64829248 0.023805082 3
-0.79085642 0.65481228 0.023490939 3
-0.73742241 0.66370213 0.02254851 4
-0.70989424 0.67062289 0.022059841 4
-0.68030661 0.67706084 0.02153627 9
-0.64272755 0.68408573 0.020873077 14
-0.62106103 0.68954903 0.020489125 19
-0.62533897 0.69358224 0.020558935 16
-0.61362296 0.69842201 0.020349506 24
-0.62185115 0.70202106 0.020489125 30
-0.62008458 0.70622081 0.02045422 29
-0.61231166 0.71071303 0.0203146 22
-0.61850387 0.71448594 0.020419316 19
-0.63467258 0.71786171 0.020698555 26
-0.64084154 0.72175449 0.020803269 29
-0.63898891 0.7255705 0.020768363 11
-1.0432842 1.1314005 0.085621625 3
-1.0374565 1.1300786 0.14241248 6
-1.0323269 1.1344364 0.028342709 7
-1.0070436 1.1286132 0.08373753 7
-1.026546 1.1331049 0.14154093 13
-1.0018387 1.1331234 0.027819136 11
-1.0077269 1.1345012 0.083842203 58
-1.0252688 1.1386058 0.14154093 52
-0.99459702 1.1376901 0.027714422 35
-0.99077219 1.1367795 0.083004825 100
-1.0277183 1.1455746 0.14188954 100
-0.98747295 1.1416698 0.027609708 37
-0.98754114 1.1416863 0.082900152 100
-1.0012219 1.1449934 0.13962349 82
-0.98241335 1.1455462 0.027539898 33
-0.98442608 1.1460394 0.082795486 100
-0.99229556 1.1479679 0.13892625 89
-0.97721201 1.1499275 0.027470088 22
-0.98310405 1.1513932 0.082795486 67
-0.99290031 1.1538303 0.13910057 91
-0.96798724 1.1538279 0.027330469 30
-0.97388309 1.1553187 0.082376793 38
-1.0049362 1.1631706 0.14032075 69
-0.97438592 1.1611122 0.027470088 46
-0.97446328 1.1611321 0.082481466 36
-0.99583489 1.1666154 0.13962349 81
-0.96914107 1.1654234 0.027400278 59
-0.9730888 1.166451 0.082481466 84
-0.98480028 1.1694995 0.13875194 91
-0.95808429 1.1681714 0.027225753 71
-0.96783346 1.1707455 0.08227212 98
-0.97183818 1.1718029 0.13770607 92
-0.94909865 1.1708411 0.027086135 81
-0.96463746 1.174996 0.082167454 94
-0.96671885 1.1755525 0.13735744 100
-0.9515503 1.1771181 0.027155945 89
-0.9477933 1.1760994 0.081330076 100
-0.96913987 1.1818871 0.13770607 99
-0.95397645 1.183417 0.027225753 92
-0.94444078 1.1807958 0.081225403 100
-0.9734562 1.1887717 0.13822901 94
-0.95252413 1.1886643 0.027225753 92
-0.93722576 1.1844016 0.08091139 94
-0.95855027 1.1903435 0.13700883 92
-0.93943363 1.1909057 0.027016325 92
-0.94338495 1.1920223 0.081330076 86
-0.94549567 1.1926188 0.13596296 100
-0.94180018 1.1972033 0.027086135 61
-0.9438228 1.1977825 0.081434749 62
-0.94592673 1.198385 0.13613728 100
-0.95189875 1.2054893 0.027295563 44
-0.92896825 1.1988404 0.080702044 28
-0.95597941 1.2066724 0.13718314 94
-0.93310183 1.2056569 0.026981421 59
-0.91979712 1.2017487 0.080283359 24
-0.9487111 1.210242 0.1366602 82
-0.9278155 1.2094327 0.026911611 75
-0.92410058 1.2083281 0.080597371 26
-0.93196493 1.2106667 0.13526571 91
-0.92052835 1.2128587 0.026806897 78
-0.92638642 1.2146229 0.080806717 42
-0.92660218 1.2146878 0.1349171 99
-0.90940982 1.2150725 0.026632372 83
-0.92482537 1.2197738 0.080806717 98
-0.9250409 1.2198395 0.1349171 100
-0.90593666 1.2195741 0.026597468 83
-0.90988797 1.2207942 0.080074012 90
-0.92536539 1.2255734 0.13509139 89
-0.90809613 1.2261013 0.026667276 83
-0.90631968 1.2255456 0.079969339 78
-0.91798121 1.2291934 0.13456847 63
-0.91412085 1.2336029 0.026806897 83
-0.91043288 1.2324351 0.080283359 66
-0.92016822 1.2355177 0.1349171 43
-0.89725929 1.2338283 0.026527658 79
-0.90690786 1.2369206 0.080178685 76
-0.90715033 1.2369983 0.13387123 43
-0.88992494 1.2370266 0.026422944 83
-0.91286844 1.2444681 0.080597371 98
-0.91119689 1.2439259 0.13439415 49
-0.89026839 1.2424222 0.026457848 96
-0.89041144 1.2424691 0.07944598 100
-0.91340357 1.2500107 0.13474278 71
-0.88861066 1.2474468 0.026457848 100
-0.89064902 1.2481234 0.079550654 100
-0.91928297 1.2576264 0.13544002 82
-0.89072663 1.2537386 0.026527658 96
-0.88897127 1.2531493 0.079550654 100
-0.8949067 1.2551421 0.13334829 82
-0.87766856 1.2549061 0.02631823 96
-0.89105839 1.2594539 0.07976 100
-0.895091 1.2608235 0.1335226 86
-0.86848742 1.2570401 0.02617861 96
-0.88564926 1.2629328 0.079550654 100
-0.89345545 1.265613 0.1335226 100
-0.87055677 1.2633007 0.02624842 83
-0.86882597 1.2626996 0.078713275 100
-0.90112728 1.2739165 0.13439415 89
-0.88005894 1.2724813 0.026457848 81
-0.85382038 1.2632618 0.077980578 76
-0.90866917 1.2825341 0.13526571 47
-0.88206476 1.2788091 0.026527658 81
-0.85397202 1.2688278 0.078085244 40
-0.88997453 1.2816193 0.13369691 35
-0.85769659 1.2756921 0.0261088 96
-0.86162049 1.2771018 0.07860861 17
-0.87505442 1.2819276 0.13247673 35
-0.84464544 1.276507 0.025899371 96
-0.86547369 1.2840714 0.078922622 59
-0.87887686 1.2889392 0.13299966 18
-0.84295803 1.2811291 0.025899371 100
-0.85251111 1.2846344 0.07829459 100
-0.86592549 1.2895567 0.13195379 13
-0.84491521 1.287379 0.025969181 100
-0.8488335 1.2888324 0.078189917 100
-0.87717956 1.299346 0.13317397 3
-0.84684557 1.293649 0.026038991 100
-0.83953327 1.2909077 0.077771232 55
-0.87159187 1.3029258 0.13282534 1
-0.83378929 1.2942709 0.025829561 96
-0.83770651 1.2957549 0.077771232 51
-0.84363884 1.2980025 0.130385 3
-0.83008331 1.298383 0.025794657 75
-0.84332377 1.3034523 0.078189917 55
-0.84736925 1.3050011 0.13090792 22
-0.82823056 1.3031971 0.025794657 72
-0.8340022 1.3054301 0.077771232 68
-0.84177691 1.3084378 0.1305593 61
-0.83194834 1.3101889 0.025899371 81
-0.81538302 1.3037137 0.07682918 63
-0.8603012 1.3212717 0.13247673 100
-0.83377415 1.3164785 0.025969181 99
-0.82094234 1.311411 0.077247873 70
-0.83798403 1.3181411 0.1305593 100
-0.82090491 1.316381 0.025759751 100
-0.8229453 1.3171942 0.077457212 95
-0.82515031 1.318073 0.12951343 95
-0.80785936 1.316682 0.025550323 100
-0.82843786 1.324967 0.077875905 91
-0.8343181 1.3273344 0.1305593 100
-0.81335229 1.3244317 0.025689943 100
-0.82094187 1.3275181 0.077561885 97
-0.83051854 1.3314127 0.130385 100
-0.81510812 1.3307068 0.025759751 100
-0.79866511 1.3239529 0.076410495 100
-0.82855052 1.3362281 0.130385 100
-0.77575952 1.3145447 0.17597933 16
-0.80944842 1.3339361 0.025689943 100
-0.79672319 1.3286574 0.076410495 100
-0.81920427 1.3379831 0.12968774 100
-0.80135447 1.3305784 0.17963541 26
-0.80009407 1.3355874 0.025550323 100
-0.79660708 1.3341266 0.076515168 99
-0.81353801 1.3412193 0.12933913 100
-0.7755875 1.325321 0.17646681 16
-0.78706151 1.3356221 0.025340894 100
-0.79646915 1.3396018 0.076619841 100
-0.81337065 1.3467517 0.12951343 100
-0.78095382 1.3330383 0.17744176 20
-0.79611272 1.344999 0.025550323 66
-0.79814607 1.3458675 0.07682918 40
-0.80402023 1.3483768 0.12881619 78
-0.76255065 1.3306627 0.17524812 15
-0.81429559 1.3584055 0.025934275 64
-0.81630129 1.3592706 0.077980578 59
-0.85687774 1.3767707 0.13404553 15
-0.77881354 1.3431025 0.1776855 7
-0.80673307 1.3607693 0.025829561 96
-0.80141765 1.3584547 0.077247873 100
-0.81090981 1.3625879 0.12986206 75
-0.78408509 1.3509074 0.17866045 15
-0.7990672 1.3633227 0.025724847 100
-0.80839306 1.3674242 0.077771232 100
-0.80872864 1.3675718 0.12986206 100
-0.79103249 1.3597891 0.17987914 35
-0.7896772 1.3647826 0.025585229 100
-0.80812484 1.3729727 0.077875905 100
-0.80845553 1.3731196 0.13003637 100
-0.78533703 1.3628556 0.17939167 38
-0.79327744 1.3714398 0.025689943 100
-0.80622381 1.3772365 0.077875905 100
-0.81200927 1.3798268 0.1305593 100
-0.75447947 1.3540684 0.17549185 22
-0.80210322 1.3810663 0.025899371 100
-0.80409592 1.3819668 0.077875905 100
-0.82076579 1.3895006 0.13160518 100
-0.76690418 1.3651586 0.17744176 16
-0.80360073 1.3874421 0.025969181 100
-0.8055858 1.3883476 0.078085244 100
-0.81134421 1.3909743 0.13090792 100
-0.78287941 1.3779901 0.17987914 17
-0.80325359 1.3929995 0.026004085 100
-0.8052333 1.3939109 0.078189917 100
-0.80192906 1.3923898 0.13021068 100
-0.78255218 1.3834691 0.18012288 14
-0.7865625 1.3909788 0.025724847 100
-0.81210381 1.4028455 0.078713275 100
-0.80697578 1.4004631 0.13090792 100
-0.77140123 1.3839347 0.17890419 10
-0.79525024 1.4007339 0.025934275 100
-0.80626971 1.4059005 0.078503937 100
-0.81198269 1.4085791 0.13160518 100
-0.75846618 1.3834873 0.17744176 9
-0.79846305 1.4079915 0.026038991 100
-0.80223638 1.4097767 0.078399263 100
-0.81694919 1.4167378 0.13230242 100
-0.77784938 1.3982387 0.18036664 3
-0.79622787 1.4126947 0.026038991 100
-0.80179733 1.4153535 0.078503937 100
-0.80389541 1.4163551 0.13125655 100
-0.79397625 1.41739 0.026038991 100
-0.80853325 1.424402 0.079027295 100
-0.79983598 1.4202125 0.13108224 100
-0.79170829 1.4220774 0.026038991 100
-0.80624074 1.4291402 0.079027295 100
-0.81010181 1.4310167 0.13230242 100
-0.79660577 1.4302783 0.02617861 100
-0.800345 1.4321117 0.078817949 100
-0.80420834 1.434006 0.13195379 100
-0.79787761 1.436748 0.02624842 100
-0.79802555 1.4368213 0.078817949 100
-0.80902559 1.4422626 0.13265105 100
-0.79565912 1.4412141 0.02624842 100
-0.80653054 1.4466368 0.07944598 100
-0.80678886 1.4467657 0.13265105 100
-0.78973538 1.4441097 0.02617861 100
-0.80772859 1.4531633 0.079655327 100
-0.79729909 1.4479156 0.13195379 100
-0.78737408 1.4487821 0.02617861 100
-0.80533558 1.4578984 0.079655327 100
-0.80558437 1.4580247 0.13299966 100
-0.79211658 1.4570913 0.02631823 100
-0.80292612 1.4626253 0.079655327 100
-0.81381541 1.4682 0.13404553 100
-0.78970999 1.461772 0.02631823 100
-0.79695088 1.465511 0.07944598 100
-0.81314021 1.4738705 0.13421984 100
-0.80147582 1.4738336 0.026597468 100
-0.79451495 1.4702084 0.07944598 100
-0.80714077 1.4767838 0.13387123 100
-0.78838855 1.4729676 0.026388038 96
-0.8009035 1.4795411 0.079969339 100
-0.80290145 1.4805903 0.13369691 100
-0.77885824 1.4738913 0.02624842 66
-0.78782886 1.4786429 0.079341307 70
-0.80041283 1.4853085 0.13369691 94
0.097868979 1.3319358 0.063100755 19
0.12294132 1.3007743 0.13242145 11
0.19206592 1.2148621 0.13182132 7
0.16058826 1.2574586 0.010890301 26
0.16978887 1.2459414 0.031924933 30
0.14957544 1.2712443 0.056128297 24
0.15351999 1.2663065 0.077996381 14
0.14806286 1.2731376 0.10199527 11
0.14440259 1.2777195 0.12631555 47
0.19848621 1.2100186 0.13002171 16
0.14968446 1.2711078 0.17185585 7
0.16361988 1.2573156 0.010855397 100
0.17029494 1.2488968 0.032029606 91
0.15141529 1.2727084 0.056128297 72
0.15780833 1.2646453 0.077508904 29
0.16954601 1.2498415 0.096989371 25
0.170661 1.2484351 0.1186832 100
0.18678337 1.228101 0.13497064 30
0.14912334 1.2755992 0.17289113 42
0.17027089 1.2523763 0.010715778 100
0.16332117 1.2612047 0.032762308 100
0.16056681 1.2647036 0.055082429 100
0.16444883 1.2597722 0.076533951 14
0.17122328 1.2511666 0.096989371 37
0.1614041 1.2636399 0.12211776 100
0.1847685 1.2339598 0.13632034 45
0.16284004 1.2618159 0.16771474 37
0.16439644 1.2630178 0.010925206 100
0.17594036 1.2482581 0.03182026 91
0.15721303 1.2722021 0.055779677 100
0.16721237 1.2594174 0.076290213 29
0.17760468 1.2461302 0.095737889 25
0.17021388 1.2555797 0.11982805 100
0.19103014 1.2289649 0.13452072 38
0.15129521 1.2797685 0.17340876 42
0.16857263 1.2612019 0.010855397 100
0.18618679 1.2385184 0.031087559 63
0.15896845 1.2735702 0.055779677 73
0.1677056 1.2623185 0.076533951 29
0.17684588 1.2505476 0.096363634 25
0.17672759 1.2507 0.11830158 78
0.18546319 1.2394502 0.13722014 30
0.14241347 1.2948897 0.17806751 40
0.17028958 1.2625303 0.010855397 52
0.18172723 1.2476944 0.031610917 61
0.1607286 1.2749321 0.055779677 49
0.16579038 1.2683663 0.077265166 43
0.18093774 1.2487184 0.095737889 25
0.166421 1.2675483 0.12211776 12
0.19305322 1.2330031 0.13497064 15
0.14660719 1.2932492 0.17703223 48
0.17687273 1.257501 0.010715778 53
0.1603325 1.2791113 0.033599682 28
0.16854832 1.2683771 0.054908119 50
0.17839104 1.2555172 0.075071514 75
0.18741351 1.2437291 0.094486415 52
0.19321835 1.236145 0.11410378 13
0.19348717 1.2357938 0.13542053 30
0.16722274 1.2701089 0.16875002 59
0.1834161 1.2524318 0.010576159 54
0.16936225 1.270927 0.032971654 29
0.18113914 1.2554282 0.053339314 52
0.18969616 1.244167 0.073121607 31
0.19624016 1.2355551 0.092609204 53
0.19841108 1.2326981 0.11295892 13
0.20690545 1.2215192 0.13092151 40
0.16897076 1.2714421 0.16875002 81
0.17546806 1.2664796 0.010855397 52
0.18314126 1.256308 0.031924933 30
0.1804361 1.2598939 0.053687938 52
0.19254902 1.2438371 0.072877869 47
0.19548813 1.239941 0.093234941 53
0.20002833 1.2339225 0.11295892 13
0.20848364 1.2227142 0.13092151 48
0.17188689 1.2712269 0.16823238 82
0.17489344 1.2710506 0.010925206 39
0.17535043 1.2704401 0.032762308 29
0.1762639 1.26922 0.054559495 50
0.19309843 1.2467332 0.073121607 78
0.19484523 1.2443999 0.093860678 52
0.20055446 1.2367737 0.11334054 13
0.21948829 1.2114828 0.1273223 32
0.17719981 1.2679698 0.16667947 75
0.18141603 1.265937 0.010785587 65
0.20807534 1.2300663 0.03004084 33
0.18276265 1.2641251 0.053862248 51
0.19713295 1.2447896 0.072634131 78
0.19768167 1.2440512 0.093547814 65
0.20101485 1.2395663 0.11372216 13
0.20708215 1.2314026 0.13272113 31
0.18585446 1.2599649 0.16357364 69
0.18908551 1.2591749 0.010611063 94
0.20138294 1.2425072 0.030773543 64
0.18212396 1.2686105 0.054210871 76
0.19643533 1.2492131 0.073121607 78
0.20637524 1.2357408 0.091670595 81
0.20498723 1.2376221 0.11295892 13
0.21795058 1.2200519 0.1291219 24
0.18986085 1.258124 0.16253836 70
0.1978009 1.2506907 0.010401634 83
0.19941044 1.248494 0.031087559 63
0.19202232 1.2585775 0.05299069 100
0.18864045 1.2631931 0.075071514 90
0.20675409 1.2384712 0.091983467 93
0.21466219 1.2276781 0.1102876 14
0.22290012 1.2164347 0.1277722 16
0.19033974 1.2608739 0.163056 70
0.19233775 1.2615578 0.010611063 81
0.21392506 1.231889 0.029936166 66
0.18778339 1.2678171 0.053862248 77
0.19611755 1.2563629 0.073852822 100
0.20249841 1.2475934 0.093547814 100
0.21040633 1.2367251 0.11219569 14
0.22667542 1.2143654 0.12687239 16
0.18969631 1.2651881 0.16409127 69
0.19396979 1.2627412 0.010611063 81
0.21779805 1.2297632 0.029726824 67
0.18476871 1.2754753 0.054559495 100
0.20819575 1.2430526 0.071659178 64
0.21218246 1.237535 0.09135773 94
0.20505705 1.2473965 0.1144854 13
0.24298778 1.1949009 0.12102367 17
0.18568331 1.2742095 0.16667947 67
0.20043898 1.2575423 0.010471444 82
0.21832162 1.2326008 0.029831495 66
0.19358948 1.2670953 0.053513627 100
0.20761847 1.2475288 0.072146654 79
0.21044523 1.2435862 0.092296332 100
0.20680913 1.2486576 0.1144854 13
0.24681821 1.1928558 0.12012386 8
0.19653913 1.2629814 0.16253836 70
0.1962586 1.2668437 0.010645968 100
0.21290711 1.2434602 0.030459527 65
0.19523987 1.2682745 0.053513627 100
0.20229587 1.2583641 0.073609084 62
0.22003749 1.2334453 0.090106249 96
0.20498228 1.254591 0.11563025 20
0.2244868 1.2271961 0.12957181 16
0.20601907 1.2531347 0.15891489 73
0.20846647 1.2534378 0.010331824 98
0.21694955 1.24143 0.030250182 65
0.19247007 1.2760806 0.054210871 100
0.2189784 1.2385583 0.070440479 49
0.21717912 1.2411051 0.09135773 94
0.20789352 1.2542487 0.11524864 47
0.22728911 1.2267945 0.1291219 24
0.19998938 1.265437 0.16253836 70
0.20547786 1.2611159 0.010471444 96
0.21736768 1.244167 0.030354854 97
0.19529447 1.2756323 0.054036561 100
0.21711394 1.2445287 0.071171694 81
0.21420541 1.2486748 0.092609204 93
0.20273635 1.2650239 0.11753834 99
0.22880566 1.2278621 0.1291219 48
0.20052481 1.2681764 0.163056 70
0.20719427 1.2623155 0.010471444 96
0.22587264 1.2354908 0.029726824 100
0.20503119 1.265422 0.05281638 100
0.21877238 1.2456877 0.071171694 81
0.22716627 1.233633 0.089480512 97
0.21680689 1.2485105 0.11334054 82
0.23374656 1.2241828 0.1277722 81
0.20005804 1.2725641 0.16409127 69
0.20427978 1.2700288 0.010611063 94
0.22855389 1.2349203 0.029622151 100
0.20440981 1.2698408 0.053165004 100
0.22035164 1.2467835 0.071171694 65
0.22084165 1.2460748 0.091670595 100
0.21281296 1.2576871 0.11524864 100
0.23303792 1.2284348 0.128672 81
0.20392385 1.2705437 0.163056 70
0.2152496 1.2581592 0.010331824 84
0.22695279 1.2410927 0.029936166 99
0.2130923 1.2613051 0.052119136 100
0.21095824 1.2644172 0.073609084 62
0.23160934 1.2343022 0.089167647 100
0.2280117 1.2395486 0.11066922 85
0.23259631 1.2328628 0.12957181 80
0.21895888 1.25275 0.15684435 74
0.21912113 1.2559607 0.010262015 84
0.22402051 1.248765 0.030354854 65
0.20799541 1.272301 0.053165004 100
0.23047516 1.2392851 0.069709264 66
0.23315078 1.2353554 0.089167647 84
0.23288533 1.2357453 0.10952436 85
0.22426212 1.2484101 0.13362093 93
0.21186352 1.2666199 0.16098544 72
0.21530762 1.2654554 0.010436539 41
0.22689548 1.2483015 0.030250182 32
0.21095401 1.2719002 0.05299069 52
0.22775254 1.2470328 0.070684217 81
0.23043546 1.2430612 0.090419121 100
0.22909963 1.2450386 0.11143246 91
0.23474458 1.2366823 0.13002171 96
0.21368599 1.2678559 0.16098544 72
0.21249697 1.2732055 0.010576159 40
0.2396085 1.2327831 0.029203463 34
0.20929083 1.2779858 0.053513627 52
0.22823048 1.2497474 0.070927955 97
0.23970824 1.2326344 0.088229038 98
0.22958311 1.2477307 0.11181407 100
0.23846486 1.2344882 0.1291219 96
0.21318662 1.2721772 0.16202073 70
0.22090393 1.2643929 0.010366729 41
0.21909145 1.2671157 0.031296901 31
0.22210631 1.2625866 0.051770512 54
0.22880709 1.2525201 0.071171694 81
0.24023044 1.2353592 0.08854191 84
0.23016477 1.2504805 0.11219569 91
0.23900828 1.2371951 0.12957181 96
0.22564635 1.2572684 0.15684435 74
0.22475028 1.2621448 0.010296919 28
0.20972979 1.2848728 0.032343622 30
0.22264308 1.2653334 0.051944822 54
0.22821996 1.2568948 0.071659178 80
0.2417753 1.2363838 0.08854191 98
0.239337 1.2400733 0.10952436 85
0.23948482 1.2398496 0.13002171 88
0.22406855 1.2631764 0.15839726 73
0.23094195 1.2566444 0.0101573 42
0.22257 1.2694137 0.031296901 31
0.23429248 1.251534 0.05037602 56
0.23327193 1.2530906 0.070927955 97
0.24132061 1.2408143 0.089167647 84
0.24321488 1.2379251 0.10876112 87
0.23907202 1.244244 0.13092151 96
0.229056 1.259521 0.15684435 74
0.22383055 1.2711073 0.010436539 27
0.23621285 1.2520839 0.030145511 32
0.22719598 1.2659369 0.051770512 54
0.24137306 1.244156 0.069465525 66
0.23534036 1.2534243 0.09135773 94
0.24369726 1.2405852 0.10914274 85
0.24808788 1.2338398 0.1277722 97
0.22435793 1.2702971 0.15995017 72
0.23217767 1.2622198 0.01022711 42
0.24664906 1.2398076 0.029308135 34
0.22145057 1.2788332 0.05299069 52
0.23988262 1.2502871 0.07019674 49
0.24782959 1.2379793 0.088229038 98
0.2411643 1.248302 0.11066922 85
0.24978998 1.2349432 0.1277722 97
0.22724169 1.2698643 0.15943253 73
0.23381171 1.2632711 0.01022711 42
0.24928647 1.2391295 0.029203463 68
0.22421491 1.2782426 0.05281638 53
0.24469078 1.246299 0.069465525 49
0.25258118 1.2339897 0.087290429 71
0.24381158 1.2476707 0.1102876 85
0.25448835 1.2310143 0.12642249 82
0.23307121 1.2644262 0.15736198 74
0.23562175 1.2644266 0.01022711 56
0.24993628 1.2419139 0.029308135 68
0.23142514 1.2710267 0.051944822 54
0.24217805 1.2541155 0.070440479 49
0.25216395 1.2384105 0.087916173 84
0.24240416 1.2537599 0.11143246 100
0.25199756 1.2386721 0.12822211 97
0.23281237 1.268845 0.15839726 73
0.2468693 1.2502474 0.0099129668 87
0.24723864 1.2496622 0.029726824 100
0.23627874 1.2670259 0.051421888 82
0.24378514 1.2551336 0.070440479 49
0.24950135 1.2460774 0.089167647 84
0.25553706 1.236515 0.10723466 73
0.2525132 1.2413057 0.128672 97
0.23343721 1.2715278 0.15891489 65
0.24740177 1.2529445 0.0099478718 87
0.24352863 1.2591259 0.030250182 98
0.23898652 1.2663751 0.051247578 82
0.24961156 1.2494177 0.069465525 66
0.2552771 1.2403755 0.087916173 56
0.24666172 1.2541256 0.11105084 84
0.25821653 1.2356842 0.12687239 99
0.23305061 1.2758489 0.15995017 64
0.24900496 1.2539452 0.0099478718 73
0.253591 1.2465717 0.029412808 100
0.23642522 1.2741711 0.051944822 81
0.2491062 1.2537825 0.069953002 49
0.26101163 1.2346406 0.086664692 71
0.25449008 1.2451261 0.10876112 79
0.26593766 1.2267206 0.12417299 100
0.24794883 1.2556432 -0.0099827768 86
0.23677039 1.2736162 0.15891489 65
0.24553126 1.2635548 0.010122396 85
0.25533971 1.2476549 0.029412808 100
0.24245942 1.2685343 0.051247578 82
0.25088137 1.2548821 0.069953002 49
0.26479083 1.2323343 0.086038955 58
0.24901816 1.2579024 0.11143246 84
0.2645441 1.2327342 0.12552269 90
0.24470398 1.2648958 0.15580906 67
0.25351959 1.2543812 0.0099129668 87
0.25700885 1.2486806 0.029412808 100
0.24004099 1.2764021 0.051944822 81
0.24843046 1.2626957 0.070927955 65
0.26331267 1.2383815 0.086977564 57
0.25277293 1.255601 0.11066922 92
0.26209173 1.2403762 0.1273223 97
0.2524845 1.2560723 0.15270324 68
0.26144013 1.245158 0.0097035384 90
0.26282841 1.2428719 0.028994121 100
0.2490499 1.2655603 0.05072464 84
0.25633454 1.2535651 0.069465525 49
0.26494938 1.2393794 0.086977564 57
0.26364145 1.241533 0.10723466 73
0.26070079 1.2463753 0.128672 97
0.24114704 1.2785735 0.15943253 56
0.26000446 1.2513007 0.0098082526 89
0.26241928 1.2472929 0.029203463 100
0.25078157 1.2666078 0.05072464 84
0.26212221 1.2477859 0.068490572 67
0.26557007 1.2420635 0.087290429 57
0.25313067 1.262709 0.11181407 98
0.27543971 1.2256831 0.12282328 85
0.24790916 1.2713751 0.15684435 66
0.25655615 1.260892 0.0099827768 87
0.26101276 1.2534368 0.029517479 100
0.25149459 1.2693594 0.050898954 83
0.26582882 1.2453802 0.068003096 51
0.27330092 1.2328804 0.085413218 58
0.26794764 1.2418356 0.10685304 73
0.27703202 1.2266387 0.12282328 93
0.25164357 1.2691102 0.15580906 67
0.25011122 1.2756732 0.010262015 84
0.2657584 1.2492889 0.029203463 100
0.25527209 1.2669709 0.05055033 84
0.2634396 1.2531989 0.068978049 50
0.27491838 1.2338433 0.085413218 58
0.2605834 1.258015 0.1102876 85
0.27564552 1.2326171 0.12417299 75
0.25827146 1.2619134 -0.0099827768 86
0.2533876 1.2701485 0.15580906 67
0.27317259 1.2405229 0.0095290141 76
0.27148432 1.2433925 0.028784776 100
0.2600396 1.262845 0.050027397 85
0.27116773 1.2439306 0.067515619 51
0.27353409 1.2399085 0.086351827 58
0.26427972 1.2556381 0.10952436 78
0.27627385 1.2352517 0.12462288 83
0.26100436 1.2612052 -0.0099478718 86
0.25709447 1.2678508 0.15477379 67
0.26977673 1.2501216 0.0097035384 90
0.2650843 1.2581614 0.029622151 100
0.26276603 1.2621334 0.049853086 100
0.26882121 1.2517588 0.068490572 50
0.2761718 1.2391646 0.086038955 72
0.27389368 1.2430677 0.10647142 81
0.27593493 1.2395704 0.12552269 82
0.2646769 1.2588594 0.15166797 69
0.26744652 1.2580191 0.0098431576 88
0.27079299 1.2522391 0.029203463 100
0.26049244 1.27003 0.05055033 84
0.27448314 1.2458656 0.067515619 51
0.27682137 1.241827 0.086351827 58
0.27259558 1.2491257 0.10761628 79
0.28831646 1.2219731 0.12057377 77
0.26251319 1.2665398 0.15373851 68
0.27612317 1.2468641 0.0095988233 76
0.28143036 1.2376233 0.028261416 100
0.26223963 1.2710376 0.05055033 84
0.27416861 1.2502673 0.068003096 51
0.28338906 1.2342129 0.084787481 59
0.27133644 1.2551985 0.10876112 100
0.2889252 1.2245736 0.12102367 86
0.2651681 1.2659386 -0.0099827768 86
0.26039967 1.2742412 0.15580906 67
0.2688807 1.2634548 0.0099129668 87
0.27317777 1.2559121 0.029308135 100
0.26399031 1.2720389 0.05055033 84
0.26896834 1.2633009 0.069709264 66
0.2859889 1.2334244 0.084474608 59
0.27691907 1.2493448 0.10723466 73
0.28858426 1.2288687 0.12192347 85
0.26690096 1.2669299 -0.0099827768 86
0.26789922 1.2651776 0.15270324 68
0.28142652 1.2452825 0.0095290141 76
0.28077114 1.2464423 0.028680105 100
0.27554643 1.2556882 0.048807215 88
0.2775282 1.2521812 0.068003096 68
0.2846927 1.2395024 0.085413218 87
0.27955979 1.2485859 0.10685304 81
0.2901876 1.2297784 0.12192347 76
0.26962942 1.2661593 0.15270324 68
0.28406489 1.2444727 0.0094941091 92
0.27657682 1.2578328 0.029308135 100
0.27432108 1.2618573 0.049330149 87
0.27533075 1.2600559 0.068978049 50
0.28633317 1.2404257 0.085413218 58
0.28123203 1.249527 0.10685304 81
0.29179412 1.2306825 0.12192347 76
0.27891931 1.2536533 0.14856213 71
0.28572273 1.245398 0.0094941091 92
0.28604472 1.2448189 0.02847076 100
0.28087994 1.2541096 0.048458595 88
0.28090107 1.2540716 0.068003096 51
0.28509751 1.2465228 0.086351827 58
0.28481534 1.2470304 0.1060898 81
0.29435062 1.2298777 0.12147357 86
0.27497736 1.2647276 0.15166797 69
0.2825563 1.2550735 0.0096686333 90
0.28963241 1.2422394 0.028261416 100
0.27679959 1.2655147 0.049504463 86
0.28259245 1.255008 0.068003096 51
0.29343882 1.2353355 0.084161744 59
0.28363839 1.2531109 0.10723466 81
0.2738668 1.2708341 -0.0099827768 86
0.26924402 1.2792187 0.15580906 75
0.28041363 1.2630223 0.0098082526 74
0.28744957 1.2501549 0.028680105 100
0.27853093 1.2664653 0.049504463 86
0.2833347 1.2576802 0.068246834 85
0.29127383 1.243161 0.085413218 58
0.27967498 1.2643731 0.10952436 78
0.27753547 1.2682859 -0.0099129668 87
0.28029156 1.2632455 0.15063268 70
0.28681782 1.255125 0.0096337283 90
0.29475763 1.2404895 0.028052073 100
0.28112885 1.2656115 0.049330149 87
0.28306016 1.2620516 0.068734311 50
0.29067767 1.2480102 0.10570818 81
0.27918935 1.2691866 -0.0099129668 87
0.28561354 1.257345 0.14856213 71
0.28946024 1.2542797 0.0095988233 91
0.28883141 1.2554486 0.028889447 100
0.29135609 1.2507558 0.047761347 90
0.29324386 1.2472469 0.066540658 52
0.29824409 1.2379527 0.084161744 59
0.29234782 1.2489125 0.10570818 81
0.29794574 1.2385073 0.12282328 76
0.28282833 1.2666068 -0.0098431576 87
0.28731629 1.2582648 0.14856213 71
0.29303482 1.2516576 0.0095290141 92
0.29616824 1.2457843 0.028261416 100
0.28271973 1.2709923 0.049678773 86
0.29117379 1.255146 0.067515619 51
0.29337037 1.2510287 0.086351827 58
0.29586935 1.2463446 0.10494494 75
0.28174761 1.2728145 0.15270324 76
0.29284748 1.2560868 0.0095988233 91
0.28074342 1.2789667 0.05037602 84
0.29472536 1.2525371 0.067028143 51
0.29874593 1.2449372 0.085100345 58
0.29753363 1.2472287 0.10494494 67
0.28443158 1.2719951 -0.0099129668 97
0.2835044 1.2737477 0.15270324 76
0.28804332 1.2693775 0.0098431576 88
0.29177698 1.2622597 0.048632905 88
0.29456702 1.2569411 0.067515619 51
0.29828903 1.2498457 0.10532656 75
0.28804332 1.2693775 -0.0098431576 87
0.29244369 1.2609888 0.14856213 71
0.29533559 1.2596229 0.048284281 88
0.29443631 1.2613519 0.068003096 51
0.29996553 1.2507215 0.10532656 75
0.28886533 1.2720628 -0.0098780617 97
0.29594201 1.2584571 0.14752686 71
0.29874903 1.2614104 0.0096337283 90
0.29422498 1.2702587 0.049155839 58
0.29232267 1.2739794 0.15166797 69
0.29867518 1.2658172 0.048632905 59
0.29323304 1.2765535 -0.0099129668 100
0.29321003 1.2765989 0.1521856 77
0.2968865 1.2739173 0.0098431576 100
0.28976271 1.2881 0.05072464 56
0.2987349 1.2702374 0.068734311 100
0.2968865 1.2739173 -0.0098431576 100
0.29695314 1.2784221 -0.0099129668 100
0.29881829 1.2793461 -0.0099129668 100
