# .PCD v0.7 - Point Cloud Data file format
VERSION 0.7
FIELDS x y z intensity
SIZE 4 4 4 4
TYPE F F F F
COUNT 1 1 1 1
WIDTH 771
HEIGHT 1
VIEWPOINT 0 0 0 1 0 0 0
POINTS 771
DATA ascii
-1.183888 0.16849221 0.020873077 27
-1.0507163 0.15328294 0.018534455 6
-1.0323753 0.15428953 0.018220313 6
-1.0417138 0.15940462 0.018394837 2
-1.0846148 0.16984613 0.019162742 1
-0.33669516 1.091056 0.019930648 1
-0.32976395 1.0806326 0.019721219 2
-0.3306056 1.0970943 0.020000458 1
-0.32259268 1.0848814 0.019756123 3
-0.31148142 1.0610573 0.019302361 5
-0.31668064 1.0928692 0.019860838 8
-0.3040663 1.0632061 0.019302361 14
-0.30434319 1.0776795 0.019546695 24
-0.30326328 1.0883669 0.019721219 32
-0.29893231 1.0874907 0.019686315 66
-0.29722759 1.0962476 0.019825934 58
-0.2861675 1.0702327 0.019337267 24
-0.28090054 1.0654243 0.019232552 8
-0.27452967 1.0546902 0.019023122 3
-0.26885858 1.0478944 0.018883504 2
-0.26519912 1.0488265 0.018883504 2
-0.25621867 1.0284016 0.018499551 3
-0.2464308 1.004043 0.018045789 2
-0.21096343 0.9916538 0.01769674 4
-0.21159333 1.0119578 0.018045789 5
-0.20846209 1.014649 0.018080693 6
-0.20452344 1.0134103 0.018045789 7
-0.19981848 1.0082334 0.017941074 6
-0.19532722 1.003002 0.01783636 7
-0.19144951 1.0017136 0.017801454 6
-0.18574052 0.99058318 0.017592026 7
0.056053251 0.005889833 0.015881689 128
0.053402215 0.001788795 0.047939736 57
0.049014032 0.0070315599 0.047835063 27
0.049791992 0.013694704 0.047521047 100
0.040376127 0.0055621862 0.048149079 79
0.034503818 0.0022819638 0.048463095 59
0.035317421 0.0089589357 0.048149079 26
0.037293971 0.017272711 0.047730394 19
0.028754056 0.011014998 0.048253752 8
0.039873719 0.032459199 0.046997689 10
0.03260529 0.027780056 0.047416378 9
0.018338978 0.01827389 0.048253752 8
-0.74061209 0.65413475 0.022618318 27
-0.73541087 0.66364235 0.022513604 130
-0.75173992 0.66709363 0.022792842 133
-0.73811609 0.67246777 0.02254851 132
-0.73844868 0.6769647 0.02254851 94
-0.73875016 0.68123788 0.02254851 123
-0.74503845 0.68534565 0.022653224 134
-0.74331611 0.68976444 0.022618318 129
-1.0375037 1.1297979 0.085307606 3
-1.0472348 1.1320034 0.14328404 4
-1.0362244 1.135334 0.028412517 7
-0.99147314 1.1250271 0.082900152 7
-1.0284874 1.1335521 0.14171524 11
-1.0037858 1.133579 0.02785404 12
-1.0096717 1.1349562 0.083946876 56
-1.0291488 1.1395137 0.14188954 52
-1.0004973 1.1388087 0.027819136 36
-0.9927792 1.1369728 0.083109498 100
-1.0180924 1.1429939 0.14101799 95
-0.98365027 1.1404624 0.027539898 38
-0.99537164 1.1432937 0.083318844 100
-1.0012872 1.1447227 0.13962349 87
-0.97852892 1.1445942 0.027470088 35
-0.99800497 1.1493671 0.083528183 100
-0.99616581 1.1489165 0.13927488 89
-0.97333091 1.148962 0.027400278 26
-0.97341317 1.1489824 0.08227212 78
-0.99483377 1.1543112 0.13927488 89
-0.97580928 1.1555223 0.027470088 25
-0.98169583 1.1570098 0.082795486 43
-0.99727815 1.1609468 0.13962349 69
-0.97639126 1.1613427 0.027504992 43
-0.97066218 1.159874 0.08227212 32
-0.9785344 1.1618922 0.1380547 85
-0.95960206 1.162378 0.027225753 61
-0.97516006 1.1664218 0.082586139 84
-0.97722644 1.1669588 0.1380547 91
-0.95628959 1.1671352 0.027190849 71
-0.97183579 1.171234 0.082481466 100
-0.97775799 1.1727954 0.13822901 94
-0.95096034 1.1716197 0.027121039 83
-0.95106107 1.1716466 0.081434749 94
-0.97242206 1.1773622 0.13788038 100
-0.95533913 1.1784273 0.027225753 93
-0.94193965 1.1747918 0.081016064 100
-0.97483653 1.1837174 0.13822901 100
-0.95776039 1.1847402 0.027295563 93
-0.94244331 1.180527 0.081120729 100
-0.96569902 1.1869239 0.13753176 98
-0.94089371 1.185704 0.027016325 93
-0.94869667 1.1878798 0.081539422 96
-0.95655769 1.1900716 0.13683452 94
-0.93188232 1.1882132 0.026876707 93
-0.9454543 1.1920435 0.081434749 84
-0.95331305 1.1942613 0.1366602 99
-0.9650206 1.2032807 0.027504992 56
-0.92860979 1.1928676 0.080597371 66
-0.94990736 1.1989585 0.13648589 100
-0.95581609 1.2063403 0.027365373 46
-0.9194513 1.1958028 0.080178685 26
-0.95796925 1.2069641 0.13735744 91
-0.94277149 1.2082143 0.027155945 56
-0.91795605 1.2009296 0.080178685 24
-0.94687611 1.2094193 0.13648589 84
-0.92973226 1.2100027 0.026946515 75
-0.92410058 1.2083281 0.080597371 30
-0.93387467 1.2112345 0.13544002 89
-0.91478401 1.2111287 0.026702182 75
-0.93403608 1.2169266 0.081225403 46
-0.92850989 1.2152624 0.13509139 100
-0.91522604 1.2165668 0.026737086 81
-0.90961987 1.2148581 0.079969339 94
-0.93274277 1.2219055 0.13561434 99
-0.91365832 1.2216786 0.026737086 88
-0.9004243 1.2175946 0.079550654 95
-0.92734867 1.2259034 0.13526571 91
-0.91581017 1.2282335 0.026806897 88
-0.90449291 1.2246956 0.079864666 82
-0.92186457 1.2301261 0.1349171 66
-0.90276259 1.2297274 0.026597468 83
-0.91241783 1.2327828 0.080388032 66
-0.90885216 1.2316544 0.13387123 43
-0.8935315 1.2323558 0.026457848 81
-0.90889138 1.2372756 0.080283359 78
-0.90723175 1.2367439 0.13387123 43
-0.89190871 1.2373918 0.026457848 89
-0.88635212 1.2355907 0.079131968 100
-0.91317493 1.2442852 0.13456847 52
-0.88655049 1.2409251 0.026388038 100
-0.89049393 1.2422178 0.07944598 100
-0.91727382 1.2509966 0.13509139 71
-0.89628595 1.2497139 0.026597468 100
-0.88694113 1.2466143 0.079341307 100
-0.90423948 1.252352 0.13404553 82
-0.88314384 1.2511926 0.026388038 99
-0.89086467 1.2537849 0.079655327 100
-0.89679545 1.2557763 0.1335226 90
-0.8663078 1.2510474 0.0261088 96
-0.89294952 1.2600962 0.079864666 100
-0.89886409 1.2621051 0.13387123 82
-0.86470479 1.2557414 0.0261088 96
-0.87620431 1.2596898 0.079027295 100
-0.89157099 1.264966 0.13334829 100
-0.87811285 1.2659246 0.026388038 89
-0.86693925 1.2620444 0.07860861 100
-0.89736301 1.2726092 0.13404553 85
-0.87637311 1.2709066 0.026388038 79
-0.86709756 1.2676492 0.078713275 78
-0.89935941 1.2789788 0.13439415 47
-0.86330944 1.2718675 0.02617861 81
-0.85782331 1.2699194 0.07829459 40
-0.89006382 1.281368 0.13369691 33
-0.85025662 1.2727435 0.025969181 96
-0.86734837 1.2788801 0.078922622 19
-0.88451964 1.2850451 0.13334829 35
-0.85225254 1.2789929 0.026038991 93
-0.85242158 1.2790542 0.078189917 57
-0.88271302 1.2900494 0.13334829 18
-0.85422188 1.2852621 0.0261088 99
-0.84501106 1.2818823 0.077875905 100
-0.87714809 1.2936747 0.13299966 13
-0.85241479 1.2901607 0.0261088 100
-0.85070616 1.2895269 0.07829459 100
-0.87157542 1.2972674 0.13265105 3
-0.83935577 1.2908412 0.025899371 100
-0.83205265 1.2881033 0.077352546 57
-0.87159187 1.3029258 0.13282534 1
-0.83378929 1.2942709 0.025829561 96
-0.83583874 1.2950473 0.077666558 48
-0.83804935 1.2958848 0.12986206 3
-0.83568579 1.300528 0.025899371 79
-0.83399755 1.2998817 0.077666558 55
-0.85109061 1.3064259 0.13125655 22
-0.8394205 1.3075262 0.026004085 74
-0.83027679 1.3039888 0.077561885 76
-0.84549326 1.3098756 0.13090792 61
-0.8451758 1.3147981 0.026143705 83
-0.82673198 1.307596 0.077457212 70
-0.85678166 1.31933 0.1321281 100
-0.81908339 1.3101245 0.025689943 96
-0.82484704 1.3123984 0.077457212 72
-0.82705504 1.3132694 0.12951343 95
-0.80975932 1.3119388 0.025550323 100
-0.8340773 1.321631 0.078085244 91
-0.83255345 1.3210236 0.13021068 95
-0.81537527 1.3194311 0.025689943 100
-0.82297605 1.3224896 0.077561885 97
-0.83626372 1.3278365 0.13073361 100
-0.81715411 1.3256997 0.025759751 100
-0.80068642 1.3190062 0.076410495 100
-0.83615381 1.3334224 0.13090792 100
-0.77958542 1.3104293 0.17622307 15
-0.81530374 1.3302302 0.025759751 100
-0.80255383 1.3249986 0.076619841 100
-0.81953186 1.3319652 0.12951343 100
-0.78145903 1.3163426 0.17671055 13
-0.80206019 1.3308712 0.025550323 100
-0.80410248 1.3317184 0.07682918 100
-0.80816227 1.3334026 0.12864187 100
-0.79952091 1.3298178 0.17939167 22
-0.79281467 1.3322623 0.025410704 100
-0.80407459 1.3369771 0.076933853 100
-0.80628651 1.3379033 0.12864187 100
-0.7756843 1.3250896 0.17646681 18
-0.79084378 1.3369462 0.025410704 100
-0.79104978 1.3370333 0.076305822 99
-0.80796605 1.3441861 0.1289905 100
-0.77373868 1.3297137 0.17646681 22
-0.80183095 1.3468837 0.025655037 70
-0.79651004 1.344613 0.076724514 49
-0.81155211 1.351032 0.12951343 75
-0.77370113 1.3348794 0.17671055 15
-0.82174355 1.3613338 0.026073895 67
-0.81457001 1.3582414 0.077875905 57
-0.82587999 1.363117 0.13108224 22
-0.78985113 1.3475856 0.17914793 5
-0.79960436 1.3571048 0.025689943 100
-0.80345446 1.3587797 0.077352546 100
-0.80380851 1.3589337 0.12916481 71
-0.79338926 1.3544011 0.17987914 17
-0.78828961 1.3580253 0.025515418 100
-0.81043011 1.3677535 0.077875905 100
-0.81623346 1.3703034 0.1305593 100
-0.78396875 1.3561268 0.17890419 35
-0.79364461 1.3657019 0.025655037 100
-0.7993111 1.3682141 0.077352546 100
-0.81787819 1.3764458 0.13090792 100
-0.76387042 1.3525016 0.17646681 33
-0.79875273 1.3738914 0.025794657 100
-0.80986959 1.3788688 0.078085244 100
-0.81564623 1.3814552 0.13090792 100
-0.78165609 1.3662364 0.17914793 33
-0.80585462 1.3824768 0.025969181 100
-0.80784303 1.3833749 0.078085244 100
-0.80997962 1.38434 0.1305593 100
-0.76700801 1.3649287 0.17744176 22
-0.79814261 1.3849523 0.025864467 100
-0.80740291 1.3891765 0.078189917 100
-0.80046791 1.386013 0.12986206 100
-0.77384907 1.3738708 0.17866045 14
-0.7942794 1.3885837 0.025829561 100
-0.81441408 1.3978488 0.078713275 100
-0.8002277 1.3913209 0.13003637 100
-0.76282257 1.3741086 0.17744176 13
-0.79744369 1.3960342 0.025934275 100
-0.80485851 1.3994794 0.07829459 100
-0.81420344 1.403821 0.13160518 100
-0.76420015 1.380589 0.17792924 11
-0.79354948 1.3996506 0.025899371 100
-0.80276364 1.4039688 0.07829459 100
-0.80848593 1.4066504 0.13125655 100
-0.76756066 1.387471 0.17866045 5
-0.80027074 1.4088467 0.026073895 100
-0.80765253 1.4123392 0.078713275 100
-0.80614334 1.4116253 0.13125655 100
-0.77067178 1.3948429 0.17939167 3
-0.78912109 1.4090149 0.025899371 100
-0.80190986 1.4151175 0.078503937 100
-0.80760449 1.417835 0.13160518 100
-0.78688234 1.4136853 0.025899371 100
-0.80864745 1.424165 0.079027295 100
-0.80174452 1.4208412 0.13125655 100
-0.79193574 1.4216089 0.026038991 100
-0.79748744 1.4243047 0.078503937 100
-0.81391698 1.4322824 0.13265105 100
-0.80031222 1.4318035 0.02624842 100
-0.79866713 1.4309971 0.078713275 100
-0.81505853 1.4390306 0.13299966 100
-0.80169564 1.4380496 0.02631823 100
-0.80004877 1.4372356 0.078922622 100
-0.80390173 1.4391398 0.1321281 100
-0.79208022 1.439429 0.02617861 100
-0.80653054 1.4466368 0.07944598 100
-0.79609138 1.4414299 0.13160518 100
-0.78616267 1.442312 0.0261088 100
-0.80237621 1.4504701 0.079341307 100
-0.80441815 1.4514976 0.13265105 100
-0.79094046 1.4505923 0.02624842 100
-0.79999262 1.4551866 0.079341307 100
-0.81091434 1.4607298 0.1335226 100
-0.79567653 1.4589138 0.026388038 100
-0.80114836 1.4617151 0.079550654 100
-0.81558889 1.4691079 0.13421984 100
-0.79326361 1.463607 0.026388038 100
-0.79517633 1.4645946 0.079341307 100
-0.80428869 1.4692998 0.13334829 100
-0.79438144 1.4701389 0.026457848 100
-0.7962864 1.471131 0.079550654 100
-0.80183941 1.474023 0.13334829 100
-0.78130716 1.4692483 0.02624842 100
-0.8009035 1.4795411 0.079969339 100
-0.80642921 1.4824433 0.13404553 100
-0.78592664 1.4776353 0.026388038 64
-0.77547425 1.4720987 0.07860861 76
-0.81273729 1.4918368 0.1349171 92
0.13507143 1.2856984 0.011553493 11
0.1290949 1.2931263 0.13051336 11
0.16183639 1.2558962 0.010855397 26
0.15732291 1.2615461 0.032971654 29
0.15703678 1.2619042 0.055082429 25
0.14608601 1.2756122 0.07945881 14
0.14559701 1.2762244 0.10262101 11
0.14562798 1.2761856 0.12593393 48
0.19362095 1.2161088 0.13182132 15
0.15209597 1.2680891 0.17082056 7
0.16842151 1.2509148 0.010715778 100
0.17509347 1.2425059 0.031610917 92
0.154955 1.267887 0.055605363 98
0.16133723 1.2598432 0.076777689 29
0.16937852 1.2497087 0.096989371 25
0.17171428 1.2467648 0.11830158 100
0.1805672 1.2356071 0.13722014 30
0.14894688 1.2754593 0.17289113 35
0.16267782 1.2616687 0.010925206 100
0.17550915 1.2453806 0.031715591 100
0.14559898 1.2833488 0.057174169 100
0.17164838 1.2502815 0.075071514 30
0.17350015 1.2479308 0.096363634 37
0.158802 1.2665887 0.122881 100
0.19666576 1.2185242 0.13182132 47
0.15190917 1.2753385 0.17237349 42
0.15946859 1.2693183 0.011064826 100
0.17470992 1.2498313 0.031924933 100
0.14984828 1.2816184 0.056825545 100
0.1659894 1.2609811 0.076533951 29
0.18247259 1.2399063 0.094486415 26
0.16900438 1.2571262 0.12020966 100
0.19583243 1.2228249 0.13272113 39
0.1489149 1.2828119 0.17444403 42
0.16489327 1.2659402 0.010960111 100
0.19108665 1.2322084 0.03066887 64
0.16263437 1.2688491 0.055256739 99
0.17501056 1.2529111 0.075071514 30
0.18411511 1.2411864 0.094486415 26
0.17793173 1.2491493 0.11791996 78
0.19143921 1.2317543 0.13497064 30
0.15189222 1.2826829 0.1739264 42
0.17151052 1.2609466 0.010820492 78
0.1707522 1.2619302 0.032552965 59
0.17775923 1.2528412 0.053339314 52
0.16700238 1.2667942 0.077021427 87
0.18576208 1.2424606 0.094486415 39
0.17840785 1.252 0.11830158 13
0.18591428 1.2422632 0.13767004 15
0.15132523 1.2871294 0.17496167 49
0.17930353 1.254325 0.010645968 66
0.16518816 1.2727672 0.033180997 28
0.17581406 1.2588842 0.053862248 51
0.18442366 1.2476355 0.073852822 46
0.18381166 1.248435 0.095425025 51
0.1920251 1.237704 0.1144854 20
0.19348717 1.2357938 0.13542053 30
0.16135192 1.2777793 0.1713382 58
0.176157 1.2619848 0.010785587 39
0.18144599 1.2550244 0.031924933 30
0.16667402 1.2744646 0.055431053 49
0.1908972 1.2425865 0.072877869 63
0.18667907 1.2481376 0.095112152 51
0.19484767 1.2373875 0.11410378 20
0.19983134 1.230829 0.13362093 38
0.17364597 1.2652894 0.16667947 67
0.17787665 1.2632868 0.010785587 39
0.17833 1.2626858 0.032343622 30
0.17083704 1.2726185 0.055082429 50
0.19254902 1.2438371 0.072877869 47
0.19310886 1.2430949 0.093860678 52
0.20121068 1.2323551 0.1125773 13
0.21200442 1.218047 0.12957181 48
0.17421374 1.2681423 0.16719711 67
0.17968711 1.2646474 0.010785587 52
0.18013829 1.2640448 0.032343622 30
0.18701032 1.2548654 0.05299069 52
0.18715009 1.2546787 0.074340299 92
0.20194831 1.2349119 0.091983467 53
0.19584811 1.2430602 0.11486702 13
0.21481675 1.2177228 0.1291219 40
0.18183085 1.2617838 0.16460891 69
0.18260884 1.2643321 0.010750682 92
0.20330983 1.2364784 0.030459527 32
0.17800879 1.2705215 0.054559495 50
0.19239649 1.2511625 0.073609084 77
0.20239496 1.2377094 0.092296332 66
0.19867265 1.2427179 0.1144854 13
0.21405676 1.2220182 0.13002171 32
0.19161627 1.2522123 0.16098544 72
0.1950216 1.2511293 0.010436539 68
0.18478215 1.2650076 0.032238949 60
0.18567261 1.2638006 0.053687938 78
0.18818548 1.2603948 0.074827775 100
0.20402968 1.23892 0.092296332 80
0.21664307 1.221824 0.10914274 14
0.20753789 1.234165 0.13317102 31
0.18527311 1.2643422 0.16460891 69
0.18606886 1.2668848 0.010750682 92
0.21483597 1.2276083 0.029726824 67
0.18857577 1.2634621 0.053513627 78
0.206321 1.239234 0.071415432 96
0.1998325 1.2480929 0.093860678 91
0.21010181 1.234072 0.11181407 14
0.22758397 1.2102032 0.12597258 16
0.18585938 1.2671708 0.16512655 68
0.19233775 1.2615578 0.010611063 81
0.21274999 1.2335041 0.03004084 66
0.18426672 1.2726504 0.054385185 76
0.19962135 1.2515476 0.073121607 62
0.2094717 1.2380096 0.091670595 100
0.21156141 1.2351375 0.11181407 14
0.22667542 1.2143654 0.12687239 16
0.18969631 1.2651881 0.16409127 69
0.1893723 1.2692876 0.010750682 92
0.20267555 1.2508693 0.031087559 63
0.19185647 1.2658483 0.053513627 100
0.20711598 1.2447215 0.071902916 48
0.21573395 1.23279 0.090419121 82
0.20628992 1.2458652 0.11410378 13
0.25675437 1.1759974 0.11562485 18
0.19482046 1.2617446 0.16253836 70
0.19810855 1.2607925 0.010541254 95
0.22297674 1.2261082 0.029412808 100
0.20055518 1.2573801 0.052467756 100
0.20299169 1.2539818 0.073121607 62
0.21044523 1.2435862 0.092296332 100
0.21367294 1.2390845 0.11219569 14
0.23546311 1.2086931 0.12462288 8
0.1976648 1.2614114 0.16202073 70
0.20678103 1.2522427 0.010331824 98
0.20951542 1.2484007 0.030773543 96
0.19763741 1.26509 0.053165004 100
0.20468321 1.2551901 0.073121607 78
0.20751873 1.2512062 0.093547814 100
0.20962045 1.2482531 0.11410378 20
0.22456658 1.227253 0.12957181 16
0.19714195 1.2657862 0.163056 86
0.20615882 1.2567042 0.010401634 83
0.21925437 1.2381675 0.03004084 66
0.19017085 1.279335 0.054559495 100
0.21096057 1.2499074 0.072146654 79
0.21717912 1.2411051 0.09135773 100
0.2067607 1.2558522 0.11563025 54
0.23178682 1.220428 0.1273223 24
0.19107193 1.2780596 0.16667947 67
0.2009711 1.267725 0.010611063 94
0.22089061 1.2393192 0.03004084 99
0.20110235 1.2675378 0.053165004 100
0.21605703 1.246212 0.071415432 64
0.22563055 1.2325599 0.089480512 100
0.19831395 1.2715142 0.11906482 91
0.24007425 1.2119628 0.12462288 50
0.20172092 1.2666557 0.16253836 94
0.20728019 1.2623754 0.010471444 82
0.22709489 1.2339082 0.029622151 100
0.19601187 1.2785642 0.054210871 100
0.21318513 1.2538919 0.072390392 63
0.22724718 1.2336893 0.089480512 100
0.21464726 1.2517912 0.11410378 89
0.23048598 1.2290363 0.1291219 80
0.20124942 1.2710396 0.16357364 77
0.21354765 1.2569877 0.010331824 84
0.21736339 1.2514647 0.03066887 96
0.2045843 1.2699615 0.053165004 100
0.21713302 1.2517982 0.071902916 48
0.22100782 1.2461897 0.091670595 100
0.22637463 1.2384217 0.11066922 85
0.22655177 1.2381654 0.13137141 86
0.21068719 1.2611279 0.15995017 88
0.21751145 1.2548609 0.010262015 84
0.22017559 1.2509757 0.030564198 97
0.20858517 1.2678778 0.05281638 100
0.22218478 1.2480458 0.071171694 65
0.22155491 1.2489643 0.091983467 93
0.22468078 1.244406 0.11181407 98
0.22598374 1.2425058 0.13227122 94
0.21568125 1.2575297 0.15839726 81
0.22145623 1.2527122 0.010192205 85
0.23084676 1.2389152 0.029726824 67
0.20471996 1.277302 0.053687938 100
0.22385547 1.2491871 0.071171694 65
0.22878614 1.2419428 0.090419121 100
0.22192016 1.2520306 0.11334054 100
0.23750338 1.229135 0.12822211 97
0.20760229 1.2730671 0.163056 70
0.21754634 1.2621413 0.010366729 41
0.23807555 1.2317513 0.029203463 34
0.20314702 1.283457 0.054210871 76
0.22664133 1.2486777 0.070927955 97
0.23596427 1.2348768 0.088854775 98
0.22140682 1.2564266 0.11410378 96
0.23910797 1.2302229 0.12822211 97
0.21152321 1.2710576 0.16202073 70
0.21703911 1.2666206 0.010436539 41
0.21966922 1.2626978 0.031087559 31
0.21381754 1.2714257 0.05281638 53
0.22499785 1.25475 0.071659178 64
0.23978898 1.2326887 0.088229038 98
0.22310674 1.2575706 0.11410378 100
0.23746073 1.2361612 0.12957181 100
0.21972907 1.2626085 0.15891489 73
0.22312006 1.2610636 0.010296919 42
0.22573176 1.2571402 0.03066887 32
0.22100228 1.264245 0.051944822 54
0.22770712 1.2541726 0.071415432 96
0.23804125 1.2386479 0.089167647 98
0.23451626 1.2439433 0.11066922 85
0.23792845 1.2388173 0.13002171 100
0.22564635 1.2572684 0.15684435 74
0.23144969 1.2521907 0.010087491 28
0.20981964 1.2849321 0.032343622 30
0.22492597 1.2620658 0.051596198 54
0.23596436 1.2453569 0.069953002 99
0.23423481 1.2479749 0.090731993 95
0.23941904 1.2401276 0.10952436 85
0.23956683 1.2399038 0.13002171 96
0.22521949 1.2616215 0.15787962 73
0.22984552 1.2583168 0.010192205 28
0.21161917 1.2861166 0.032343622 30
0.2200911 1.2731947 0.05264207 53
0.23653716 1.2481103 0.07019674 82
0.23590517 1.2490742 0.090731993 95
0.23890913 1.2444924 0.1102876 92
0.24548292 1.2344657 0.12822211 97
0.21952301 1.2740612 0.16150309 70
0.22282743 1.2728404 0.010471444 27
0.2221368 1.2739018 0.031506244 31
0.22293618 1.2726731 0.052467756 53
0.23496017 1.2541933 0.070927955 97
0.24619788 1.2369217 0.088229038 98
0.23949659 1.247221 0.11066922 85
0.25348279 1.2257253 0.12552269 90
0.22444525 1.2703539 0.15995017 72
0.23434713 1.25886 0.0101573 42
0.23689848 1.2549086 0.030250182 32
0.22793511 1.2687905 0.051944822 54
0.23557544 1.2569577 0.071171694 65
0.25104415 1.2330008 0.087290429 85
0.23477459 1.2581979 0.11295892 82
0.24767581 1.2382175 0.128672 97
0.22933754 1.2666185 0.15839726 73
0.24037087 1.253224 0.010017681 43
0.24829084 1.2408637 0.029308135 68
0.23182797 1.2665565 0.051596198 54
0.23941907 1.2547094 0.070684217 65
0.24839926 1.2406945 0.08854191 84
0.25130928 1.2361529 0.10761628 87
0.24826068 1.2409108 0.1291219 96
0.23941097 1.2547221 0.15425615 75
0.24635139 1.247552 0.0098780617 88
0.244578 1.2503409 0.029831495 66
0.23142514 1.2710267 0.051944822 81
0.24856883 1.2440646 0.068978049 50
0.25004411 1.2417444 0.08854191 84
0.24451098 1.2504464 0.11066922 92
0.25513443 1.2337388 0.12687239 99
0.22762957 1.276996 0.16098544 64
0.24268487 1.2570651 0.010052586 86
0.25265118 1.2412694 0.029203463 100
0.23104963 1.2755058 0.052293446 80
0.2481069 1.2484716 0.069465525 66
0.24958447 1.2461298 0.089167647 70
0.24933279 1.2465287 0.10952436 71
0.25987461 1.229821 0.12552269 99
0.23249388 1.2732167 0.15943253 73
0.24544805 1.2564399 0.010017681 72
0.25959733 1.2338402 0.028680105 100
0.23281613 1.276616 0.052293446 80
0.24767211 1.2528875 0.069953002 49
0.25963432 1.2337811 0.086664692 71
0.24787256 1.2525674 0.11066922 85
0.26768616 1.2209206 0.12282328 93
0.23732781 1.2694098 0.15787962 65
0.25031361 1.2524042 0.0099129668 87
0.24857083 1.2552094 0.029936166 99
0.24194613 1.2658733 0.051073264 83
0.24935955 1.2539399 0.069953002 49
0.26542458 1.22808 0.085413218 73
0.24127084 1.2669603 0.11372216 89
0.2630918 1.2318351 0.12552269 90
0.24111187 1.2672162 0.15684435 66
0.25393039 1.2499394 0.0098431576 88
0.25429112 1.2493547 0.029517479 100
0.23932126 1.2736213 0.051770512 81
0.24671245 1.26164 0.070927955 48
0.26479083 1.2323343 0.086038955 58
0.26035652 1.2395225 0.10723466 81
0.26352099 1.2343928 0.12597258 82
0.24267542 1.2681842 0.15684435 66
0.25351959 1.2543812 0.0099129668 87
0.25805151 1.2469771 0.029308135 100
0.2473219 1.2645068 0.05072464 84
0.25879368 1.2457645 0.068490572 50
0.25609392 1.2501752 0.089167647 70
0.25482276 1.2522521 0.10990598 92
0.26616108 1.2337278 0.12552269 90
0.2444163 1.2692538 0.15684435 66
0.25936416 1.2485763 0.0097733475 89
0.2566081 1.2531146 0.029622151 100
0.24284473 1.2757781 0.051770512 81
0.25942576 1.2484748 0.068734311 50
0.2587972 1.2495098 0.088854775 56
0.2616033 1.2448893 0.10799789 72
0.27283922 1.2263875 0.12327318 76
0.24616086 1.2703176 0.15684435 66
0.24658829 1.2735672 0.010262015 84
0.26757306 1.2387393 0.028680105 100
0.24666858 1.273434 0.051421888 82
0.26007324 1.2511866 0.068978049 50
0.27168685 1.2319117 0.085413218 73
0.25313067 1.262709 0.11181407 84
0.27141684 1.2323598 0.12462288 100
0.24591517 1.2746844 0.15787962 65
0.25450408 1.2643249 0.010052586 86
0.26408711 1.2482938 0.029203463 100
0.25353914 1.2659391 0.05055033 84
0.25971761 1.2556033 0.069465525 49
0.27431446 1.2311847 0.085100345 58
0.25585967 1.2620572 0.11143246 91
0.27803189 1.224966 0.12237337 76
0.25655615 1.260892 -0.0099827768 86
0.25164357 1.2691102 0.15580906 67
0.26031151 1.2584734 0.0099129668 87
0.26677719 1.247571 0.029098792 100
0.25933731 1.2601161 0.049853086 85
0.25938928 1.2600286 0.069953002 49
0.27693361 1.2304453 0.084787481 88
0.27059782 1.2411287 0.10647142 73
0.27067533 1.2409979 0.12642249 99
0.25732929 1.2635021 0.15373851 68
0.26708847 1.250864 0.0097384425 75
0.26338202 1.2571639 0.029622151 100
0.2610499 1.2611277 0.049853086 85
0.26512802 1.2541962 0.068978049 50
0.2725324 1.241611 0.086664692 71
0.27423513 1.2387168 0.10570818 73
0.27232113 1.2419701 0.12642249 90
0.25905371 1.2645206 0.15373851 68
0.27078474 1.2483945 0.0096686333 75
0.27615875 1.2391869 0.02847076 100
0.25674012 1.2724578 0.050898954 100
0.26581928 1.2569021 0.069221787 83
0.27716753 1.2374585 0.08572609 58
0.26993519 1.24985 0.10799789 79
0.28379342 1.226106 0.12192347 85
0.25688648 1.2722071 0.15580906 67
0.27045241 1.2528274 0.0097384425 90
0.27979967 1.236683 0.028261416 100
0.25849584 1.2734785 0.050898954 83
0.27249384 1.2493014 0.068003096 51
0.2797907 1.2366985 0.085413218 58
0.26866075 1.2559218 0.10914274 78
0.2863636 1.225346 0.12147357 86
0.25476944 1.2799146 0.15787962 65
0.26317626 1.2694067 0.010052586 86
0.27446744 1.2497469 0.028994121 100
0.26223963 1.2710376 0.05055033 84
0.27219132 1.25371 0.068490572 50
0.28437287 1.2325 0.084474608 59
0.26840311 1.2603059 0.10990598 92
0.28504303 1.2313331 0.12282328 93
0.27213949 1.2538003 -0.0097384425 88
0.25943756 1.2759163 0.1563267 74
0.27580968 1.2512922 0.0096686333 75
0.27713239 1.2489704 0.028889447 100
0.27188024 1.2581896 0.049155839 87
0.27388149 1.2546768 0.068490572 50
0.28305545 1.2385736 0.085413218 58
0.27886268 1.2459332 0.10647142 73
0.28472573 1.2356416 0.12372308 83
0.27746195 1.2483919 0.14752686 71
0.27945894 1.2487644 0.0095988233 91
0.27487561 1.2568753 0.029308135 100
0.26868507 1.2678304 0.050027397 85
0.2775282 1.2521812 0.068003096 51
0.28663635 1.2360629 0.084787481 59
0.27762809 1.2520044 0.10761628 79
0.28731146 1.2348682 0.12327318 85
0.2686373 1.267915 -0.0099827768 86
0.26962942 1.2661593 0.15270324 68
0.28219292 1.2480083 0.0095639192 91
0.28056678 1.2509108 0.028889447 100
0.26953778 1.2705963 0.050201707 85
0.28511888 1.2427857 0.066540658 52
0.28448427 1.2439184 0.086038955 58
0.27939656 1.2529994 0.10761628 79
0.29568449 1.2239271 0.12012386 86
0.27144983 1.2671835 0.15270324 68
0.277064 1.2611759 0.0098082526 59
0.28418735 1.2483566 0.028680105 100
0.26838365 1.2767971 0.05072464 84
0.27905715 1.257589 0.068490572 50
0.28901863 1.2396623 0.085100345 58
0.28299138 1.2505089 0.10685304 81
0.29727054 1.2248122 0.12012386 86
0.26568022 1.2816621 0.15684435 66
0.28159079 1.2568247 0.0097035384 90
0.27998915 1.2597296 0.029308135 100
0.27679959 1.2655147 0.049504463 86
0.27588329 1.2671766 0.069709264 83
0.29057753 1.2405251 0.085100345 58
0.28079465 1.2582687 0.10837951 79
0.29595745 1.2307674 0.12147357 77
0.2777288 1.2638295 -0.0098431576 87
0.28043693 1.2589176 0.14959741 70
0.27945423 1.2647768 0.0098431576 88
0.27978384 1.264174 0.029517479 100
0.28904557 1.247236 0.047587037 90
0.28238231 1.2594218 0.068490572 50
0.29411697 1.2379614 0.084474608 59
0.28438446 1.2557603 0.10761628 79
0.29663244 1.2333611 0.12192347 76
0.28214523 1.2598555 0.14959741 70
0.29548177 1.2393502 0.0093195848 78
0.2891272 1.2510684 0.028680105 100
0.28026557 1.2674099 0.049504463 86
0.2897701 1.2498829 0.067028143 51
0.29763535 1.2353787 0.083848871 59
0.29356876 1.242878 0.10456333 82
0.29825142 1.2342427 0.12192347 85
0.27736998 1.2727497 -0.0099827768 86
0.28846133 1.2522963 0.14700922 81
0.29238608 1.2490417 0.0094941091 92
0.29459187 1.2449399 0.028261416 100
0.27822891 1.2753675 0.050201707 85
0.28768602 1.2577816 0.068003096 51
0.29177663 1.250175 0.086351827 58
0.29336128 1.2472283 0.10532656 82
0.28008169 1.2719221 0.15270324 68
0.28849971 1.2605705 0.0097035384 90
0.28289464 1.2710855 0.049678773 86
0.29134312 1.2552363 0.067515619 51
0.29632592 1.2458887 0.085413218 58
0.29141811 1.2550957 0.10685304 73
0.28473711 1.267629 -0.0098431576 87
0.28192315 1.272908 0.15270324 76
0.28834474 1.2650161 0.0097733475 89
0.2942636 1.2538185 0.028680105 100
0.29302499 1.2561617 0.048109971 59
0.29489383 1.2526262 0.067028143 51
0.29678279 1.2490525 0.10532656 75
0.28647578 1.2685519 -0.0098431576 87
0.28909692 1.2635932 0.14959741 78
0.29648802 1.253484 0.0095290141 92
0.29772437 1.2511262 0.02847076 100
0.29278815 1.2605402 0.048458595 59
0.29280832 1.2605017 0.068003096 51
0.29957104 1.2476044 0.085413218 58
0.29928446 1.2481508 0.10494494 75
0.28441602 1.2765071 -0.0099827768 96
0.29522073 1.255901 0.14700922 81
0.29725483 1.2561402 0.0095639192 91
0.29817823 1.2543641 0.047761347 60
0.29818484 1.2543514 0.067028143 51
0.29079783 1.2685599 -0.0098082526 99
0.29068047 1.2687857 0.15063268 70
0.29895329 1.2570195 0.0095639192 91
0.29895765 1.2570112 0.047935657 59
0.29623893 1.2622854 0.068003096 51
0.29242313 1.2696879 0.15063268 70
0.2988348 1.2614542 0.0096337283 100
0.29884577 1.2614328 0.048284281 59
0.29246467 1.2739186 -0.0098780617 100
0.2915315 1.2757446 0.1521856 77
0.29684949 1.269419 0.0097733475 89
0.29957598 1.26404 0.048458595 59
0.29775357 1.2676353 -0.0097384425 100
0.2975772 1.2679832 0.14959741 78
0.29500282 1.2774467 -0.0099129668 100
0.29947031 1.277354 0.049504463 28
0.29938444 1.277528 0.15166797 77
0.29773921 1.2853836 0.050201707 28
