# .PCD v0.7 - Point Cloud Data file format
VERSION 0.7
FIELDS x y z intensity
SIZE 4 4 4 4
TYPE F F F F
COUNT 1 1 1 1
WIDTH 752
HEIGHT 1
VIEWPOINT 0 0 0 1 0 0 0
POINTS 752
DATA ascii
-1.1682748 0.15401374 0.061756428 21
-1.1023642 0.14963327 0.058302253 26
-1.176489 0.16366993 0.020733459 22
-1.1858087 0.1691879 0.020907983 28
-1.0684979 0.15606745 0.0188486 6
-1.0204556 0.15287229 0.018010883 6
-1.0179664 0.15595259 0.017975979 2
-0.58330047 1.3795221 0.026143705 1
-0.45937607 1.2137811 0.022653224 1
-0.45513639 1.2153772 0.022653224 1
-0.44276264 1.1943797 0.022234365 1
-0.43012369 1.1734639 0.021815509 1
-0.41668242 1.1485665 0.02132684 2
-0.40436903 1.1274984 0.020907983 1
-0.40062788 1.1288331 0.020907983 1
-0.42958361 1.2246423 0.022653224 1
0.055549383 0.00040501356 0.047939736 72
0.0459553 0.0090487599 0.047835063 100
0.046628416 0.015796542 0.047521047 78
0.035082519 0.0042994022 0.048358422 34
0.039134741 0.016022205 0.047730394 19
0.026371241 0.0029641986 0.048672438 16
0.034014463 0.019517004 0.047730394 19
0.026848793 0.014755368 0.048149079 8
0.03577441 0.032874882 0.047102362 10
-0.94477123 0.64763272 0.02617861 23
-0.94718283 0.652695 0.026213514 26
-0.9515714 0.65762335 0.026283324 24
-0.93599755 0.66400373 0.026004085 23
-0.94636935 0.66903722 0.02617861 31
-0.94272143 0.67451644 0.0261088 26
-0.95701796 0.67888278 0.026353134 37
-0.98128432 0.68277925 0.026771991 23
-0.97356361 0.68802011 0.026632372 12
-0.99780649 0.69213313 0.027051231 6
-1.0100539 0.69697547 0.027260659 6
-1.0522535 0.70060444 0.02799366 8
-1.0624766 0.7058 0.028168185 11
-1.0886698 0.71048546 0.028621947 10
-1.0748773 0.71666503 0.028377613 11
-1.1090338 0.72134066 0.028970994 12
-1.143177 0.72625399 0.029564377 6
-1.0545325 1.1360136 0.028726662 3
-1.013633 1.126684 0.084051549 5
-1.0214756 1.1284729 0.14101799 6
-1.0240881 1.1345645 0.028203089 8
-1.0085499 1.1309658 0.083842203 13
-1.0105729 1.1314344 0.14014643 19
-0.99938375 1.1348314 0.02778423 21
-1.0013843 1.1353025 0.083528183 78
-1.0247526 1.140805 0.14154093 68
-0.98844081 1.1376435 0.027609708 37
-0.99627918 1.1395166 0.083318844 100
-1.0293279 1.1474143 0.14206386 100
-0.99291259 1.1446954 0.027714422 43
-0.99297363 1.1447102 0.083214171 100
-1.0027645 1.1470878 0.13979781 86
-0.98583668 1.1483748 0.027609708 26
-0.98396546 1.1479137 0.082795486 99
-0.9937672 1.1503285 0.13910057 91
-0.97474021 1.151574 0.027435184 23
-0.98256999 1.1535335 0.082795486 58
-0.99429566 1.1564679 0.13927488 84
-0.96765167 1.1551524 0.027330469 38
-0.98322564 1.1591048 0.082900152 39
-0.99686795 1.162567 0.13962349 73
-0.97010273 1.1617103 0.027400278 59
-0.97792107 1.163725 0.082690813 46
-0.99541873 1.1682339 0.13962349 84
-0.97266489 1.1677599 0.027470088 60
-0.96308011 1.165256 0.081958108 94
-0.98059565 1.1698315 0.13840333 91
-0.9557336 1.169238 0.027190849 74
-0.97513515 1.1743822 0.082690813 91
-0.97141653 1.1733963 0.13770607 99
-0.95053893 1.1731912 0.027121039 83
-0.96221274 1.1763279 0.082062781 98
-0.96622223 1.1774052 0.13735744 100
-0.9549821 1.1797409 0.027225753 89
-0.94158584 1.1760936 0.081016064 100
-0.9725526 1.1845245 0.1380547 99
-0.94975966 1.1836659 0.027155945 93
-0.93830556 1.1805067 0.08091139 100
-0.96540755 1.187982 0.13753176 94
-0.95201153 1.1904998 0.027225753 88
-0.94056505 1.1872952 0.081120729 92
-0.95611697 1.1916491 0.13683452 94
-0.94291347 1.1932963 0.027086135 83
-0.94301611 1.1933254 0.081330076 78
-0.94320947 1.1933802 0.13578865 100
-0.96057039 1.2042906 0.027435184 50
-0.93761545 1.197691 0.081120729 50
-0.94739217 1.2005018 0.13631158 100
-0.94176608 1.2045276 0.027121039 41
-0.92269057 1.1989713 0.080388032 22
-0.95544475 1.2085121 0.13718314 89
-0.93448645 1.2080345 0.027016325 66
-0.9154374 1.2024136 0.080074012 26
-0.95581585 1.2143283 0.13735744 84
-0.93103236 1.212641 0.026981421 74
-0.91965991 1.2092421 0.080388032 30
-0.93516606 1.2138765 0.13561434 92
-0.91049308 1.2115052 0.026632372 75
-0.92400819 1.2155907 0.080702044 70
-0.92613572 1.216234 0.1349171 100
-0.90703088 1.2160152 0.026597468 81
-0.92244381 1.2207333 0.080702044 100
-0.92837936 1.2225503 0.13526571 99
-0.912947 1.2239771 0.026737086 89
-0.90734953 1.2222402 0.079969339 88
-0.92472786 1.227633 0.13509139 84
-0.91516894 1.2302797 0.026806897 83
-0.90385658 1.2267259 0.079864666 78
-0.9250223 1.2333751 0.13526571 54
-0.90974194 1.2341793 0.026737086 88
-0.89464003 1.229377 0.07944598 76
-0.9063074 1.2330872 0.13369691 45
-0.89288443 1.2343709 0.026457848 81
-0.9044351 1.2380884 0.080074012 80
-0.90088886 1.2369471 0.13334829 48
-0.88373059 1.2366774 0.02631823 92
-0.90667325 1.2441452 0.080283359 100
-0.90880519 1.2448392 0.13421984 57
-0.88969022 1.2441815 0.026457848 100
-0.88983315 1.2442286 0.07944598 100
-0.90524644 1.2493051 0.13404553 77
-0.88431531 1.2476894 0.026388038 100
-0.88825268 1.2490007 0.07944598 100
-0.91499096 1.2579056 0.13509139 82
-0.88642925 1.2539701 0.026457848 96
-0.88278645 1.2527428 0.079236634 100
-0.89439791 1.256655 0.13334829 84
-0.87328964 1.2553591 0.02624842 92
-0.89045924 1.2612141 0.07976 100
-0.89449018 1.2625887 0.1335226 95
-0.86780602 1.2590203 0.02617861 96
-0.8830716 1.2642856 0.07944598 100
-0.88899499 1.2663286 0.13317397 100
-0.86609036 1.2639663 0.02617861 79
-0.86247927 1.2627068 0.078399263 99
-0.91170961 1.2798795 0.13544002 70
-0.87190074 1.2715672 0.02631823 79
-0.85886723 1.2669698 0.07829459 63
-0.90992087 1.2849786 0.13544002 36
-0.87022966 1.2762797 0.02631823 93
-0.84780496 1.2682858 0.077771232 25
-0.88756126 1.2824581 0.1335226 39
-0.85716635 1.2771659 0.0261088 96
-0.86296767 1.2792568 0.078713275 31
-0.87076885 1.2820685 0.1321281 30
-0.84778303 1.2795804 0.025969181 96
-0.86296815 1.2851163 0.078817949 74
-0.88385743 1.2927318 0.1335226 16
-0.84599572 1.2844565 0.025969181 100
-0.85741335 1.2886641 0.07860861 100
-0.86332923 1.2908442 0.13177948 11
-0.84428209 1.289083 0.025969181 100
-0.84445506 1.2891474 0.077980578 99
-0.87279731 1.2996991 0.13282534 1
-0.84620482 1.2953551 0.026038991 100
-0.82020277 1.2855713 0.076724514 49
-0.87093967 1.3046622 0.13282534 1
-0.8331477 1.2959611 0.025829561 89
-0.83519632 1.2967401 0.077666558 51
-0.84113044 1.2989966 0.13021068 7
-0.82197028 1.2971995 0.025655037 71
-0.84453529 1.3058705 0.07829459 57
-0.85973328 1.3117106 0.1321281 45
-0.83503455 1.3077757 0.025934275 72
-0.83707076 1.3085663 0.077980578 72
-0.85783368 1.3166282 0.1321281 100
-0.8331489 1.3126072 0.025934275 88
-0.82216722 1.3082991 0.077247873 61
-0.84107894 1.3157181 0.13073361 99
-0.83310539 1.3181686 0.025969181 100
-0.82027978 1.3130856 0.077247873 80
-0.82990438 1.3169 0.12986206 100
-0.82004493 1.3185337 0.025759751 100
-0.82950073 1.3223195 0.077875905 97
-0.82983655 1.322454 0.13003637 99
-0.80709463 1.3185773 0.025550323 100
-0.81469971 1.3216516 0.0771432 89
-0.82984418 1.3277733 0.13021068 100
-0.80887419 1.3248229 0.025620133 100
-0.82016212 1.3294318 0.077561885 100
-0.83342248 1.3348459 0.13073361 100
-0.80078858 1.3215216 0.17914793 22
-0.81072444 1.3308501 0.025689943 100
-0.79614073 1.3248391 0.076305822 100
-0.8296997 1.3386712 0.1305593 100
-0.7585755 1.3093559 0.17378569 15
-0.81614298 1.3386705 0.025829561 100
-0.80157131 1.3326049 0.076724514 100
-0.81850928 1.3396554 0.12968774 100
-0.79150528 1.3284147 0.17841671 15
-0.79930311 1.337472 0.025550323 100
-0.7976591 1.3367805 0.076619841 96
-0.80722934 1.3408054 0.12881619 100
-0.79310924 1.334867 0.17890419 24
-0.78627044 1.3374884 0.025340894 99
-0.81589431 1.350069 0.077771232 85
-0.80339473 1.3447608 0.12864187 100
-0.77651209 1.3333442 0.17695428 16
-0.80643708 1.3513696 0.025759751 61
-0.81029183 1.3530219 0.077561885 40
-0.80880636 1.3523852 0.12933913 43
-0.76733845 1.3346119 0.17597933 9
-0.82091659 1.3632486 0.026073895 83
-0.80274934 1.355387 0.077247873 78
-0.83419305 1.3689938 0.13195379 37
-0.78357786 1.3470907 0.17841671 7
-0.80224222 1.3610611 0.025759751 100
-0.80791503 1.3635406 0.077666558 100
-0.80277854 1.3612956 0.12916481 97
-0.79054838 1.3559499 0.17963541 26
-0.78919381 1.360934 0.025550323 100
-0.81131679 1.3706961 0.077980578 100
-0.81528884 1.3724488 0.1305593 100
-0.78123027 1.3574201 0.17866045 33
-0.78905362 1.3661851 0.025585229 100
-0.80931729 1.3752069 0.077980578 100
-0.80236274 1.3721106 0.12951343 100
-0.75751334 1.3521425 0.17573559 24
-0.79426032 1.3741345 0.025724847 100
-0.80719644 1.3799483 0.077980578 100
-0.81115657 1.3817279 0.1305593 100
-0.76090521 1.3591442 0.17646681 18
-0.79942757 1.3821275 0.025864467 100
-0.79960245 1.3822068 0.077666558 100
-0.81627065 1.3897679 0.13125655 100
-0.78053421 1.3735571 0.17939167 21
-0.80455548 1.3901639 0.026004085 100
-0.81016904 1.3927341 0.078399263 100
-0.7996065 1.3878981 0.12986206 100
-0.79105371 1.3839824 0.18109785 19
-0.78967553 1.389017 0.025759751 100
-0.81523925 1.4008291 0.078817949 100
-0.79744142 1.3926053 0.12986206 100
-0.77989227 1.3844965 0.17987914 12
-0.78750652 1.3936895 0.025759751 100
-0.8112188 1.4047468 0.078713275 100
-0.79887134 1.398989 0.13021068 100
-0.76334637 1.3824234 0.17792924 9
-0.79436821 1.4026117 0.025934275 100
-0.799959 1.4052424 0.078189917 100
-0.80748421 1.4087836 0.13125655 100
-0.75042361 1.381933 0.17646681 3
-0.79215175 1.4073005 0.025934275 100
-0.80134171 1.4116642 0.078399263 100
-0.80524617 1.4135182 0.13125655 100
-0.79131657 1.406904 0.18231654 1
-0.80276889 1.4175577 0.02617861 100
-0.80292219 1.4176311 0.07860861 100
-0.79962355 1.4160521 0.13090792 100
-0.78958327 1.4172914 0.025969181 100
-0.8041361 1.4243233 0.078817949 100
-0.80442232 1.4244617 0.13160518 100
-0.78360718 1.4204437 0.025899371 100
-0.81249958 1.4345354 0.07944598 100
-0.80380529 1.430295 0.13177948 100
-0.79197878 1.4306264 0.0261088 100
-0.7975114 1.43335 0.078713275 100
-0.80673867 1.4378923 0.13230242 100
-0.79717857 1.4381592 0.02624842 100
-0.79732651 1.4382327 0.078817949 100
-0.81903034 1.448997 0.13369691 100
-0.80187339 1.4466727 0.026388038 100
-0.7984404 1.4449543 0.079027295 100
-0.80227929 1.4468758 0.13230242 100
-0.79248124 1.4475479 0.02624842 100
-0.80689293 1.4548216 0.079655327 100
-0.80358464 1.4531518 0.13265105 100
-0.78998882 1.4524639 0.02624842 100
-0.80793327 1.461603 0.079864666 100
-0.80107158 1.4581084 0.13265105 100
-0.79471332 1.4607921 0.026388038 100
-0.79840463 1.4626884 0.07944598 100
-0.81283921 1.4701035 0.13404553 100
-0.79217237 1.4657161 0.026388038 100
-0.78876394 1.4639493 0.079027295 100
-0.8173396 1.4787614 0.13474278 100
-0.8042832 1.4770994 0.026667276 100
-0.79732186 1.4734648 0.079655327 100
-0.81169826 1.4809711 0.13439415 100
-0.78752869 1.4746023 0.026388038 93
-0.79650158 1.4793291 0.07976 100
-0.80203229 1.4822427 0.13369691 100
-0.77988654 1.4762203 0.026283324 37
-0.78708607 1.4800434 0.079341307 31
-0.79086465 1.4820501 0.13282534 65
0.12809137 1.2923173 0.13051336 5
0.15080848 1.2675602 0.011134636 12
0.13754639 1.2840903 0.03454173 27
0.098654032 1.3325665 0.063100755 19
0.13596863 1.2860569 0.12860526 17
0.19268742 1.2153615 0.13182132 7
0.1522626 1.2657478 0.17030293 7
0.15753147 1.2626941 0.010995016 38
0.1555208 1.2652183 0.033180997 57
0.14903432 1.2733612 0.056302611 48
0.14926603 1.2730703 0.078971334 14
0.16845825 1.2489769 0.096989371 12
0.14633512 1.2767497 0.12593393 78
0.19060165 1.2211788 0.13317102 15
0.15038452 1.2716663 0.17185585 14
0.16413042 1.25772 0.010855397 100
0.17079666 1.2492942 0.032029606 100
0.15688676 1.2668756 0.055431053 99
0.16448492 1.2572719 0.076290213 29
0.18230519 1.234748 0.093860678 26
0.16263533 1.2596097 0.12135452 100
0.18726328 1.2284812 0.13497064 45
0.15324894 1.2714736 0.1713382 43
0.16839054 1.2559855 0.010785587 100
0.167622 1.2569642 0.032448292 100
0.15624961 1.2714472 0.055779677 100
0.16627344 1.2586815 0.076290213 29
0.16693157 1.2578435 0.098240845 36
0.1717073 1.2517616 0.11906482 100
0.18292859 1.2374711 0.13722014 37
0.15151036 1.2774826 0.17289113 42
0.16754472 1.260402 0.010855397 100
0.18274981 1.2409053 0.031296901 94
0.15301356 1.2790345 0.056476921 100
0.17888311 1.2458633 0.07409656 30
0.17341062 1.2528803 0.096989371 25
0.17209959 1.2545614 0.11944643 100
0.19406819 1.2263923 0.13362093 31
0.14369112 1.2909882 0.17703223 34
0.17056867 1.2602191 0.010820492 78
0.18447822 1.2422482 0.031296901 62
0.15488192 1.2804861 0.056476921 72
0.16847938 1.2629184 0.076533951 29
0.175183 1.2542574 0.096989371 25
0.17628148 1.2528383 0.1186832 39
0.19335777 1.230776 0.13452072 23
0.14796826 1.2894185 0.17599694 27
0.16854021 1.2662308 0.010925206 65
0.17022219 1.2640429 0.032657638 29
0.16993389 1.2644179 0.054559495 50
0.17616516 1.2563118 0.075315252 45
0.18521821 1.2445349 0.094799288 51
0.1790812 1.2525184 0.11830158 13
0.19251239 1.2350461 0.13542053 22
0.15322503 1.2861539 0.17444403 56
0.17763898 1.2580864 0.010715778 66
0.15022987 1.294014 0.03454173 27
0.18141633 1.2531351 0.053165004 52
0.17674604 1.2592568 0.07555899 60
0.19654515 1.2333045 0.092296332 53
0.18918779 1.2429484 0.11563025 13
0.19421926 1.2363532 0.13542053 38
0.17152405 1.2661018 0.16719711 60
0.18167481 1.2561308 0.010645968 40
0.15196976 1.2953367 0.03454173 27
0.18061408 1.2575308 0.053513627 52
0.18316576 1.254163 0.074584037 76
0.18853995 1.24707 0.094799288 51
0.20261431 1.228494 0.11181407 14
0.20282882 1.2282109 0.13272113 39
0.17900452 1.2596552 0.16460891 69
0.18105549 1.2606741 0.010715778 39
0.17790407 1.2648654 0.032448292 29
0.18479821 1.2556965 0.053165004 52
0.20045173 1.2348783 0.071415432 48
0.19860107 1.2373396 0.092609204 53
0.20193735 1.2329025 0.1125773 13
0.21153748 1.220135 0.13002171 32
0.18080169 1.2610117 0.16460891 69
0.18029171 1.2650994 0.010785587 52
0.18671721 1.2564946 0.03182026 30
0.17448992 1.272869 0.054908119 50
0.1960566 1.2439877 0.072634131 78
0.19897082 1.2400851 0.092922069 79
0.19055301 1.2513579 0.1167751 13
0.21419802 1.2196934 0.12957181 32
0.1801202 1.2653291 0.16564418 68
0.18329942 1.2648445 0.010750682 79
0.20277238 1.2385668 0.030564198 32
0.18345296 1.2646374 0.053862248 77
0.17297649 1.2787747 0.077752642 100
0.20540056 1.2350202 0.091670595 81
0.20517749 1.2353212 0.1125773 13
0.21700874 1.2193555 0.1291219 32
0.18653893 1.2604729 0.16357364 85
0.19205391 1.2563944 0.010541254 81
0.19840905 1.2477586 0.031087559 63
0.18981892 1.2594314 0.053165004 79
0.19466788 1.2528424 0.073609084 77
0.20694453 1.2361603 0.091670595 81
0.21021339 1.2317183 0.11143246 14
0.21503553 1.2251658 0.13047162 24
0.18816742 1.2616755 0.16357364 69
0.19611317 1.2544115 0.010471444 96
0.2000789 1.248983 0.031087559 63
0.19035426 1.2622944 0.053339314 78
0.20806557 1.2380507 0.071171694 81
0.20274743 1.2453303 0.093234941 92
0.21298531 1.2313163 0.11105084 14
0.21892551 1.2231852 0.12957181 16
0.18646708 1.2676153 0.16512655 68
0.19772148 1.2555823 0.010471444 96
0.20870617 1.240441 0.030459527 65
0.18730885 1.2699351 0.054036561 77
0.20262542 1.2488227 0.072634131 78
0.19852567 1.2544738 0.094799288 100
0.21221119 1.2356097 0.11181407 14
0.23645091 1.2021976 0.12327318 8
0.19492576 1.2594359 0.16202073 70
0.19258034 1.26667 0.010680873 80
0.20934844 1.2433691 0.030564198 64
0.18573982 1.2761756 0.054559495 100
0.20330703 1.2517643 0.072877869 63
0.20846534 1.2445962 0.092609204 100
0.21400151 1.2369032 0.11181407 14
0.23355964 1.2097253 0.12507279 16
0.18890882 1.2717719 0.16564418 68
0.19422933 1.2678525 0.010680873 93
0.21208128 1.2428712 0.030459527 97
0.19205397 1.2708967 0.053862248 100
0.20375237 1.2545264 0.073121607 62
0.21808061 1.2344759 0.090419121 100
0.20527849 1.2523907 0.11524864 20
0.23048747 1.2171142 0.12687239 16
0.19843715 1.2619643 0.16202073 70
0.20753896 1.2527812 0.010331824 84
0.21142286 1.2473059 0.03066887 96
0.20072103 1.2623928 0.05281638 100
0.21003985 1.2492557 0.072146654 79
0.22084686 1.2340205 0.090106249 100
0.20810032 1.2519898 0.11486702 27
0.23092264 1.2198162 0.1273223 16
0.20686284 1.2537344 0.15891489 81
0.21374801 1.2473748 0.010192205 85
0.21300754 1.248426 0.03066887 96
0.2035031 1.2619194 0.05264207 100
0.21277413 1.2487574 0.071902916 96
0.21897477 1.2399544 0.091044858 95
0.20856997 1.2547259 0.11524864 67
0.22680503 1.2288378 0.12957181 32
0.20290646 1.2627665 0.16150309 70
0.21320882 1.2518821 0.010262015 98
0.22048408 1.2414727 0.030145511 98
0.1927534 1.2811499 0.054559495 100
0.22135422 1.2402277 0.070440479 49
0.21164653 1.2541175 0.093547814 100
0.20697486 1.2608017 0.11639348 100
0.23183799 1.2252274 0.12822211 73
0.20250148 1.2672021 0.16253836 70
0.20568779 1.266139 0.010541254 95
0.22660422 1.2359993 0.029726824 100
0.20126605 1.2725105 0.053513627 100
0.21386111 1.2543616 0.072390392 100
0.22451618 1.2390082 0.090419121 100
0.22203627 1.2425816 0.11181407 84
0.23112723 1.2294819 0.1291219 96
0.20745647 1.2635906 0.16098544 72
0.20506564 1.2705714 0.010611063 81
0.22361821 1.2436477 0.030145511 98
0.20293435 1.2736642 0.053513627 100
0.22110099 1.2473007 0.071171694 81
0.2350401 1.2270722 0.087916173 98
0.21357945 1.2582161 0.11524864 87
0.22712398 1.2385602 0.13137141 94
0.21019131 1.2631329 0.1604678 72
0.21576098 1.2585095 0.010331824 84
0.2251907 1.2447274 0.030145511 65
0.21135685 1.2649463 0.052467756 100
0.21708089 1.2565804 0.072390392 47
0.22986481 1.237896 0.089793384 100
0.22517774 1.2447463 0.11181407 98
0.23088038 1.2364116 0.13047162 96
0.21510109 1.2594739 0.15891489 73
0.21660212 1.2615021 0.010366729 55
0.22373542 1.2509861 0.030459527 65
0.20328036 1.2811414 0.054036561 77
0.22906601 1.2431276 0.07019674 82
0.23507234 1.234273 0.088854775 100
0.23149449 1.2395475 0.1102876 85
0.23275524 1.2376889 0.13047162 88
0.21706867 1.2608144 0.15891489 73
0.21153149 1.2725567 0.010576159 40
0.21975374 1.2603483 0.030982886 31
0.21944597 1.2608052 0.051770512 54
0.23285452 1.2408963 0.069709264 83
0.23330325 1.2402301 0.089793384 100
0.23195663 1.2422295 0.11066922 92
0.23648509 1.2355057 0.12957181 100
0.21114397 1.2731321 0.16253836 70
0.2132878 1.273735 0.010576159 40
0.21924758 1.264819 0.03119223 31
0.20676759 1.2834896 0.054036561 51
0.23119074 1.2469516 0.070440479 98
0.23823982 1.2364058 0.088854775 98
0.23469797 1.2417046 0.1102876 85
0.2402778 1.233357 0.128672 97
0.21612298 1.2694936 0.16098544 72
0.21938306 1.2681842 0.010436539 27
0.22309905 1.2625848 0.030982886 31
0.2150825 1.2746644 0.05299069 52
0.21960211 1.2678541 0.073365346 100
0.2397882 1.2374371 0.088854775 100
0.23083594 1.2509266 0.11219569 91
0.24181604 1.2343814 0.128672 97
0.22205409 1.2641594 0.15891489 73
0.22560975 1.2627118 0.010296919 42
0.18756488 1.3204976 0.03454173 27
0.22679493 1.2609117 0.051421888 55
0.22907025 1.2574557 0.071659178 96
0.24367604 1.2352712 0.088229038 98
0.23260078 1.2520932 0.11219569 100
0.24244857 1.2371355 0.1291219 88
0.23024142 1.2556767 0.15580906 75
0.23162174 1.2570894 0.0101573 42
0.20469087 1.2982912 0.033076324 29
0.23169488 1.2569776 0.050898954 55
0.23286065 1.2551939 0.071171694 81
0.24413985 1.2379379 0.08854191 84
0.24279436 1.2399963 0.10914274 85
0.24293312 1.239784 0.12957181 96
0.22339803 1.269671 0.15995017 80
0.23123327 1.2616087 0.01022711 42
0.25226733 1.2291696 0.028680105 34
0.22264221 1.274858 0.05264207 53
0.2432811 1.2430284 0.069221787 67
0.24370754 1.2423706 0.089167647 84
0.24131471 1.246061 0.1102876 85
0.24889791 1.2343659 0.1277722 89
0.2220785 1.2757274 0.16150309 70
0.23286527 1.2626631 0.01022711 56
0.25595376 1.2267956 0.02847076 35
0.22108293 1.2809668 0.053165004 52
0.24377692 1.245712 0.069465525 66
0.24955249 1.2367398 0.087916173 84
0.23970714 1.2520344 0.11143246 84
0.25254902 1.2320848 0.12687239 99
0.22793996 1.2703145 0.15943253 73
0.23036829 1.2705638 0.010366729 69
0.25655508 1.2295536 0.028575432 70
0.2304638 1.2704141 0.051944822 81
0.24124917 1.2535236 0.070440479 49
0.2512652 1.2378378 0.087916173 84
0.2488721 1.2415856 0.10876112 72
0.25424466 1.2331718 0.12687239 99
0.24220651 1.2520244 -0.0099827768 64
0.23185524 1.2682351 0.15839726 73
0.23845363 1.2614872 0.0101573 71
0.24631831 1.2490801 0.029726824 100
0.2331917 1.2697883 0.051770512 81
0.24072874 1.2578981 0.070927955 65
0.25493342 1.2354891 0.087290429 71
0.244131 1.2525307 0.11105084 100
0.25682554 1.2325041 0.12642249 82
0.23868063 1.261129 0.15580906 67
0.25409442 1.2406185 0.0097035384 90
0.24169758 1.2603347 0.030354854 97
0.23290461 1.2743194 0.052119136 81
0.25836858 1.2338207 0.067271881 34
0.25033274 1.2466011 0.089167647 70
0.25844178 1.2337042 0.10647142 88
0.25748539 1.2352253 0.12687239 99
0.24048278 1.2622669 0.15580906 67
0.24506876 1.258561 0.010052586 86
0.25178528 1.2477999 0.029517479 100
0.24301809 1.2618465 0.05072464 84
0.25255087 1.2465732 0.068978049 50
0.25609851 1.2408892 0.087916173 70
0.25062561 1.2496579 0.10990598 92
0.26315698 1.22958 0.12507279 92
0.23802543 1.2698458 0.15787962 65
0.24774373 1.2578696 0.010017681 72
0.25757885 1.2419949 0.029098792 100
0.23730564 1.2747177 0.051944822 81
0.2562238 1.244182 0.068490572 50
0.25558093 1.2452197 0.08854191 56
0.26152357 1.2356277 0.10647142 73
0.2708405 1.2205893 0.12237337 85
0.23764986 1.2741621 0.15891489 65
0.2472682 1.2622761 0.010087491 71
0.26019189 1.2412606 0.028994121 100
0.24419948 1.267266 0.051073264 83
0.25155869 1.2552992 0.069953002 49
0.26336709 1.2360973 0.086664692 71
0.24558598 1.2650115 0.11295892 89
0.2662113 1.2314724 0.12507279 83
0.24640727 1.2636759 0.15529142 75
0.25028741 1.2617798 0.010052586 86
0.25481018 1.2543586 0.029726824 100
0.2430875 1.2735937 0.051596198 100
0.25144306 1.2598835 0.070440479 49
0.26524043 1.2372442 0.086664692 71
0.26596621 1.2360533 0.1060898 73
0.26705191 1.2342719 0.12552269 99
0.24738607 1.2665403 0.15580906 67
0.25605989 1.2559268 0.0099129668 87
0.26468793 1.2416635 0.028889447 100
0.25404015 1.2592658 0.050027397 85
0.26334363 1.2438858 0.068003096 68
0.26883626 1.2348056 0.086038955 72
0.26141644 1.2470717 0.10837951 94
0.26758441 1.2368751 0.12597258 82
0.24903435 1.2675412 0.15580906 67
0.25973153 1.2534701 0.0098431576 88
0.26008517 1.2528811 0.029517479 100
0.24335751 1.2807425 0.052119136 81
0.26593846 1.2431318 0.067759357 51
0.26732874 1.2408161 0.086977564 57
0.27209511 1.2328773 0.10494494 75
0.27013728 1.2361383 0.12552269 90
0.24273071 1.2817866 0.15995017 64
0.25528094 1.2647884 0.010052586 86
0.26177251 1.25389 0.029517479 100
0.24514219 1.2818098 0.052119136 81
0.26454416 1.2492368 0.068490572 50
0.27099571 1.2384057 0.086351827 58
0.26366574 1.2507117 0.10876112 79
0.27774963 1.2270669 0.12282328 85
0.2504507 1.2728977 0.15684435 66
0.26218155 1.2572565 0.0098780617 73
0.26557955 1.2515039 0.029308135 100
0.26019317 1.2606227 0.049853086 85
0.26428339 1.2536982 0.068978049 50
0.27572834 1.2343228 0.085413218 58
0.26243407 1.256829 0.10990598 78
0.28438225 1.2196722 0.12057377 77
0.25622603 1.2673388 0.15477379 67
0.26691717 1.2530824 0.0097733475 89
0.27130118 1.2456011 0.028889447 100
0.26392215 1.2581934 0.049504463 86
0.26597354 1.2546927 0.068978049 50
0.27535337 1.238686 0.086038955 58
0.26810551 1.2510544 0.10837951 87
0.28102729 1.2290034 0.12282328 85
0.26085111 1.2634342 -0.0099827768 86
0.26577753 1.2550272 0.15063268 70
0.26852068 1.2540184 0.0097733475 89
0.26585144 1.2586083 0.029622151 100
0.26253781 1.2643063 0.050027397 85
0.26758242 1.2556319 0.068978049 50
0.27790216 1.2378864 0.08572609 58
0.27365017 1.245198 0.10685304 88
0.27863219 1.2366312 0.12462288 92
0.26544514 1.259307 0.15166797 69
0.27021194 1.254998 0.0097733475 89
0.27853703 1.240567 0.02847076 100
0.26625618 1.2618551 0.049678773 86
0.27324709 1.2497368 0.068003096 51
0.27953705 1.2388334 0.08572609 58
0.27432957 1.2478603 0.10723466 88
0.2851316 1.2291355 0.12237337 85
0.26522419 1.263644 0.15270324 68
0.26793385 1.2629142 0.0099129668 87
0.27422938 1.2519126 0.029098792 100
0.2551105 1.2853231 0.051944822 81
0.27689523 1.247254 0.067515619 51
0.28411856 1.2346312 0.084787481 59
0.2740491 1.2522277 0.10799789 79
0.29060742 1.2232918 0.12057377 86
0.25927311 1.278049 0.15684435 66
0.27656603 1.2517223 0.0096686333 75
0.2739414 1.2563462 0.029308135 100
0.27264744 1.2586259 0.049155839 87
0.2824825 1.2412989 0.066540658 52
0.28379181 1.2389922 0.085413218 58
0.27185753 1.2600175 0.10952436 78
0.2921913 1.2241945 0.12057377 77
0.2676819 1.2673739 -0.0099827768 86
0.27058467 1.26226 0.15166797 69
0.27735272 1.2544639 0.0097035384 90
0.28356221 1.2434304 0.02847076 100
0.27248588 1.2631117 0.049504463 86
0.26766077 1.2716854 0.070684217 81
0.28745016 1.2365218 0.084787481 59
0.27943262 1.2507682 0.10723466 88
0.28430018 1.2421191 0.12507279 75
0.2742857 1.2599137 0.15063268 78
0.28294411 1.2484283 0.0095639192 91
0.28326946 1.2478454 0.028680105 100
0.27323776 1.2658172 0.049678773 86
0.28005663 1.2536012 0.068003096 51
0.28811744 1.2391603 0.085100345 58
0.28398317 1.2465669 0.1060898 81
0.28689963 1.2413421 0.12462288 92
0.26846477 1.2743678 0.15477379 67
0.28461576 1.2493576 0.0095639192 91
0.28880858 1.2417842 0.028261416 100
0.2769002 1.263294 0.049330149 87
0.27982339 1.258014 0.068490572 50
0.28592959 1.2469845 0.086351827 58
0.28564832 1.2474926 0.1060898 81
0.29987302 1.2217988 0.11922406 87
0.27396986 1.2685871 0.15270324 68
0.28340331 1.2555397 0.0096686333 90
0.29045701 1.2426931 0.028261416 100
0.275747 1.2694837 0.049853086 57
0.27866226 1.2641742 0.069221787 33
0.29139915 1.2409772 0.085100345 58
0.28542688 1.2518542 0.10685304 81
0.2785911 1.2643039 -0.0098431576 87
0.27385235 1.2729343 0.15373851 68
0.28127453 1.2634921 0.0098082526 74
0.2863777 1.2541205 0.028889447 100
0.28416196 1.2581894 0.048632905 88
0.28323692 1.2598882 0.068490572 50
0.2958788 1.2366724 0.084161744 59
0.28804937 1.2510506 0.10647142 81
0.29837349 1.2320912 0.12147357 77
0.2803182 1.2652483 -0.0098431576 87
0.28115284 1.2637155 0.15063268 78
0.29060021 1.2503508 0.0095290141 76
0.28996724 1.251523 0.028680105 100
0.28397426 1.2626207 0.048981529 87
0.28494859 1.2608165 0.068490572 50
0.29563209 1.241033 0.084787481 59
0.29159588 1.2485071 0.10570818 73
0.28471375 1.2612512 0.14959741 78
0.29322258 1.2494905 0.0094941091 92
0.29353541 1.2489064 0.02847076 100
0.28569546 1.2635462 0.048981529 87
0.29228631 1.2512388 0.067028143 51
0.29727784 1.241918 0.084787481 59
0.29326776 1.2494062 0.10570818 81
0.28189415 1.2706445 -0.0099129668 97
0.29007819 1.2553622 0.14752686 71
0.29396001 1.2521501 0.0095290141 76
0.2933352 1.2533267 0.028680105 100
0.28274763 1.2732642 0.049853086 57
0.29396772 1.2521355 0.067028143 51
0.29800022 1.2445419 0.085100345 58
0.29770511 1.2450976 0.10456333 82
0.28271344 1.2733285 0.15270324 68
0.29191774 1.2601184 0.0096686333 90
0.28636256 1.2706681 0.049504463 57
0.29380244 1.2565392 0.067515619 51
0.2947914 1.2546611 0.10647142 81
0.29098606 1.2618878 -0.0097035384 89
0.28447202 1.2742584 0.15270324 68
0.29733226 1.2539258 0.0095290141 92
0.29733324 1.2539239 0.047761347 60
0.29917741 1.2503918 0.066540658 52
0.29921073 1.2503281 0.10532656 75
0.29085359 1.2663342 -0.0097733475 99
0.29159856 1.2649074 0.14959741 70
0.29609394 1.2600437 0.0096337283 90
0.29520845 1.2617528 0.068003096 51
0.28781441 1.2760234 -0.0099478718 100
0.29670957 1.2588556 0.14752686 71
0.29488656 1.2666103 0.14959741 70
0.29758489 1.2658204 0.14907977 78
0.29954094 1.266255 0.048632905 59
0.29583547 1.273597 0.15115032 77
0.29687196 1.2761469 -0.0098780617 100
