# .PCD v0.7 - Point Cloud Data file format
VERSION 0.7
FIELDS x y z intensity
SIZE 4 4 4 4
TYPE F F F F
COUNT 1 1 1 1
WIDTH 750
HEIGHT 1
VIEWPOINT 0 0 0 1 0 0 0
POINTS 750
DATA ascii
-1.1803064 0.16525109 0.020803269 24
-1.1361756 0.1631182 0.020035362 4
-1.0564635 0.15543976 0.01863917 6
-1.0242766 0.15435873 0.018080693 6
-1.045471 0.16128698 0.018464645 1
-0.59603626 1.3740674 0.026143705 1
-0.57544887 1.3393936 0.025445608 1
-0.56026793 1.3154379 0.024956942 2
-0.55800426 1.3229132 0.025061656 3
-0.54567575 1.3064009 0.024712607 5
-0.54569799 1.3193849 0.024922036 6
-0.55577153 1.3584865 0.025620133 37
-0.55553043 1.3715389 0.025829561 44
0.10158581 0.0026310086 0.046579 11
0.079620332 0.0018082857 0.047207031 60
0.063607275 7.8082085e-06 0.047730394 42
0.054967642 0.0042104721 0.015916595 128
0.052770734 0.0069607496 0.047730394 43
0.049014032 0.0070315599 0.047835063 26
0.047721028 0.010275245 0.047730394 100
0.040642977 0.005384326 0.048149079 79
0.039792895 0.015576661 0.047730394 28
0.042526007 0.025791943 0.047207031 20
0.029752553 0.012752175 0.048149079 17
0.021562159 0.0062693954 0.048672438 8
0.023468077 0.014672458 0.048253752 8
0.018539011 0.013246059 0.048463095 8
-1.1345344 0.70617002 0.029424757 12
-1.1487262 0.71127284 0.029669091 13
-1.1489208 0.71720284 0.029669091 10
-1.1491029 0.72343004 0.029669091 18
-1.1492553 0.7293613 0.029669091 45
-1.1633756 0.73470819 0.029913425 65
-1.1814828 0.74038142 0.030227568 10
-1.1855748 0.74637115 0.030297378 14
-1.1836472 0.75244981 0.030262472 12
-1.1916964 0.75844842 0.030402092 12
-1.0339205 1.127533 0.085098267 3
-1.0475502 1.1306095 0.14328404 4
-1.0385551 1.1341195 0.028447423 6
-1.0015779 1.1256437 0.083423518 5
-1.0346935 1.1332343 0.14223817 8
-1.021502 1.1368567 0.028168185 10
-1.0020828 1.1323234 0.083528183 37
-1.0177007 1.1359693 0.14084367 42
-0.99303538 1.1356113 0.027679516 31
-0.99309891 1.1356263 0.083109498 91
-1.0164785 1.141166 0.14084367 91
-0.97626024 1.1369861 0.027400278 42
-1.0074131 1.1444769 0.083946876 100
-1.0113647 1.145427 0.14049506 84
-0.97892028 1.1429933 0.027470088 38
-0.97705752 1.1425389 0.082376793 100
-0.99849743 1.1477693 0.13944919 91
-0.99307066 1.1524431 0.027749326 23
-0.97374326 1.1476529 0.08227212 96
-1.0009701 1.1544008 0.13979781 86
-0.9782185 1.1541455 0.027504992 23
-0.98604161 1.156112 0.083004825 41
-0.9996869 1.159542 0.13979781 74
-0.96503979 1.1573054 0.027295563 44
-0.98060924 1.1612856 0.082795486 33
-0.98266822 1.1618119 0.13840333 80
-0.95980722 1.1615875 0.027225753 61
-0.98503393 1.1681303 0.083109498 69
-0.98707694 1.1686602 0.13892625 89
-0.95262951 1.1653289 0.027121039 67
-0.96431953 1.1684045 0.082062781 98
-0.97989553 1.1725023 0.13840333 92
-0.95703667 1.1721182 0.027225753 81
-0.94941133 1.1700836 0.081330076 92
-0.98618132 1.1798948 0.13910057 100
-0.9634878 1.1789372 0.027365373 92
-0.95007521 1.1753131 0.081434749 100
-0.96949869 1.1805613 0.13770607 99
-0.95047933 1.1810477 0.027155945 92
-0.94865125 1.1805469 0.081434749 100
-0.96229154 1.1842836 0.13718314 98
-0.94132823 1.1841426 0.027016325 92
-0.95105785 1.1868445 0.081644088 100
-0.95891649 1.1890268 0.13700883 91
-0.93987352 1.1893457 0.027016325 92
-0.93613583 1.1882937 0.08091139 86
-0.96128041 1.195371 0.13735744 99
-0.95578259 1.1992176 0.027330469 67
-0.93474048 1.1932197 0.08091139 72
-0.95986146 1.2003803 0.13735744 100
-0.97156566 1.209465 0.027644612 45
-0.93133539 1.1978456 0.080806717 36
-0.95260757 1.2039895 0.13683452 98
-0.93739563 1.2052267 0.027051231 49
-0.92791599 1.2024529 0.080702044 24
-0.94917125 1.2086724 0.1366602 84
-0.91861218 1.2053015 0.026737086 75
-0.92448252 1.2070415 0.080597371 26
-0.94190019 1.2122042 0.13613728 85
-0.91516846 1.2098503 0.026702182 75
-0.93059963 1.2144828 0.081016064 32
-0.93653101 1.2162635 0.13578865 98
-0.91936392 1.216707 0.026806897 81
-0.90801913 1.213258 0.079864666 93
-0.93305796 1.2208701 0.13561434 100
-0.92926282 1.2253633 0.027016325 88
-0.90455419 1.2177572 0.07976 100
-0.92957085 1.2254581 0.13544002 94
-0.90857297 1.2245741 0.026667276 85
-0.90679592 1.2240204 0.079969339 84
-0.90895051 1.2246919 0.13369691 70
-0.89172107 1.2248495 0.026388038 83
-0.90901166 1.2303046 0.080178685 68
-0.91495472 1.2321795 0.13439415 49
-0.89774424 1.2323126 0.026527658 81
-0.90168816 1.233572 0.079864666 82
-0.91902632 1.2391086 0.1349171 43
-0.8999272 1.2385932 0.026597468 81
-0.89435977 1.2367939 0.079550654 95
-0.91548401 1.2436209 0.13474278 45
-0.89828271 1.2436515 0.026597468 100
-0.89082319 1.2412119 0.07944598 100
-0.91571563 1.2493528 0.1349171 64
-0.88531262 1.2446842 0.026388038 99
-0.89494151 1.2478687 0.07976 100
-0.90655142 1.2517083 0.13421984 80
-0.8760615 1.2471535 0.02624842 99
-0.8989467 1.2548108 0.080074012 100
-0.90108222 1.2555254 0.13387123 84
-0.87438732 1.2521285 0.02624842 99
-0.88021916 1.2541025 0.079131968 100
-0.903153 1.2618651 0.13421984 78
-0.88026315 1.2596885 0.026388038 99
-0.87663108 1.258445 0.079027295 100
-0.89954227 1.2662892 0.13404553 91
-0.87467974 1.2636181 0.02631823 92
-0.87294406 1.2630167 0.078922622 100
-0.88641793 1.2676851 0.13299966 93
-0.87680966 1.2696617 0.026388038 79
-0.87130135 1.2677326 0.078922622 91
-0.90544432 1.2796893 0.1349171 50
-0.85997683 1.269299 0.0261088 78
-0.86578983 1.2713575 0.078713275 51
-0.89238769 1.2807763 0.13387123 38
-0.86019617 1.2746456 0.026143705 90
-0.85095614 1.2713391 0.077980578 17
-0.89818949 1.2882417 0.13456847 38
-0.86397797 1.2818528 0.02624842 99
-0.85286528 1.2778301 0.078189917 53
-0.87192589 1.28473 0.13230242 22
-0.85851675 1.2851652 0.02617861 93
-0.85492498 1.2838515 0.078399263 89
-0.86459762 1.2873893 0.13177948 15
-0.8491171 1.2875491 0.026038991 100
-0.85115892 1.2883044 0.07829459 100
-0.87016636 1.2953355 0.13247673 5
-0.83615416 1.287986 0.025829561 100
-0.84756154 1.2922488 0.078189917 76
-0.92067391 1.3195698 0.13735744 1
-0.83442885 1.2925799 0.025829561 99
-0.82339925 1.2884165 0.076933853 47
-0.87224299 1.3068535 0.13299966 3
-0.83642524 1.2985927 0.025899371 77
-0.84033471 1.3000832 0.077980578 57
-0.84625322 1.3023398 0.13073361 15
-0.83998257 1.3060709 0.026004085 74
-0.83083528 1.3025432 0.077561885 68
-0.84977573 1.3098478 0.13125655 56
-0.82888049 1.3070486 0.025829561 78
-0.82906169 1.3071191 0.077561885 63
-0.84612125 1.3137636 0.13108224 100
-0.82318157 1.3106337 0.025759751 96
-0.83451742 1.3150969 0.077980578 63
-0.83484954 1.3152275 0.13021068 100
-0.82138115 1.3151844 0.025759751 100
-0.81971031 1.3145201 0.077247873 85
-0.83858818 1.3220249 0.13073361 97
-0.81937379 1.3202071 0.025759751 100
-0.81399888 1.3180475 0.077038527 100
-0.83655554 1.3271106 0.13073361 100
-0.81754166 1.3247452 0.025759751 100
-0.81772631 1.32482 0.077352546 97
-0.82731539 1.3287098 0.13003637 100
-0.80809814 1.3267198 0.025620133 100
-0.80644351 1.3260415 0.07682918 100
-0.81419736 1.3292201 0.1289905 100
-0.79885358 1.328162 0.025480513 100
-0.81197411 1.3335912 0.077247873 99
-0.81969935 1.3367879 0.12968774 100
-0.79083759 1.3248448 0.17817298 22
-0.79699522 1.3326318 0.025480513 100
-0.78798229 1.3288672 0.075991809 100
-0.81413537 1.3397911 0.12933913 100
-0.77983171 1.3254627 0.17695428 22
-0.79880732 1.3386492 0.025550323 100
-0.78428131 1.332525 0.075887136 96
-0.81407434 1.3450856 0.12951343 100
-0.78712827 1.3337253 0.17817298 21
-0.80775267 1.3482904 0.025759751 88
-0.79507333 1.3428901 0.076619841 60
-0.80095905 1.345397 0.12846756 91
-0.76678973 1.3308437 0.17573559 16
-0.80950195 1.3543692 0.025829561 59
-0.82252496 1.359967 0.07829459 53
-0.8155176 1.3569551 0.13003637 22
-0.79775017 1.3493178 0.18012288 5
-0.79624337 1.3548045 0.025620133 94
-0.81292206 1.3620498 0.077875905 100
-0.81508118 1.3629878 0.13021068 56
-0.78823298 1.3513248 0.17914793 12
-0.79612809 1.3600686 0.025655037 100
-0.80912203 1.3657643 0.077771232 100
-0.81675678 1.3691109 0.1305593 100
-0.7790255 1.3525716 0.17817298 33
-0.80137485 1.3680005 0.025794657 100
-0.79790193 1.3664638 0.077247873 100
-0.82194513 1.3771031 0.13125655 100
-0.76246136 1.3507808 0.17622307 31
-0.80840832 1.376792 0.025969181 100
-0.80492967 1.3752382 0.077771232 100
-0.80890268 1.3770128 0.13021068 100
-0.77311355 1.361026 0.17792924 28
-0.79352123 1.3757763 0.025724847 100
-0.81009167 1.3832479 0.078189917 100
-0.80314296 1.3801148 0.12986206 100
-0.772852 1.366457 0.17817298 24
-0.78957838 1.3796341 0.025689943 100
-0.80612487 1.3871644 0.078085244 100
-0.79737812 1.3831837 0.12951343 100
-0.76534158 1.3686042 0.17744176 18
-0.79096895 1.3862097 0.025759751 100
-0.80385381 1.3921306 0.078085244 100
-0.80598396 1.3931096 0.1305593 100
-0.75411993 1.3692768 0.17622307 13
-0.79788035 1.3950934 0.025934275 100
-0.80892152 1.4002138 0.078503937 100
-0.81103057 1.4011919 0.13125655 100
-0.76282531 1.3788363 0.1776855 13
-0.79750139 1.4006423 0.025969181 100
-0.80852228 1.4058001 0.07860861 100
-0.80340546 1.4034054 0.13073361 100
-0.77687341 1.3909882 0.17987914 7
-0.79167539 1.4036342 0.025899371 100
-0.80810064 1.4113913 0.078713275 100
-0.80298775 1.4089767 0.13090792 100
-0.78187758 1.399007 0.18085411 3
-0.79137212 1.4089398 0.025934275 100
-0.81137568 1.4184681 0.079027295 100
-0.80086142 1.4134598 0.13090792 100
-0.78695303 1.4068348 0.18182907 1
-0.79273838 1.4153507 0.026004085 100
-0.80010313 1.4188902 0.078503937 100
-0.80579013 1.4216236 0.13160518 100
-0.79767472 1.4235239 0.026143705 100
-0.79962701 1.4244705 0.07860861 100
-0.81426352 1.4315683 0.13265105 100
-0.80436641 1.4326181 0.02631823 100
-0.79912823 1.4300554 0.078713275 100
-0.80120784 1.4310728 0.13160518 100
-0.7985751 1.4353362 0.02624842 100
-0.80588764 1.4389441 0.079236634 100
-0.80615526 1.4390761 0.13230242 100
-0.78550309 1.4346936 0.026038991 100
-0.80354434 1.4436729 0.079236634 100
-0.80024415 1.4420303 0.13195379 100
-0.79020566 1.4431741 0.02617861 100
-0.79749662 1.4468365 0.079027295 100
-0.81023484 1.4532347 0.13317397 100
-0.79855043 1.4532712 0.026388038 100
-0.79512578 1.4515359 0.079027295 100
-0.81139618 1.4597797 0.1335226 100
-0.80696195 1.4631975 0.026597468 100
-0.79997283 1.4596272 0.07944598 100
-0.80732709 1.463384 0.13334829 100
-0.79386836 1.4624345 0.026388038 100
-0.80465907 1.4679945 0.079864666 100
-0.80312735 1.4672052 0.13317397 100
-0.78446656 1.4631999 0.02624842 100
-0.81119901 1.4770863 0.080388032 100
-0.80611211 1.4744438 0.13369691 100
-0.78912395 1.4715657 0.026388038 100
-0.79633838 1.4753454 0.079655327 100
-0.81246918 1.4837962 0.13456847 100
-0.79373926 1.4799726 0.026527658 83
-0.78680438 1.4763086 0.079236634 100
-0.81349248 1.4904094 0.1349171 99
-0.80041927 1.489543 0.13387123 36
0.12845612 1.2926117 0.13051336 5
0.16374308 1.2522999 0.010785587 26
0.13924366 1.282891 0.03443706 27
0.12903607 1.2956369 0.05891728 22
0.10052529 1.3312368 0.11388429 9
0.14991882 1.2695616 0.12440746 24
0.14665729 1.2736341 0.17289113 7
0.16169527 1.2583408 0.010890301 78
0.17335582 1.2436763 0.031715591 61
0.1531938 1.2690325 0.055779677 73
0.16453093 1.2547747 0.076046467 29
0.1651881 1.2539482 0.097927973 24
0.15655258 1.2648084 0.122881 85
0.18735695 1.2260681 0.13452072 23
0.1544295 1.2674785 0.17030293 21
0.15720677 1.2675409 0.011064826 100
0.17253637 1.2481234 0.031924933 100
0.14506161 1.2829249 0.057174169 94
0.15884516 1.2654657 0.077508904 29
0.17789596 1.2413346 0.095112152 38
0.15706569 1.2677197 0.12326261 100
0.19015867 1.2258017 0.13407083 46
0.14659196 1.2809865 0.17444403 42
0.15894592 1.2689091 0.011064826 100
0.1680471 1.2572978 0.032448292 100
0.15668735 1.2717905 0.055779677 100
0.17282307 1.2512045 0.075071514 30
0.1795435 1.2426305 0.095112152 25
0.16243881 1.2644528 0.12211776 100
0.19054973 1.2285888 0.13452072 31
0.15552863 1.2732688 0.1713382 43
0.1692012 1.2591577 0.010820492 100
0.17948022 1.2459536 0.031610917 92
0.16202518 1.2683756 0.055256739 99
0.1585685 1.2728159 0.078240119 28
0.17625907 1.2500913 0.096363634 25
0.17614061 1.2502435 0.11830158 100
0.18488994 1.2390045 0.13722014 30
0.14889276 1.2852449 0.17496167 35
0.17457959 1.2557373 0.010715778 66
0.17259422 1.258306 0.032343622 60
0.16864082 1.2634211 0.054559495 50
0.17974904 1.2490487 0.074340299 30
0.17310518 1.2576449 0.097615108 24
0.18891272 1.2371924 0.13632034 22
0.15069374 1.286642 0.17496167 35
0.17384276 1.2602177 0.010785587 52
0.16943762 1.2659585 0.032762308 29
0.16672683 1.2694913 0.055082429 50
0.18867418 1.240889 0.072877869 47
0.19164515 1.2370172 0.093234941 53
0.1902588 1.2388239 0.11486702 13
0.20003626 1.2260816 0.13272113 23
0.16073185 1.2773042 0.1713382 58
0.17313263 1.2647091 0.010855397 52
0.16632989 1.273639 0.033180997 28
0.16002116 1.2819204 0.056302611 48
0.18550831 1.2484637 0.073852822 46
0.19686869 1.2335511 0.092296332 53
0.18951806 1.2432002 0.11563025 13
0.20871589 1.2179995 0.13002171 40
0.16835845 1.2709762 0.16875002 66
0.17003685 1.2724013 0.010995016 51
0.17049977 1.2717893 0.032971654 29
0.17743421 1.2626203 0.054036561 51
0.17640388 1.2639827 0.076046467 89
0.20087206 1.2316298 0.091670595 54
0.19235629 1.2428898 0.11524864 13
0.21028179 1.219188 0.13002171 40
0.17477071 1.266142 0.16667947 82
0.17899683 1.2641299 0.010785587 52
0.17944884 1.2635279 0.032343622 30
0.1803523 1.2623246 0.053862248 51
0.18766558 1.2525841 0.07409656 61
0.20367163 1.231266 0.09135773 54
0.20343938 1.2315754 0.11219569 14
0.20717156 1.2266046 0.13182132 39
0.17418504 1.2705386 0.16771474 67
0.19267461 1.2493888 0.010436539 68
0.20265886 1.2359939 0.030459527 32
0.1796917 1.2668067 0.054210871 51
0.19053867 1.2522544 0.073852822 62
0.19702011 1.2435589 0.093547814 52
0.20387942 1.2343564 0.1125773 13
0.2087675 1.2277985 0.13182132 39
0.18517071 1.259456 0.16357364 69
0.18126604 1.2683153 0.010820492 78
0.20072353 1.24202 0.030773543 64
0.1790579 1.2712995 0.054559495 76
0.193405 1.2519104 0.073609084 77
0.1986753 1.2447881 0.093547814 78
0.20433465 1.2371399 0.11295892 13
0.21848166 1.2180213 0.128672 32
0.18803057 1.2591736 0.163056 70
0.19011083 1.2599298 0.010611063 81
0.21419737 1.2271399 0.029726824 67
0.17373288 1.2822256 0.055605363 73
0.20214057 1.2435532 0.072146654 63
0.20267364 1.2428275 0.092922069 100
0.20364282 1.2415081 0.11372216 13
0.22120127 1.2176052 0.12822211 24
0.18745294 1.263548 0.16409127 69
0.18946677 1.2644145 0.010680873 80
0.20873445 1.2379918 0.030354854 65
0.18608835 1.2690475 0.054036561 100
0.20145649 1.2479725 0.072634131 78
0.20665401 1.2408448 0.092296332 100
0.20644754 1.241128 0.11334054 13
0.24113673 1.1935573 0.12102367 17
0.19259265 1.2601278 0.16253836 70
0.19353992 1.2624303 0.010611063 94
0.20685673 1.2440338 0.03066887 64
0.19250569 1.263859 0.053339314 78
0.20312706 1.2491862 0.072634131 78
0.20598304 1.2452408 0.092922069 100
0.21500137 1.2327825 0.11105084 14
0.24718785 1.1883185 0.11922406 17
0.1954385 1.2598075 0.16202073 70
0.20226243 1.2539281 0.010401634 83
0.20152059 1.2549604 0.031296901 94
0.18841857 1.2731938 0.054210871 100
0.20827699 1.2455579 0.071902916 96
0.20533863 1.2496471 0.093547814 100
0.22349265 1.2243831 0.10876112 14
0.24182689 1.1988683 0.12192347 8
0.19151384 1.2688863 0.16460891 69
0.20610803 1.251763 0.010331824 84
0.21464968 1.2397969 0.030250182 98
0.19231626 1.2710841 0.053862248 100
0.21323261 1.2417821 0.071171694 81
0.21373317 1.2410808 0.091670595 100
0.21009362 1.2461795 0.11372216 20
0.23072162 1.2172815 0.12687239 16
0.19981718 1.2605759 0.16150309 70
0.20085514 1.2627501 0.010541254 95
0.21167281 1.2474831 0.03066887 96
0.19406757 1.2723296 0.053862248 100
0.21258616 1.2461941 0.071659178 80
0.21309552 1.2454753 0.092296332 100
0.20835274 1.2521688 0.11486702 27
0.23228487 1.2183932 0.12687239 16
0.19259664 1.2744055 0.16564418 68
0.19797567 1.2705085 0.010680873 80
0.22023565 1.2388592 0.03004084 99
0.19582319 1.2735689 0.053862248 100
0.21653444 1.2441216 0.071171694 81
0.22725785 1.228875 0.088854775 100
0.19535518 1.2742343 0.11982805 76
0.23048872 1.2242814 0.12822211 40
0.20436192 1.2614285 0.16098544 72
0.20659304 1.2618964 0.010471444 96
0.21958768 1.2432828 0.030250182 98
0.20670721 1.2617328 0.052467756 100
0.22160047 1.2403997 0.070440479 65
0.22773084 1.2316185 0.089167647 98
0.20947957 1.2577617 0.11563025 100
0.22761431 1.2317854 0.13002171 72
0.21050286 1.2562959 0.15891489 73
0.2106756 1.259864 0.010401634 83
0.21563813 1.2526999 0.030773543 64
0.20397374 1.2695391 0.053165004 100
0.20863214 1.262814 0.073609084 93
0.22380078 1.2409159 0.090731993 95
0.22692049 1.236412 0.1102876 85
0.22376072 1.2409737 0.13227122 86
0.20678729 1.2654773 0.16150309 70
0.2169193 1.2544543 0.010262015 84
0.23090369 1.2341144 0.029517479 67
0.20571956 1.2707438 0.053165004 100
0.21372843 1.2590953 0.072877869 100
0.22432742 1.2436794 0.091044858 100
0.22521371 1.2423904 0.11143246 91
0.23092699 1.2340806 0.13002171 96
0.20961341 1.2650805 0.16098544 72
0.20959505 1.2688279 0.010541254 81
0.23252571 1.2352254 0.029517479 67
0.20410043 1.2768798 0.053687938 78
0.20872411 1.2701042 0.074340299 92
0.22932324 1.2399184 0.090106249 96
0.21801162 1.2564944 0.1144854 100
0.23035198 1.2384108 0.13092151 100
0.2102547 1.2678612 0.16150309 70
0.20797417 1.2749802 0.010645968 53
0.22631136 1.2479064 0.030250182 65
0.21369296 1.2665367 0.052467756 80
0.2160379 1.2630745 0.073121607 78
0.22985774 1.2426704 0.090419121 100
0.22741854 1.2462717 0.11181407 84
0.231989 1.2395238 0.13092151 96
0.21632805 1.2626462 0.15943253 73
0.21643263 1.2662135 0.010436539 41
0.22241029 1.2573211 0.030773543 32
0.22432053 1.2544795 0.051073264 55
0.2232984 1.256 0.071902916 96
0.23701984 1.2355881 0.088854775 100
0.23017827 1.2457656 0.11143246 91
0.23471707 1.2390137 0.13047162 96
0.22128302 1.2589982 0.15787962 73
0.222606 1.260721 0.010296919 42
0.21524566 1.2717532 0.031610917 30
0.21606186 1.2705297 0.05264207 53
0.23050538 1.2488809 0.070684217 98
0.23316538 1.2448939 0.090419121 100
0.23728889 1.2387133 0.10952436 85
0.23311156 1.2449746 0.13182132 100
0.21977547 1.2649636 0.15943253 73
0.22414926 1.2617471 0.010296919 42
0.21682364 1.2728024 0.031610917 30
0.22093761 1.2665939 0.052119136 54
0.23859048 1.2399536 0.069221787 83
0.23138544 1.2508268 0.09135773 94
0.23334068 1.2478762 0.11143246 91
0.24106389 1.236221 0.1291219 100
0.22239918 1.2643882 0.15891489 73
0.22147274 1.2695647 0.010436539 27
0.21638593 1.2772999 0.03182026 30
0.2215783 1.2694042 0.052293446 53
0.23805135 1.244355 0.069709264 66
0.2417489 1.2387323 0.088854775 98
0.23501071 1.2489786 0.11143246 91
0.24376395 1.2356683 0.128672 97
0.21457362 1.2800556 0.16357364 69
0.22868314 1.2623354 0.010262015 28
0.18977761 1.3219481 0.03454173 27
0.23421276 1.2538626 0.05055033 56
0.23970908 1.245441 0.069709264 66
0.2444666 1.2381513 0.08854191 100
0.23990357 1.2451429 0.1102876 85
0.24645635 1.2351025 0.12822211 97
0.23113778 1.2585742 0.1563267 74
0.22931659 1.2651324 0.010296919 42
0.22210714 1.2762637 0.031610917 30
0.2348206 1.2566342 0.05072464 56
0.23705405 1.2531859 0.070684217 65
0.24932414 1.234241 0.087603301 99
0.24156404 1.2462225 0.1102876 99
0.25020045 1.232888 0.1273223 97
0.23389536 1.2580628 0.15580906 75
0.24194255 1.2494806 0.0099478718 58
0.25419331 1.2304127 0.028680105 69
0.23552936 1.2594625 0.050898954 55
0.24526519 1.2443089 0.069221787 67
0.24995992 1.2370018 0.087916173 84
0.25073999 1.2357876 0.10761628 87
0.24979231 1.2372627 0.12822211 97
0.23359784 1.2624688 0.15684435 74
0.24146807 1.2539253 0.010017681 72
0.24721253 1.2449152 0.029517479 67
0.23509762 1.2639172 0.051247578 82
0.2469227 1.2453698 0.069221787 83
0.249468 1.2413776 0.08854191 56
0.23970249 1.2566946 0.11219569 91
0.25037757 1.2399509 0.128672 97
0.23012605 1.2717149 0.15943253 73
0.23674437 1.2651386 0.01022711 70
0.25421131 1.23753 0.028994121 100
0.22936705 1.2767994 0.052467756 80
0.2496452 1.2447473 0.068978049 50
0.25533977 1.2357464 0.087290429 57
0.25085011 1.2428428 0.10876112 79
0.26764816 1.2162914 0.12192347 76
0.22878075 1.2777262 0.16098544 64
0.24272755 1.2594546 0.010087491 86
0.25372121 1.2419429 0.029203463 100
0.23113808 1.2779155 0.052467756 80
0.24286053 1.2592428 0.070927955 48
0.26116851 1.23008 0.086038955 72
0.24102011 1.2621744 0.11295892 75
0.26195478 1.2288276 0.12507279 92
0.23671791 1.2690274 0.15787962 65
0.24655256 1.2571297 0.010017681 72
0.24903429 1.2531457 0.029831495 99
0.24450088 1.2604232 0.05055033 84
0.24876851 1.2535722 0.069953002 66
0.26277623 1.2310854 0.086038955 72
0.2479302 1.2549181 0.11105084 84
0.26149741 1.2331383 0.12597258 82
0.24254751 1.263559 0.15580906 67
0.25876856 1.2411759 0.0096686333 75
0.25072262 1.2541933 0.029831495 99
0.2514523 1.2530127 0.049678773 86
0.25045833 1.2546208 0.069953002 49
0.25919452 1.2404867 0.087603301 57
0.25375357 1.2492895 0.10952436 85
0.26311582 1.2341425 0.12597258 99
0.2402094 1.2712023 0.15787962 65
0.25292805 1.2540185 0.0099129668 87
0.257469 1.2466199 0.029308135 100
0.23942253 1.2760231 0.051944822 100
0.2602894 1.2420247 0.068003096 51
0.25757411 1.2464488 0.08854191 70
0.26244953 1.2385052 0.10685304 73
0.26457539 1.2350416 0.12597258 99
0.24380657 1.2688801 0.15684435 66
0.25253925 1.2584684 0.0099827768 87
0.2622509 1.2425207 0.028994121 100
0.24119076 1.2771041 0.051944822 81
0.25574398 1.2532059 0.069465525 49
0.26437613 1.2390308 0.086977564 57
0.25285438 1.257951 0.11105084 84
0.2732954 1.2243842 0.12282328 85
0.23751158 1.2831459 0.16098544 64
0.24812874 1.2698258 0.010192205 85
0.25985453 1.2504108 0.029412808 100
0.25644183 1.2560613 0.049678773 86
0.25751701 1.2542812 0.069465525 49
0.27324575 1.2282381 0.084787481 59
0.25159991 1.2640784 0.11219569 91
0.26992536 1.2337359 0.12507279 92
0.24338937 1.277673 0.15891489 65
0.25912571 1.2554386 0.0098780617 73
0.25948009 1.254847 0.029622151 100
0.25711623 1.2587922 0.049853086 85
0.25920925 1.2552991 0.069465525 49
0.27281636 1.2325903 0.085413218 58
0.26644459 1.2432241 0.10723466 81
0.27555233 1.2280242 0.12327318 76
0.25310698 1.2654831 0.15477379 67
0.26593113 1.2478564 0.0097035384 90
0.26117429 1.2558582 0.029622151 100
0.25373372 1.2683747 0.05072464 84
0.26293376 1.2528985 0.068978049 50
0.27140456 1.238649 0.086351827 58
0.26308215 1.2526489 0.10914274 85
0.27117807 1.2390301 0.12597258 99
0.252864 1.2698376 0.15580906 67
0.26150596 1.2591798 0.0099129668 87
0.26997414 1.2448208 0.028889447 100
0.25648731 1.2676896 0.05055033 100
0.26462114 1.2538977 0.068978049 50
0.27404562 1.2379172 0.086038955 58
0.26676327 1.2502654 0.10837951 87
0.28172642 1.2248933 0.12192347 85
0.25264785 1.2742 0.15684435 66
0.26312971 1.2601337 0.0099129668 87
0.27255911 1.2440232 0.028784776 100
0.25210083 1.2789773 0.051596198 82
0.26622736 1.2548413 0.068978049 67
0.2795901 1.2320104 0.084787481 59
0.26934913 1.2495075 0.10799789 79
0.28126764 1.2291441 0.12282328 85
0.25432149 1.2751832 0.15684435 66
0.2668505 1.2576735 0.0098431576 88
0.27020404 1.2518977 0.029203463 100
0.26488379 1.2610608 0.049678773 100
0.26194105 1.2661291 0.070440479 49
0.28318819 1.2295349 0.084161744 74
0.26708153 1.2572756 0.10952436 85
0.28482899 1.2267089 0.12192347 85
0.25899673 1.2712002 0.15529142 75
0.27154863 1.2534604 0.0097384425 60
0.26790062 1.2597942 0.029622151 100
0.26560527 1.2637796 0.049853086 85
0.27160057 1.2533703 0.068490572 50
0.27887851 1.2407339 0.086038955 72
0.27466324 1.2480527 0.10723466 81
0.28545222 1.2293204 0.12237337 68
0.26556888 1.2638427 0.15270324 68
0.2791898 1.2440116 0.0095290141 92
0.27159357 1.2573076 0.029412808 100
0.26733062 1.2647693 0.049853086 85
0.27525902 1.2508918 0.068003096 51
0.28052333 1.2416774 0.086038955 58
0.27730754 1.2473062 0.10685304 81
0.28125694 1.2403934 0.12507279 92
0.26537782 1.2681874 0.15373851 68
0.28084606 1.244954 0.0095290141 92
0.2831434 1.2409 0.028366089 100
0.27102402 1.2622862 0.049504463 86
0.27596059 1.253575 0.068246834 68
0.28509322 1.2374594 0.085100345 58
0.27897531 1.2482553 0.10685304 81
0.29154766 1.2260698 0.12102367 86
0.26521361 1.2725394 0.15477379 67
0.27270725 1.2633226 0.0098780617 73
0.28674605 1.2383466 0.028156744 100
0.26298156 1.2806251 0.051247578 82
0.28251365 1.2458763 0.067028143 51
0.2838228 1.2435472 0.086038955 58
0.28257033 1.2457755 0.1060898 81
0.29314122 1.2269691 0.12102367 86
0.27368709 1.2615794 -0.0098431576 87
0.26602295 1.2752144 0.15529142 75
0.28124717 1.2520612 0.0096337283 90
0.27865693 1.2567074 0.029203463 100
0.28125888 1.2520403 0.048284281 88
0.27644336 1.2606778 0.068978049 50
0.29413453 1.2289453 0.083223134 60
0.27371675 1.2655685 0.1102876 99
0.29473791 1.227863 0.12102367 86
0.27540472 1.2625408 -0.0098431576 87
0.27249172 1.2677659 0.15270324 68
0.27906096 1.2599964 0.0097733475 100
0.28035751 1.2576516 0.029203463 100
0.27908674 1.2599498 0.048981529 87
0.28007895 1.2581553 0.068490572 50
0.29191461 1.2367504 0.084474608 59
0.28969839 1.2407584 0.10456333 75
0.29916665 1.2236351 0.11967396 87
0.27610058 1.2653503 0.15166797 77
0.28269607 1.2574325 0.0097035384 90
0.28014067 1.2620922 0.029412808 100
0.28271466 1.2573986 0.048632905 88
0.28178456 1.2590946 0.068490572 50
0.28879628 1.2463086 0.086038955 58
0.29511923 1.2347786 0.10303686 76
0.29794058 1.2296338 0.12102367 77
0.27876025 1.2646095 0.15115032 77
0.28057754 1.2653894 0.0098431576 88
0.28949392 1.2489948 0.028575432 100
0.27299473 1.2793319 0.05072464 84
0.29297769 1.2425891 0.066053182 52
0.2951794 1.2385408 0.084474608 59
0.28642529 1.254637 0.10723466 81
0.27587348 1.2740388 0.15373851 68
0.28610545 1.2592866 0.0097035384 90
0.2930637 1.2463855 0.028366089 100
0.28423223 1.2627599 0.048981529 87
0.29085958 1.2504721 0.067028143 51
0.2986919 1.2359502 0.083848871 59
0.2834588 1.2641939 0.10914274 78
0.2804099 1.2698469 -0.0099129668 87
0.27946869 1.2715919 0.15270324 68
0.28592879 1.2637315 0.0097733475 89
0.29284424 1.2508018 0.028575432 100
0.28783324 1.2601708 0.048632905 88
0.28504851 1.2653773 0.068978049 50
0.28796324 1.2599277 0.10799789 72
0.28404257 1.2672582 -0.0098431576 87
0.28668791 1.2623122 0.14959741 70
0.29421249 1.252284 0.0095290141 92
0.29265252 1.2552254 0.028784776 100
0.28767881 1.2646033 0.048981529 87
0.28491911 1.2698066 0.069465525 49
0.29427439 1.2521673 0.1060898 73
0.28577992 1.2681835 -0.0098431576 87
0.29112348 1.2581084 0.1480445 79
0.2962071 1.2525853 0.028575432 100
0.29033425 1.2637525 0.048807215 88
0.29775316 1.2496455 0.066540658 52
0.29687285 1.2513194 0.10570818 81
0.28565896 1.2726426 -0.0099129668 97
0.29192966 1.2607188 0.14856213 71
0.29666108 1.2558311 0.0095639192 91
0.29974014 1.2499263 0.028366089 100
0.29759327 1.2540435 0.067028143 51
0.29946226 1.2504593 0.10532656 67
0.28556594 1.2771084 -0.0099827768 96
0.28649837 1.2753203 0.15270324 68
0.29284808 1.2673705 0.0097733475 89
0.2937876 1.2655532 0.048807215 58
0.29746106 1.2584482 0.067515619 51
0.29753423 1.2583067 0.10685304 73
0.28825608 1.276252 -0.0099478718 100
0.28826389 1.276237 0.15270324 76
0.29641017 1.264706 0.0097035384 90
0.2991676 1.2593268 0.067515619 51
0.28911263 1.2789421 -0.0099827768 100
0.29620129 1.2651136 0.14907977 78
0.29905877 1.2637775 0.048458595 59
0.29817912 1.2655084 0.068246834 68
0.2979311 1.2659965 0.14907977 78
0.29609919 1.27373 0.15115032 77
0.29958606 1.271157 0.15011504 78
0.29979303 1.2753668 -0.0098431576 100
0.29713878 1.2807279 0.15270324 76
