# .PCD v0.7 - Point Cloud Data file format
VERSION 0.7
FIELDS x y z intensity
SIZE 4 4 4 4
TYPE F F F F
COUNT 1 1 1 1
WIDTH 730
HEIGHT 1
VIEWPOINT 0 0 0 1 0 0 0
POINTS 730
DATA ascii
-1.1583233 0.16361643 0.020419316 26
-1.1806436 0.16676924 0.062489133 29
-1.112255 0.16087291 0.019616505 4
-1.0444586 0.15460478 0.018429741 6
-1.0300455 0.15633145 0.018185407 4
-1.0848508 0.16833156 0.019162742 1
0.054754078 0.0032932162 0.047835063 61
0.045166433 8.3446503e-07 0.048253752 28
0.037589788 0.00021880865 0.048463095 85
0.043805957 0.015281916 0.047625721 77
0.040056288 0.015398622 0.047730394 28
0.02955687 0.0056268573 0.048463095 17
0.023502409 0.0025072694 0.048777111 16
0.03553468 0.03060776 0.047207031 10
0.025647223 0.027783096 0.047625721 9
-1.0300241 1.1266534 0.08488892 3
-1.0417197 1.1292934 0.14276111 4
-1.0482371 1.1366323 0.028621947 7
-1.0073559 1.1272542 0.08373753 5
-1.0190945 1.1299471 0.14084367 8
-1.0118926 1.1340386 0.02799366 10
-1.0099895 1.133595 0.083946876 39
-1.0236495 1.1367788 0.14136662 43
-0.9911533 1.1348813 0.027644612 30
-0.98733205 1.1339766 0.082795486 91
-1.0301149 1.1441057 0.14206386 86
-0.98403734 1.1388562 0.027539898 37
-0.99381989 1.1412084 0.083214171 100
-1.0133018 1.1458927 0.14066938 87
-0.99439627 1.1470544 0.027749326 38
-0.97117168 1.1413842 0.082062781 100
-1.0023026 1.1489847 0.13979781 86
-0.9853068 1.1505188 0.027609708 23
-0.98343629 1.1500552 0.082795486 93
-0.9854992 1.1505665 0.13840333 91
-0.96845502 1.151973 0.027330469 27
-0.98791105 1.1568673 0.083109498 43
-0.99961895 1.1598125 0.13979781 76
-0.96898228 1.1580309 0.027365373 44
-0.97100192 1.1585467 0.08227212 34
-0.99045819 1.163517 0.13910057 84
-0.97148997 1.1643341 0.027435184 56
-0.97543651 1.1653569 0.082586139 74
-0.99100381 1.1693916 0.13927488 89
-0.97203821 1.1701511 0.027470088 61
-0.96052581 1.1671245 0.081853434 96
-0.98381954 1.1732485 0.13875194 91
-0.95324248 1.1708248 0.027155945 78
-0.96298999 1.1734239 0.082062781 92
-0.96700162 1.1744936 0.13735744 100
-0.94804412 1.1747644 0.027086135 81
-0.9558596 1.1768761 0.081748761 98
-0.96180505 1.1784825 0.13700883 100
-0.95433658 1.1821043 0.027225753 93
-0.93516725 1.1768531 0.080702044 100
-0.96613473 1.1853364 0.13753176 98
-0.95288891 1.187353 0.027225753 93
-0.93758684 1.1831036 0.08091139 100
-0.97235471 1.1927586 0.13822901 89
-0.94757313 1.1915129 0.027155945 89
-0.93421322 1.1877526 0.080806717 86
-0.95744461 1.1942914 0.13700883 99
-0.95001334 1.1975731 0.027225753 66
-0.938582 1.1943146 0.081120729 76
-0.94261688 1.1954647 0.13578865 100
-0.95235401 1.2039163 0.027295563 50
-0.93325418 1.1983998 0.08091139 34
-0.94877928 1.2028837 0.13648589 98
-0.93355721 1.2041036 0.026981421 52
-0.9259991 1.201892 0.080597371 22
-0.95682007 1.2109106 0.13735744 84
-0.93203288 1.2092795 0.026981421 71
-0.91682285 1.2047712 0.080178685 26
-0.94190019 1.2122042 0.13613728 85
-0.93049043 1.2144501 0.026981421 75
-0.90955752 1.2081659 0.079864666 34
-0.9327144 1.2151177 0.13544002 94
-0.91553742 1.2155437 0.026737086 78
-0.9137519 1.2150009 0.080178685 90
-0.92543298 1.2185521 0.1349171 100
-0.90823966 1.2188916 0.026632372 83
-0.92173392 1.2230456 0.080702044 98
-0.92004985 1.2225273 0.13456847 99
-0.9047547 1.2233841 0.026597468 88
-0.90298229 1.2228317 0.07976 89
-0.92416769 1.2294344 0.13509139 70
-0.91079146 1.2308661 0.026737086 85
-0.89758343 1.2266991 0.079550654 72
-0.93015522 1.2369752 0.13578865 47
-0.90917379 1.2359624 0.026737086 81
-0.90168816 1.233572 0.079864666 80
-0.90763861 1.2354721 0.13387123 43
-0.89612168 1.2373633 0.026527658 88
-0.90006119 1.2386365 0.079864666 97
-0.90031737 1.2387192 0.13334829 48
-0.88687891 1.239922 0.026388038 99
-0.90031487 1.2443161 0.079969339 100
-0.91192824 1.2481142 0.13456847 64
-0.88151556 1.2434285 0.02631823 100
-0.89114898 1.2466145 0.079550654 100
-0.91222626 1.2535851 0.13474278 82
-0.88743967 1.2509606 0.026457848 96
-0.88379437 1.2497408 0.079236634 100
-0.90863997 1.258054 0.13456847 84
-0.88954037 1.2572575 0.026527658 93
-0.87832731 1.2534621 0.079027295 100
-0.89371699 1.2586713 0.13334829 84
-0.87647945 1.258393 0.02631823 96
-0.88041025 1.2597389 0.079236634 100
-0.89388734 1.2643532 0.1335226 100
-0.859649 1.2581347 0.026038991 88
-0.87491733 1.2634219 0.079027295 100
-0.89027017 1.2687383 0.13334829 95
-0.87303501 1.2683398 0.02631823 81
-0.86376125 1.2650921 0.078503937 89
-0.90544432 1.2796893 0.1349171 56
-0.86751682 1.2719691 0.02624842 83
-0.85072821 1.2660239 0.077875905 53
-0.89990002 1.2834365 0.13456847 38
-0.86575598 1.2769141 0.02624842 92
-0.85462934 1.2729301 0.078189917 17
-0.88309282 1.2831215 0.13317397 41
-0.85269624 1.2777689 0.026038991 100
-0.86413318 1.281909 0.078817949 53
-0.87192589 1.28473 0.13230242 22
-0.84340364 1.2799133 0.025899371 99
-0.85858649 1.2854694 0.07860861 93
-0.86076528 1.2862668 0.13143086 15
-0.84179479 1.2842883 0.025899371 100
-0.84946638 1.287123 0.078189917 100
-0.88716954 1.301055 0.13404553 5
-0.84373766 1.2905427 0.025969181 100
-0.83455557 1.2871133 0.077457212 78
-0.87224191 1.3011887 0.13282534 1
-0.84921116 1.2987177 0.0261088 100
-0.83069152 1.2917198 0.077352546 48
-0.84782654 1.2981946 0.13073361 1
-0.83988458 1.3007452 0.025969181 79
-0.83819121 1.3000987 0.077875905 53
-0.84225172 1.3016492 0.130385 15
-0.8287881 1.3017535 0.025794657 72
-0.84201604 1.3068552 0.078189917 68
-0.84605783 1.308414 0.13090792 56
-0.83260721 1.3085001 0.025899371 78
-0.82720059 1.3063943 0.077457212 68
-0.85726053 1.3181021 0.1321281 100
-0.83071905 1.313323 0.025899371 93
-0.82160276 1.3097357 0.077247873 59
-0.84050661 1.3171744 0.13073361 99
-0.82519311 1.3164219 0.025829561 99
-0.82166153 1.3150187 0.077352546 89
-0.83498138 1.3203112 0.130385 99
-0.8119517 1.317225 0.025620133 100
-0.81955868 1.3202814 0.077352546 97
-0.82361442 1.321911 0.12951343 100
-0.81012958 1.3217384 0.025620133 100
-0.82883102 1.3293246 0.077980578 97
-0.83285421 1.3309567 0.1305593 100
-0.80439764 1.3252028 0.025550323 100
-0.80274755 1.3245263 0.076619841 100
-0.82157141 1.3322427 0.12968774 100
-0.80624455 1.3312204 0.025620133 100
-0.80090123 1.3290093 0.076619841 100
-0.82338136 1.3383117 0.13003637 100
-0.77799791 1.3195317 0.17646681 18
-0.80806643 1.3372562 0.025689943 100
-0.79719704 1.3327161 0.076515168 100
-0.81781226 1.341327 0.12968774 100
-0.76884133 1.3208721 0.17549185 16
-0.79880732 1.3386492 0.025550323 100
-0.80084485 1.3395082 0.07682918 100
-0.80122298 1.3396676 0.12829325 100
-0.78164071 1.3314118 0.17744176 18
-0.79671413 1.3435891 0.025550323 83
-0.80426103 1.3468033 0.0771432 55
-0.79912597 1.3446162 0.12829325 91
-0.76861614 1.3316216 0.17597933 16
-0.80950195 1.3543692 0.025829561 56
-0.81335038 1.3560234 0.077771232 53
-0.8246699 1.360889 0.13090792 24
-0.76857024 1.3367751 0.17622307 7
-0.81081313 1.361416 0.025899371 99
-0.79816467 1.3559189 0.077038527 100
-0.83507782 1.3719616 0.1321281 67
-0.77538735 1.3460197 0.17744176 16
-0.80335039 1.3635159 0.025794657 100
-0.80901796 1.3660014 0.077771232 100
-0.82212621 1.3717501 0.13108224 100
-0.78983146 1.3575871 0.17963541 36
-0.79771751 1.3663821 0.025724847 100
-0.80886048 1.3713131 0.077875905 100
-0.80008143 1.3674283 0.12916481 100
-0.766092 1.3523874 0.17671055 31
-0.7884286 1.3675871 0.025585229 100
-0.81597763 1.3798872 0.078399263 100
-0.80173141 1.3735266 0.12951343 100
-0.76234084 1.3559393 0.17646681 30
-0.7952382 1.3768332 0.025759751 100
-0.79906112 1.3785576 0.077561885 100
-0.81030101 1.3836279 0.1305593 100
-0.75284332 1.3577089 0.17549185 20
-0.79503864 1.3821191 0.025794657 100
-0.80067128 1.3846824 0.077771232 100
-0.81551248 1.3914366 0.13125655 100
-0.76714832 1.3694264 0.1776855 16
-0.80016237 1.390149 0.025934275 100
-0.80396229 1.3918943 0.078085244 100
-0.8060928 1.3928729 0.1305593 100
-0.77226359 1.3773346 0.17866045 15
-0.79084092 1.3912601 0.025794657 100
-0.81276578 1.4014188 0.078713275 100
-0.80040425 1.3956912 0.13021068 100
-0.77924806 1.3858888 0.17987914 10
-0.78844553 1.396404 0.025794657 100
-0.81575805 1.4091866 0.079027295 100
-0.80160087 1.4025609 0.1305593 100
-0.75350028 1.3800495 0.17671055 7
-0.78997761 1.4025464 0.025864467 100
-0.80098802 1.4077439 0.07829459 100
-0.80309922 1.4087405 0.13090792 100
-0.75326532 1.385216 0.17695428 3
-0.79487103 1.4108944 0.026004085 100
-0.7986415 1.4126912 0.07829459 100
-0.80434626 1.4154098 0.13125655 100
-0.79994768 1.4188156 0.026143705 100
-0.79830295 1.4180251 0.078399263 100
-0.80758578 1.4224867 0.13177948 100
-0.7939623 1.4220133 0.026073895 100
-0.80130965 1.4255779 0.078713275 100
-0.79980749 1.4248492 0.13125655 100
-0.78281158 1.4220725 0.025899371 100
-0.80271631 1.4318109 0.078922622 100
-0.80478722 1.432824 0.13195379 100
-0.79487258 1.4338014 0.02617861 100
-0.79860693 1.4356446 0.078817949 100
-0.81318492 1.4428401 0.13299966 100
-0.79624432 1.4400396 0.02624842 100
-0.79818028 1.4410031 0.078922622 100
-0.81808096 1.4509079 0.13369691 100
-0.80092722 1.4485595 0.026388038 100
-0.79571182 1.4459399 0.078922622 100
-0.80845445 1.4523404 0.13299966 100
-0.79153389 1.4494218 0.02624842 100
-0.80415362 1.4558131 0.079550654 100
-0.800852 1.4541409 0.13247673 100
-0.78915399 1.4541004 0.02624842 100
-0.81064457 1.4650788 0.080074012 100
-0.81087559 1.4651968 0.13369691 100
-0.79398912 1.4621999 0.026388038 100
-0.79945415 1.4650145 0.079550654 100
-0.81387657 1.4724426 0.13421984 100
-0.79499191 1.4689655 0.026457848 100
-0.79335326 1.4681139 0.079341307 100
-0.81482869 1.4792743 0.13456847 100
-0.79975194 1.4771338 0.026597468 99
-0.79456919 1.4744184 0.079550654 100
-0.80540973 1.4800978 0.13387123 100
-0.78654367 1.4764693 0.026388038 81
-0.7972756 1.4821419 0.079864666 100
-0.79751366 1.4822676 0.13334829 100
-0.79866093 1.4886061 0.13369691 31
0.1175501 1.3065157 0.13394791 10
0.15882826 1.2586116 0.010925206 26
0.15680838 1.2611346 0.032971654 29
0.15154114 1.2677139 0.055779677 24
0.142598 1.2788848 0.10324675 11
0.14019021 1.2818923 0.12746041 35
0.19558981 1.2126929 0.13092151 8
0.13829377 1.2842612 0.1765146 6
0.15680334 1.2646703 0.011029921 76
0.16971016 1.2484325 0.032029606 91
0.15576041 1.2659824 0.055431053 74
0.15843952 1.2626119 0.077265166 29
0.1738767 1.2431908 0.095737889 25
0.1590822 1.2618033 0.12211776 87
0.18379879 1.230708 0.13587044 30
0.15091008 1.2720845 0.17185585 29
0.16472656 1.2581911 0.010855397 100
0.17261982 1.2481892 0.031924933 100
0.1624313 1.2610995 0.054733805 100
0.17122939 1.2499511 0.075071514 30
0.17797825 1.2413995 0.095112152 38
0.15958506 1.264706 0.12249938 100
0.18903095 1.2273942 0.13452072 38
0.15146831 1.2749909 0.17237349 42
0.16889969 1.2563848 0.010785587 100
0.17182764 1.2526479 0.032134276 100
0.15923259 1.2687225 0.055431053 100
0.16923407 1.2559581 0.075802729 30
0.17231598 1.2520247 0.096989371 37
0.17463371 1.2490666 0.11830158 100
0.18822595 1.2317194 0.13542053 38
0.154425 1.2748584 0.17185585 36
0.17305547 1.2545555 0.010715778 100
0.20172045 1.2177072 0.029726824 100
0.15608245 1.2763739 0.056128297 97
0.18312135 1.2416159 0.073365346 31
0.17157507 1.2564585 0.097615108 24
0.17630827 1.2503741 0.11830158 100
0.18983984 1.2329794 0.13542053 30
0.14670026 1.2884345 0.17599694 34
0.17352685 1.2574508 0.010750682 79
0.18497297 1.2426307 0.031296901 62
0.15541673 1.2808995 0.056476921 48
0.17870289 1.2507491 0.074584037 30
0.17086053 1.2609032 0.098240845 24
0.18669346 1.2404029 0.13722014 22
0.14496988 1.294426 0.17754987 40
0.17149419 1.2634567 0.010855397 52
0.17924881 1.253347 0.031924933 30
0.1740897 1.2600729 0.054036561 51
0.16942561 1.2661535 0.076777689 87
0.20134473 1.2245406 0.090731993 54
0.18317133 1.2482332 0.11715672 13
0.19655773 1.2307814 0.13407083 31
0.15141425 1.2896348 0.17547931 56
0.17564201 1.2615931 0.010785587 52
0.16399774 1.2768838 0.033390339 28
0.16493887 1.2756481 0.055605363 49
0.18078116 1.2548445 0.074827775 45
0.1969496 1.2336128 0.092296332 53
0.19673729 1.2338915 0.11334054 13
0.20289087 1.2258109 0.13227122 47
0.17780918 1.2587472 0.16460891 69
0.18226901 1.2565805 0.010645968 40
0.15381607 1.2942293 0.03443706 27
0.16198966 1.283414 0.056302611 48
0.19093877 1.2451086 0.073121607 62
0.18912309 1.2475111 0.094799288 64
0.20317471 1.2289181 0.11181407 14
0.20338887 1.2286347 0.13272113 39
0.17494392 1.266273 0.16667947 67
0.17916933 1.2642593 0.010785587 52
0.19040886 1.2492788 0.031401575 31
0.17693704 1.2672346 0.054385185 51
0.19736475 1.2400076 0.072146654 79
0.19197762 1.2471879 0.094486415 52
0.20360053 1.2316964 0.11219569 14
0.20967001 1.2236067 0.13092151 40
0.17667854 1.2675791 0.16667947 67
0.17722604 1.2702968 0.010890301 78
0.20870686 1.2280467 0.029936166 33
0.17620713 1.2716644 0.054733805 50
0.18825072 1.2555007 0.074340299 92
0.2018238 1.2372844 0.092296332 66
0.19692236 1.2438626 0.11486702 13
0.21816215 1.2153568 0.12822211 32
0.17717636 1.2703636 0.16719711 67
0.18848813 1.2587336 0.010611063 94
0.20436913 1.2372638 0.030459527 65
0.18151507 1.2681606 0.054210871 76
0.19112813 1.2551646 0.07409656 61
0.20580649 1.2353207 0.091670595 81
0.1985786 1.2450922 0.11486702 13
0.21508324 1.2227793 0.13002171 32
0.18122292 1.2685556 0.16616182 68
0.19019634 1.2599926 0.010611063 81
0.20009169 1.2465167 0.030982886 63
0.18207696 1.2710497 0.054385185 76
0.19987339 1.246814 0.072634131 63
0.20743287 1.2365193 0.091670595 81
0.21534508 1.2257441 0.10990598 14
0.22243279 1.2160919 0.1277722 16
0.18982589 1.2604971 0.163056 70
0.19662064 1.2547817 0.010471444 96
0.19587469 1.2558051 0.031506244 62
0.18852273 1.2658908 0.053687938 100
0.20037058 1.2496374 0.072877869 47
0.20324537 1.2456937 0.093234941 92
0.21462503 1.2300825 0.11066922 14
0.23661903 1.1999102 0.12282328 17
0.19040227 1.2633123 0.16357364 69
0.19362587 1.2624925 0.010611063 94
0.20576862 1.2457118 0.030773543 64
0.18441591 1.2752203 0.054559495 100
0.20321068 1.2492467 0.072634131 94
0.20490798 1.2469012 0.093234941 100
0.21162939 1.2376125 0.11219569 14
0.24269125 1.1946864 0.12102367 17
0.18872893 1.2692598 0.16512655 68
0.20001364 1.257237 0.010471444 96
0.20859644 1.2452884 0.03066887 96
0.18385696 1.2797296 0.054908119 100
0.20720187 1.2472298 0.072146654 63
0.21809912 1.2320591 0.090106249 100
0.21211836 1.2403853 0.1125773 13
0.23508039 1.2084185 0.12462288 16
0.19272795 1.2673799 0.16409127 69
0.19939467 1.2617121 0.010541254 81
0.21141714 1.244851 0.030564198 97
0.19489211 1.2680267 0.053513627 100
0.20656487 1.2516561 0.072634131 78
0.21971402 1.2332149 0.090106249 96
0.20236447 1.257547 0.11639348 19
0.23661268 1.2095151 0.12462288 16
0.20119566 1.2591863 0.16098544 72
0.2079604 1.2530799 0.010331824 98
0.21068537 1.2492312 0.030773543 96
0.19654557 1.2692016 0.053513627 100
0.20816401 1.2527924 0.072634131 63
0.22353488 1.2310832 0.089480512 97
0.20398316 1.2586972 0.11639348 33
0.22906312 1.2232754 0.12822211 24
0.20505244 1.2571869 0.15995017 72
0.20734909 1.257543 0.010401634 97
0.20776653 1.2569489 0.03119223 94
0.195999 1.2736925 0.053862248 100
0.21784142 1.2426139 0.070927955 48
0.21833125 1.2419169 0.09135773 94
0.21133554 1.2518708 0.1144854 87
0.22504464 1.2323647 0.13047162 48
0.20231184 1.2647102 0.16202073 70
0.21125653 1.2553968 0.010331824 84
0.22195631 1.2400647 0.03004084 99
0.19539079 1.2781314 0.054210871 100
0.21373025 1.2518522 0.072146654 63
0.21537605 1.2494938 0.092609204 100
0.20731759 1.261041 0.11639348 100
0.22434917 1.2366359 0.13137141 94
0.20616543 1.262692 0.16098544 72
0.2107611 1.2599232 0.010401634 97
0.22368139 1.2412639 0.03004084 99
0.20406094 1.2695994 0.053165004 100
0.21323845 1.2563455 0.072634131 63
0.23063022 1.2312286 0.088854775 98
0.22029606 1.246153 0.1125773 96
0.23160857 1.2298156 0.1291219 88
0.20577401 1.2671255 0.16202073 70
0.21238759 1.2610455 0.010401634 97
0.22411439 1.2439892 0.030145511 98
0.20797715 1.2674603 0.05281638 100
0.22160098 1.2476449 0.071171694 65
0.22768489 1.2387961 0.090106249 96
0.21520317 1.2569504 0.11486702 100
0.22871888 1.2372922 0.13092151 88
0.21618035 1.255529 0.15787962 73
0.21644339 1.2589757 0.010331824 98
0.22247732 1.2501303 0.030459527 65
0.2075572 1.2720025 0.053165004 100
0.21887925 1.2554048 0.072146654 79
0.22940525 1.2399743 0.090106249 100
0.22141555 1.2516868 0.11334054 96
0.22713926 1.2432961 0.13227122 94
0.21578485 1.2599411 0.15891489 73
0.21918812 1.2584234 0.010296919 42
0.21847114 1.259482 0.030982886 63
0.21145838 1.2698359 0.05281638 79
0.22049072 1.2565002 0.072146654 79
0.22874999 1.244306 0.090731993 100
0.23182237 1.2397697 0.1102876 99
0.22871053 1.2443643 0.13227122 94
0.21307799 1.2674447 0.16098544 72
0.21651924 1.2662717 0.010436539 41
0.22026742 1.2606938 0.030982886 31
0.21551514 1.267766 0.052467756 53
0.23224065 1.2428758 0.069953002 99
0.23049057 1.2454802 0.090731993 100
0.23245132 1.2425623 0.11066922 92
0.24023342 1.2309813 0.12822211 97
0.21705845 1.2654693 0.15995017 72
0.22038639 1.264048 0.010366729 27
0.22633025 1.2551389 0.030564198 32
0.21385035 1.2738446 0.05299069 52
0.22830197 1.2521836 0.071171694 65
0.23755065 1.2383209 0.089167647 98
0.23619929 1.2403464 0.10990598 85
0.24392685 1.2287638 0.1273223 97
0.2187033 1.2665707 0.15995017 72
0.21336973 1.2785928 0.010645968 40
0.19724444 1.3029555 0.033495013 28
0.22449669 1.2617819 0.051596198 54
0.22897577 1.2550147 0.071415432 96
0.24254009 1.2345213 0.088229038 98
0.22600579 1.2595018 0.11410378 100
0.23700571 1.2428827 0.13092151 96
0.22265807 1.2645597 0.15891489 73
0.2194508 1.2730217 0.010506349 27
0.18804541 1.3208137 0.03454173 27
0.23925918 1.2428778 0.049504463 57
0.22513515 1.2643714 0.072634131 78
0.24299735 1.2371892 0.08854191 98
0.23949057 1.2425257 0.10990598 92
0.24285632 1.2374038 0.1291219 96
0.23172629 1.2543411 0.15529142 75
0.23440117 1.2541276 0.010087491 28
0.22278789 1.2719424 0.031401575 31
0.22793788 1.2640423 0.051596198 54
0.23995805 1.2456033 0.069709264 66
0.24471176 1.2383112 0.08854191 84
0.2433688 1.2403712 0.10914274 85
0.2435073 1.2401588 0.12957181 96
0.22717369 1.2652146 0.15839726 73
0.22948945 1.2652444 0.010296919 42
0.23096511 1.2629642 0.030773543 32
0.23066047 1.2634349 0.051421888 55
0.24153692 1.2466289 0.069709264 83
0.23875356 1.2509296 0.090731993 95
0.23853025 1.2512747 0.11143246 91
0.24718568 1.2379006 0.128672 97
0.23091689 1.2630386 0.15736198 74
0.23329532 1.2629397 0.01022711 56
0.24987498 1.237134 0.029098792 68
0.23014459 1.2678437 0.051770512 54
0.23346207 1.2626801 0.071902916 48
0.25423095 1.2303541 0.086664692 86
0.24437276 1.245698 0.10990598 92
0.26243263 1.2175884 0.12282328 85
0.22628823 1.2738459 0.1604678 72
0.23278105 1.2673591 0.010296919 42
0.24068561 1.2549658 0.030145511 65
0.23286864 1.2672218 0.051596198 82
0.2415024 1.2536852 0.070440479 49
0.2515102 1.2379942 0.087916173 70
0.24700761 1.2450536 0.10952436 71
0.25658303 1.2300406 0.12597258 99
0.23731035 1.2602577 0.15580906 67
0.24743569 1.2482398 0.0098780617 88
0.2467365 1.2493448 0.029726824 100
0.24001932 1.2599622 0.05072464 84
0.24752256 1.2481024 0.069465525 66
0.25745201 1.2324077 0.086664692 71
0.24455222 1.2527974 0.11105084 100
0.25618738 1.2344066 0.12687239 99
0.24117506 1.2581354 0.15477379 67
0.25115031 1.2458535 0.0098082526 89
0.24938995 1.2486565 0.029622151 100
0.24376506 1.2576129 0.05037602 84
0.24699816 1.252465 0.069953002 49
0.25058231 1.246758 0.089167647 70
0.25659633 1.2371819 0.10723466 81
0.25461975 1.2403293 0.12822211 97
0.23663083 1.2689726 0.15787962 65
0.24346653 1.2622751 0.010122396 85
0.25756443 1.2396348 0.028994121 100
0.23932073 1.2689331 0.051421888 82
0.25514868 1.2435142 0.068490572 67
0.26076841 1.2344892 0.086664692 71
0.25112808 1.249971 0.10990598 78
0.26363841 1.2298802 0.12507279 92
0.23650676 1.273452 0.15891489 65
0.24615204 1.2615879 0.010087491 71
0.2517727 1.2524943 0.029726824 100
0.23154911 1.2852135 0.05299069 79
0.25463313 1.2478665 0.068978049 50
0.26438749 1.2320852 0.086038955 58
0.24962473 1.2559695 0.11105084 84
0.26926336 1.2241967 0.12327318 85
0.23817798 1.2744889 0.15891489 65
0.24900097 1.2609934 0.010052586 86
0.26085019 1.2416649 0.028994121 100
0.23968753 1.2761856 0.051944822 81
0.25846159 1.2455611 0.068490572 50
0.26195332 1.2398653 0.087290429 57
0.2503818 1.2587409 0.11143246 84
0.26787442 1.2302067 0.12462288 83
0.24608719 1.2657464 0.15580906 67
0.25270978 1.2585722 0.0099827768 87
0.2561866 1.2528584 0.029622151 100
0.24861756 1.2652975 0.05072464 84
0.25591266 1.2533085 0.069465525 49
0.26351303 1.240818 0.087290429 57
0.25812739 1.2496688 0.10914274 92
0.2673761 1.2344693 0.12552269 90
0.24773282 1.2667515 0.15580906 67
0.25966853 1.2510982 0.0098082526 89
0.26415005 1.2436719 0.028994121 100
0.25146437 1.264693 0.05055033 84
0.25460908 1.2594819 0.07019674 82
0.26932317 1.2350998 0.086038955 72
0.26698807 1.2389691 0.10647142 73
0.2680735 1.2371706 0.12597258 90
0.24755922 1.2711641 0.15684435 66
0.26126549 1.2520583 0.0098082526 74
0.26161727 1.2514709 0.029412808 100
0.24696383 1.2759356 0.051596198 82
0.26235402 1.2502409 0.068734311 100
0.26071674 1.2529744 0.089167647 70
0.262492 1.2500105 0.10876112 87
0.27563229 1.2280722 0.12327318 76
0.25517878 1.2622204 0.15373851 68
0.25988537 1.2582204 0.0099129668 87
0.26738083 1.2456067 0.028994121 100
0.24669614 1.280416 0.051944822 81
0.26301804 1.2529486 0.068978049 50
0.27249548 1.2369995 0.086038955 58
0.2581518 1.2611377 0.11105084 77
0.28121492 1.2223259 0.12147357 77
0.24900377 1.2765326 0.15787962 65
0.25854477 1.2643981 0.010017681 72
0.26599985 1.2517519 0.029308135 100
0.257586 1.2660245 0.05037602 100
0.2647056 1.2539474 0.068978049 50
0.27914315 1.2294569 0.084474608 59
0.26186201 1.2587711 0.1102876 85
0.28477478 1.2199039 0.12057377 69
0.25862229 1.2642666 0.15373851 76
0.2694416 1.2499259 0.0097035384 90
0.27079141 1.2476169 0.028994121 100
0.26845562 1.2516124 0.048807215 88
0.27249226 1.2447073 0.067515619 51
0.2778382 1.2355626 0.085413218 73
0.27059105 1.2479596 0.10761628 79
0.28052461 1.2309672 0.12327318 76
0.26043582 1.2653313 0.15373851 68
0.26911223 1.254362 0.0097733475 89
0.27145836 1.2503164 0.029098792 100
0.26813945 1.2560394 0.049155839 100
0.27016762 1.252542 0.068490572 50
0.28045595 1.2348009 0.085100345 58
0.27029136 1.2523286 0.10837951 79
0.28604576 1.2251618 0.12147357 77
0.26604316 1.2596543 0.15166797 69
0.26573282 1.2639567 0.0099478718 73
0.2750451 1.2477752 0.028889447 100
0.26180249 1.2707863 0.05055033 84
0.2777102 1.2431443 0.067028143 69
0.27707225 1.2442527 0.086664692 71
0.26993388 1.2566568 0.10914274 78
0.28658456 1.2277236 0.12192347 85
0.26766846 1.2605932 0.15166797 69
0.27142429 1.2579993 0.0098082526 89
0.28166533 1.2400594 0.028366089 100
0.25861356 1.2804407 0.051421888 82
0.27542689 1.2509878 0.068003096 51
0.28362596 1.2366248 0.085100345 58
0.27066103 1.2593365 0.10952436 78
0.29011616 1.2252556 0.12102367 86
0.26646742 1.2666826 -0.0099827768 96
0.26363626 1.2716422 0.15477379 67
0.26828977 1.2677184 0.0099827768 87
0.2804386 1.2462542 0.028680105 100
0.2634306 1.2763035 0.050898954 83
0.27914727 1.2485356 0.067515619 51
0.29020312 1.2290025 0.083536007 60
0.2763246 1.2535226 0.10799789 72
0.29082659 1.227901 0.12147357 77
0.26927477 1.2659782 -0.0099478718 86
0.26737994 1.2693259 0.15373851 76
0.28079697 1.249518 0.0095988233 76
0.28014722 1.2506754 0.028889447 100
0.27007639 1.2686141 0.050027397 100
0.27498868 1.2598641 0.068978049 50
0.29083991 1.231629 0.083848871 59
0.28185841 1.2476274 0.10647142 88
0.28861064 1.2356 0.12327318 85
0.27296561 1.2634677 -0.0098780617 87
0.2766903 1.2568331 0.14959741 78
0.28441808 1.2469606 0.0095290141 76
0.27988344 1.2551044 0.029098792 100
0.27569568 1.2626252 0.049330149 87
0.27863175 1.2573524 0.068490572 50
0.28764787 1.2411602 0.085413218 58
0.28543746 1.2451299 0.10570818 81
0.29118553 1.2348069 0.12282328 85
0.27087277 1.2712867 0.15373851 68
0.28705132 1.2461343 0.0094941091 92
0.29123387 1.2385607 0.028052073 100
0.27645373 1.2653239 0.049504463 100
0.28417325 1.2513458 0.067515619 51
0.28833917 1.2438023 0.08572609 58
0.2870976 1.2460505 0.10570818 81
0.27351722 1.2706411 -0.0099827768 86
0.27262428 1.272258 0.15373851 68
0.28374234 1.2557256 0.0096686333 75
0.29270718 1.2393713 0.028052073 100
0.27130723 1.2784107 0.05072464 84
0.28377834 1.2556599 0.068003096 51
0.29457662 1.235961 0.084161744 59
0.28387594 1.255482 0.10761628 79
0.29895753 1.2279691 0.12057377 86
0.26863188 1.2832911 0.15684435 66
0.27779874 1.270707 0.0099478718 73
0.29434717 1.2402666 0.028052073 100
0.28450286 1.2583749 0.048632905 88
0.28547522 1.2565863 0.068003096 51
0.29809162 1.2333788 0.083536007 75
0.28744757 1.2529582 0.10685304 81
0.29962692 1.2305546 0.12102367 86
0.27970892 1.2671933 -0.0098780617 87
0.27965221 1.2672975 0.15166797 77
0.28636169 1.2594248 0.0097035384 90
0.2866829 1.2588285 0.029098792 100
0.29299414 1.2471122 0.047412723 60
0.28546271 1.2610937 0.068490572 50
0.29706231 1.2395599 0.084474608 59
0.29209709 1.2487774 0.10570818 81
0.28067166 1.2699879 -0.0099129668 87
0.28522834 1.2615287 0.14959741 70
0.28901389 1.2585783 0.0096686333 75
0.29027292 1.2562213 0.028889447 100
0.28808993 1.260308 0.048632905 88
0.28717855 1.2620142 0.068490572 50
0.29497999 1.2474095 0.08572609 58
0.29747 1.242748 0.10418171 82
0.28336078 1.2691612 -0.0098780617 97
0.28148437 1.2726738 0.15270324 68
0.29540107 1.2506509 0.0094941091 92
0.29758102 1.2465353 0.028261416 100
0.28793782 1.2647405 0.048981529 87
0.29633114 1.2488949 0.066540658 52
0.29849729 1.2448056 0.085100345 58
0.29636481 1.2488314 0.10532656 75
0.28866628 1.2633653 0.14959741 70
0.29243115 1.2603884 0.0096686333 75
0.28225473 1.2797635 0.05037602 84
0.29800433 1.2497776 0.066540658 69
0.29529908 1.2549281 0.10647142 73
0.29336101 1.258618 -0.0096337283 89
0.281407 1.2813773 0.15477379 67
0.29506814 1.2595109 0.0096337283 90
0.29999146 1.2500573 0.028366089 100
0.29691985 1.2559553 0.047935657 89
0.29326215 1.2629788 0.068246834 68
0.29880702 1.2523317 0.10570818 66
0.29322082 1.2630581 -0.0097035384 89
0.29211697 1.2651777 0.14959741 78
0.29771686 1.2585804 0.067515619 51
0.29296067 1.2677914 0.15011504 78
0.2987982 1.2606802 0.028889447 100
0.29558021 1.266966 0.14959741 70
0.29661214 1.2692388 0.048981529 58
0.29819083 1.2661283 0.14907977 78
0.29995668 1.266508 0.0097035384 100
0.29728565 1.2718118 0.049155839 58
0.29456007 1.2772239 -0.0099129668 100
0.29801285 1.2703679 0.15011504 78
0.29811856 1.2745342 0.0098431576 100
0.29543898 1.2799017 -0.0099478718 100
0.2981962 1.2790389 -0.0099129668 100
0.29743236 1.2940943 0.050898954 27
