# .PCD v0.7 - Point Cloud Data file format
VERSION 0.7
FIELDS x y z intensity
SIZE 4 4 4 4
TYPE F F F F
COUNT 1 1 1 1
WIDTH 731
HEIGHT 1
VIEWPOINT 0 0 0 1 0 0 0
POINTS 731
DATA ascii
-1.1802487 0.16566308 0.020803269 23
-1.1234304 0.1576879 0.059453648 30
-1.1222636 0.1615207 0.019791029 5
-1.0544308 0.15551676 0.018604266 6
-1.0024728 0.15143079 0.01769674 4
-1.0454146 0.16165191 0.018464645 1
0.056763023 0.001999259 0.047835063 72
0.055519909 0.0062348247 0.015881689 104
0.048140407 0.00044256449 0.048149079 36
0.046420336 0.0039560795 0.04804441 22
0.044985473 0.0072954893 0.047939736 100
0.04551965 0.014135301 0.047625721 77
0.0385589 0.0091821551 0.04804441 45
0.031426132 0.0043574572 0.048463095 25
0.036768615 0.017630875 0.047730394 19
0.037409127 0.024454355 0.047416378 9
0.02584362 0.013022006 0.048253752 8
0.025358677 0.018223941 0.04804441 9
0.018274844 0.013431609 0.048463095 8
-1.0469899 1.1331203 0.085830972 5
-1.0469818 1.1331184 0.14328404 4
-1.0672081 1.1433618 0.028970994 10
-1.0010173 1.1280806 0.083423518 9
-1.0263555 1.1339303 0.14154093 13
-1.0230639 1.1389588 0.028203089 16
-1.0036469 1.1344045 0.083632857 69
-1.0231359 1.1389756 0.14136662 53
-0.99647802 1.138423 0.027749326 37
-1.0023654 1.1398256 0.083632857 100
-1.017962 1.1435412 0.14101799 95
-0.98157722 1.1405275 0.027504992 43
-0.97971123 1.140076 0.082481466 100
-0.99921983 1.1447957 0.13944919 91
-0.97833258 1.1453944 0.027470088 33
-0.99198741 1.1487484 0.083214171 100
-0.99983698 1.1506765 0.13962349 82
-0.98477405 1.1526622 0.027609708 23
-0.97902828 1.1512296 0.082586139 72
-0.9946323 1.1551201 0.13927488 89
-0.96792024 1.1540928 0.027330469 30
-0.96800703 1.1541148 0.082062781 40
-1.0010047 1.1624645 0.13997212 71
-0.97625452 1.1618755 0.027504992 48
-0.97826403 1.1623915 0.082690813 35
-0.97839743 1.1624258 0.1380547 85
-0.9574613 1.1626642 0.027190849 64
-0.9710868 1.1662134 0.082376793 88
-0.9770183 1.1677585 0.1380547 91
-0.94641465 1.1653697 0.027016325 70
-0.97162551 1.1720308 0.082481466 100
-0.97562057 1.1730864 0.1380547 92
-0.95468324 1.1731787 0.027190849 83
-0.95285004 1.1726874 0.081539422 96
-0.97805327 1.1794406 0.13840333 100
-0.95905596 1.1800014 0.027295563 88
-0.93794352 1.1742653 0.080806717 100
-0.97276944 1.1837273 0.1380547 100
-0.95776039 1.1847402 0.027295563 93
-0.94822055 1.182116 0.081434749 100
-0.9618569 1.1858671 0.13718314 94
-0.94089371 1.185704 0.027016325 93
-0.94292504 1.1862705 0.081225403 92
-0.95271939 1.1890013 0.13648589 94
-0.93558496 1.1898181 0.026946515 89
-0.94915086 1.1936518 0.081644088 78
-0.95316488 1.1947861 0.1366602 100
-0.95717949 1.2016075 0.027365373 59
-0.92654198 1.1928339 0.080492698 60
-0.95167297 1.2000306 0.1366602 99
-0.96334571 1.2090948 0.027504992 40
-0.92697519 1.1985419 0.080597371 24
-0.96547049 1.2097113 0.1380547 91
-0.93494433 1.2064797 0.027016325 61
-0.92163795 1.2025684 0.080388032 24
-0.94098812 1.2082562 0.13596296 82
-0.92390543 1.2085501 0.026841801 72
-0.92210978 1.2080158 0.080492698 26
-0.93379766 1.2114935 0.13544002 89
-0.91279238 1.2108074 0.026667276 81
-0.9301334 1.2160331 0.081016064 50
-0.93033987 1.2160953 0.13526571 99
-0.9188953 1.2182455 0.026806897 83
-0.90755421 1.2147846 0.079864666 100
-0.93258494 1.222423 0.13561434 100
-0.91732162 1.2233701 0.026806897 88
-0.9040845 1.2192801 0.07976 95
-0.92909306 1.2270073 0.13544002 89
-0.91557008 1.2290009 0.026806897 89
-0.90616053 1.226054 0.079969339 72
-0.92162341 1.2308967 0.1349171 61
-0.90252167 1.2304881 0.026597468 83
-0.90836757 1.2323413 0.080178685 64
-0.90101331 1.2300098 0.13317397 46
-0.89328915 1.2331116 0.026457848 81
-0.90864652 1.2380394 0.080283359 78
-0.90698725 1.2375069 0.13387123 43
-0.8955496 1.2391298 0.026527658 93
-0.8937884 1.2385582 0.079550654 100
-0.91111416 1.2441809 0.13439415 54
-0.89398593 1.2439208 0.026527658 99
-0.88843137 1.2420977 0.079341307 100
-0.91710585 1.2515087 0.13509139 71
-0.88861066 1.2474468 0.026457848 100
-0.89254469 1.2487525 0.079655327 100
-0.90793711 1.253861 0.13439415 82
-0.87926871 1.250169 0.02631823 96
-0.89078027 1.2540364 0.079655327 100
-0.89671069 1.2560288 0.1335226 84
-0.8663078 1.2510474 0.0261088 96
-0.88916725 1.2588116 0.079655327 100
-0.90263718 1.2633866 0.13421984 85
-0.86823219 1.2577828 0.02617861 96
-0.87972504 1.2617357 0.079236634 100
-0.89319569 1.2663686 0.1335226 100
-0.87416214 1.2651098 0.02631823 88
-0.85544842 1.2586039 0.077980578 100
-0.90847892 1.27704 0.13509139 85
-0.87233788 1.2703261 0.02631823 77
-0.86495262 1.2677283 0.07860861 74
-0.89533371 1.2784153 0.13404553 42
-0.86501831 1.2730306 0.026213514 75
-0.85953063 1.2710798 0.078399263 34
-0.88237602 1.2792013 0.13299966 37
-0.85375661 1.27483 0.026038991 93
-0.8670817 1.2796221 0.078922622 19
-0.88612467 1.2864704 0.1335226 31
-0.85583371 1.2808481 0.0261088 99
-0.85036653 1.2788615 0.078085244 63
-0.8918944 1.2939517 0.13421984 17
-0.85037762 1.2841289 0.026038991 100
-0.84304672 1.2814375 0.077771232 100
-0.86957544 1.2911772 0.13230242 15
-0.85616452 1.2915516 0.02617861 100
-0.8413431 1.2860541 0.077771232 100
-0.85289508 1.2903389 0.13090792 3
-0.83177561 1.2882746 0.025759751 100
-0.83196217 1.2883446 0.077352546 53
-0.87149876 1.303174 0.13282534 1
-0.83004934 1.2928538 0.025759751 93
-0.84144193 1.2971702 0.077980578 51
-0.8417756 1.2972965 0.13021068 5
-0.83372587 1.3000546 0.025864467 71
-0.83763534 1.3015521 0.077875905 57
-0.85843915 1.3095212 0.13195379 26
-0.83569044 1.3060832 0.025934275 74
-0.83213955 1.3047094 0.077666558 72
-0.84177691 1.3084378 0.1305593 61
-0.83744103 1.3126152 0.026004085 83
-0.81528991 1.303952 0.07682918 63
-0.85278279 1.3186152 0.13177948 100
-0.8188948 1.3106024 0.025689943 99
-0.83023053 1.3150791 0.077771232 74
-0.82501215 1.3130183 0.12933913 99
-0.8131898 1.3141334 0.025620133 100
-0.83007842 1.3208747 0.077875905 95
-0.83041435 1.3210087 0.13003637 97
-0.81137794 1.318651 0.025620133 100
-0.81898171 1.3217154 0.077352546 97
-0.8378194 1.3293071 0.13090792 100
-0.81686288 1.3264154 0.025759751 100
-0.80964798 1.3234785 0.076933853 100
-0.83585852 1.3341482 0.13090792 100
-0.76459354 1.3051379 0.17427316 15
-0.81131107 1.3294249 0.025689943 100
-0.80226308 1.3257067 0.076619841 100
-0.81923741 1.3326821 0.12951343 100
-0.77566451 1.3147761 0.17597933 16
-0.80176634 1.3315791 0.025550323 100
-0.80380815 1.3324274 0.07682918 100
-0.80786711 1.3341136 0.12864187 100
-0.79189485 1.3274781 0.17841671 15
-0.79252011 1.3329654 0.025410704 100
-0.80193573 1.3369136 0.07682918 100
-0.81701332 1.3432362 0.12968774 100
-0.78088552 1.3280866 0.17719802 20
-0.79422957 1.3392076 0.025480513 100
-0.79259187 1.3385142 0.076410495 94
-0.82050806 1.3503351 0.13021068 100
-0.77344543 1.3304067 0.17646681 20
-0.80336756 1.3483772 0.025689943 64
-0.79437238 1.344533 0.076619841 45
-0.81124765 1.3517449 0.12951343 71
-0.76975435 1.3340123 0.17622307 13
-0.81409007 1.3588817 0.025934275 67
-0.80692703 1.3557894 0.077457212 63
-0.82556921 1.3638372 0.13108224 16
-0.80595106 1.3553681 0.18134159 7
-0.79196364 1.3546166 0.025550323 100
-0.80314606 1.3594882 0.077352546 100
-0.80897969 1.3620297 0.12968774 82
-0.79126328 1.3543116 0.17963541 21
-0.78249055 1.3563099 0.025410704 100
-0.8137731 1.3700745 0.078085244 100
-0.81591898 1.3710186 0.1305593 100
-0.78184468 1.3560257 0.17866045 33
-0.80064327 1.3696511 0.025794657 100
-0.80447394 1.371352 0.077666558 100
-0.81756037 1.377162 0.13090792 100
-0.78352267 1.3620501 0.17914793 40
-0.80573505 1.37787 0.025934275 100
-0.80226082 1.3763123 0.077666558 100
-0.81532592 1.3821702 0.13090792 100
-0.76323026 1.3588121 0.17671055 24
-0.80006784 1.3807141 0.025864467 100
-0.81298095 1.3865554 0.078399263 100
-0.8023966 1.3817675 0.12986206 100
-0.77393097 1.3688908 0.17841671 17
-0.79782051 1.3856583 0.025864467 100
-0.81434542 1.3932065 0.07860861 100
-0.79652065 1.3850645 0.12951343 100
-0.76811582 1.3720896 0.17792924 16
-0.78850681 1.3867769 0.025724847 100
-0.81408519 1.3985631 0.078713275 100
-0.80533081 1.3945292 0.1305593 100
-0.76430899 1.3756266 0.1776855 15
-0.79348952 1.3950527 0.025864467 100
-0.80452877 1.4001887 0.07829459 100
-0.80664557 1.4011735 0.13090792 100
-0.76388031 1.3812771 0.17792924 11
-0.79140943 1.3995044 0.025864467 100
-0.80062348 1.4038284 0.078189917 100
-0.81175965 1.4090545 0.13160518 100
-0.77083129 1.3898474 0.17914793 5
-0.80196661 1.4099379 0.0261088 100
-0.80392987 1.4108672 0.078503937 100
-0.79882795 1.4084523 0.1305593 100
-0.77235693 1.3959227 0.17963541 3
-0.79442328 1.4118332 0.026004085 100
-0.80720443 1.4179349 0.078817949 100
-0.79310733 1.4112049 0.13021068 100
-0.78665751 1.414152 0.025899371 100
-0.8120175 1.4263732 0.079236634 100
-0.80510694 1.423043 0.13160518 100
-0.79170829 1.4220774 0.026038991 100
-0.80444437 1.4282672 0.078922622 100
-0.8065179 1.4292749 0.13195379 100
-0.79649049 1.4305134 0.02617861 100
-0.7966432 1.4305882 0.07860861 100
-0.814825 1.4395072 0.13299966 100
-0.79787761 1.436748 0.02624842 100
-0.79444522 1.4350502 0.07860861 100
-0.80188221 1.438729 0.13195379 100
-0.79530746 1.4419186 0.02624842 100
-0.80438918 1.4464545 0.079341307 100
-0.8046518 1.4465857 0.13247673 100
-0.78592795 1.4427783 0.0261088 100
-0.8092739 1.4545355 0.07976 100
-0.8077392 1.4537627 0.13299966 100
-0.79426843 1.4528716 0.02631823 100
-0.79975337 1.4556578 0.079341307 100
-0.80889684 1.4603026 0.13334829 100
-0.79555625 1.4591486 0.026388038 100
-0.79391688 1.4583091 0.079131968 100
-0.81192023 1.4675298 0.13387123 100
-0.79669577 1.465677 0.026457848 100
-0.79682952 1.465746 0.07944598 100
-0.80593675 1.4704506 0.1335226 100
-0.7907123 1.4685256 0.026388038 100
-0.79970652 1.4732116 0.07976 100
-0.80525047 1.4761001 0.13369691 100
-0.78472549 1.4713409 0.02631823 96
-0.80431575 1.4816349 0.080178685 100
-0.80983227 1.4845335 0.13439415 100
-0.78226918 1.4759958 0.02631823 59
-0.77888125 1.4742005 0.078817949 59
-0.80556935 1.488343 0.13421984 91
0.12021527 1.3045444 0.011972351 11
0.13419828 1.287153 0.12898688 11
0.21664298 1.1846125 0.12282328 8
0.15202546 1.2685341 0.011134636 25
0.15749452 1.2616831 0.032971654 29
0.1572085 1.2620413 0.055082429 25
0.14626253 1.2757533 0.07945881 14
0.15563291 1.2640151 0.10011806 12
0.15315369 1.2671208 0.12364423 49
0.18405047 1.228417 0.13542053 15
0.15468037 1.2652084 0.16978529 7
0.16246283 1.2589502 0.010890301 100
0.16789734 1.2520936 0.032238949 90
0.15026546 1.2743394 0.056302611 96
0.17145807 1.247601 0.074827775 30
0.16717574 1.253004 0.097615108 37
0.17440292 1.2438855 0.11753834 100
0.18323195 1.2327461 0.13632034 30
0.15641138 1.2665852 0.16978529 29
0.16540858 1.2587285 0.010855397 100
0.17699322 1.2440071 0.031610917 100
0.15079626 1.2772975 0.056476921 100
0.17189991 1.2504795 0.075071514 15
0.17375043 1.2481279 0.096363634 25
0.16149026 1.2637079 0.12211776 100
0.18484947 1.2340236 0.13632034 38
0.14978448 1.2785833 0.17340876 42
0.15973008 1.2695227 0.011064826 100
0.18110937 1.2421584 0.031401575 100
0.14520967 1.288108 0.057522789 100
0.17357939 1.2517964 0.075071514 30
0.18271869 1.2400986 0.094486415 26
0.17167687 1.2542315 0.11944643 100
0.18647146 1.2352953 0.13632034 30
0.15037283 1.2814994 0.1739264 42
0.16392738 1.2677219 0.010995016 100
0.18153563 1.2450213 0.031506244 62
0.16411677 1.2674776 0.055082429 100
0.17039678 1.2593815 0.076046467 29
0.18194044 1.2444996 0.095112152 25
0.18058923 1.2462415 0.11715672 72
0.18451467 1.2411809 0.13767004 30
0.14979264 1.2859442 0.17496167 35
0.17525819 1.256261 0.010715778 66
0.1781531 1.2525046 0.031924933 30
0.16933012 1.2639531 0.054559495 50
0.18041828 1.2495652 0.074340299 46
0.18343294 1.2456535 0.095112152 38
0.17489672 1.25673 0.11944643 12
0.18837583 1.2392397 0.13677025 15
0.1514155 1.287199 0.17496167 49
0.17695782 1.2575661 0.010715778 53
0.17983961 1.2537996 0.031924933 30
0.16621393 1.2716084 0.055256739 49
0.18691951 1.2445462 0.073365346 46
0.18749619 1.2437924 0.094486415 52
0.19329971 1.2362072 0.11410378 13
0.1983051 1.2296653 0.13362093 23
0.16613615 1.27171 0.16926765 59
0.17624289 1.26205 0.010785587 52
0.18153062 1.2550888 0.031924933 30
0.16676208 1.2745316 0.055431053 49
0.18137378 1.2552953 0.074827775 91
0.18437281 1.2513471 0.095737889 51
0.19967934 1.231196 0.1125773 13
0.198733 1.2324419 0.13407083 46
0.17139536 1.2684318 0.16771474 67
0.18037075 1.2601585 0.010715778 39
0.1687957 1.2755079 0.033180997 28
0.16492674 1.2806385 0.055953987 48
0.19621736 1.2391446 0.072146654 63
0.19200206 1.2447344 0.094173551 65
0.20247343 1.2308486 0.11219569 14
0.20738932 1.2243297 0.13137141 47
0.17313752 1.2697504 0.16771474 67
0.17729029 1.267849 0.010855397 39
0.17295653 1.2736378 0.032971654 29
0.18223414 1.2612453 0.053687938 52
0.19309843 1.2467332 0.073121607 78
0.19602907 1.2428186 0.093547814 52
0.19114178 1.2493467 0.11639348 13
0.20780942 1.2270828 0.13182132 39
0.18183085 1.2617838 0.16460891 69
0.18380168 1.262727 0.010715778 66
0.20092708 1.2396845 0.03066887 32
0.18751654 1.2577286 0.053165004 52
0.19121236 1.2527559 0.073852822 93
0.20003831 1.2408803 0.092922069 66
0.20569921 1.2332635 0.11219569 14
0.21405676 1.2220182 0.13002171 32
0.18354976 1.2630661 0.16460891 69
0.19629252 1.2495819 0.010401634 83
0.19435248 1.2522123 0.031401575 62
0.18694139 1.2622608 0.053513627 78
0.19651899 1.2492748 0.073121607 78
0.20411155 1.2389803 0.092296332 80
0.21672192 1.2218822 0.10914274 14
0.21340236 1.2263831 0.13092151 24
0.18765274 1.2612963 0.16357364 69
0.19324347 1.2572675 0.010541254 95
0.2078366 1.2373358 0.030354854 65
0.17336094 1.2844236 0.055779677 73
0.19702142 1.2521075 0.073365346 100
0.20224985 1.2449664 0.093234941 100
0.20090452 1.2468038 0.11486702 13
0.23456809 1.2008252 0.12327318 17
0.18594617 1.2672343 0.16512655 76
0.19015744 1.2649174 0.010680873 80
0.21056277 1.2368525 0.030250182 65
0.18327054 1.2743895 0.054559495 100
0.19395262 1.2596977 0.074340299 92
0.20963508 1.2381284 0.091670595 100
0.20248759 1.2479589 0.11486702 13
0.19100523 1.2637514 0.16357364 69
0.19188723 1.2661705 0.010680873 80
0.21219444 1.2380345 0.030250182 65
0.18736547 1.2724354 0.054210871 100
0.20611995 1.2464508 0.072146654 95
0.21820766 1.2297032 0.089793384 100
0.19841322 1.2571286 0.1167751 13
0.23978886 1.199802 0.12237337 17
0.19499215 1.2618686 0.16253836 70
0.20052406 1.2576032 0.010471444 96
0.21840236 1.2326586 0.029831495 66
0.19715825 1.2622993 0.05299069 100
0.20191976 1.2556559 0.073365346 93
0.21858317 1.2324064 0.090106249 100
0.21832958 1.2327602 0.11066922 14
0.23440444 1.2103319 0.12507279 16
0.20450297 1.2520517 0.15891489 73
0.20222825 1.2588202 0.010471444 96
0.20612544 1.2533424 0.031087559 63
0.19310382 1.2716453 0.053862248 100
0.21167254 1.2455454 0.071659178 80
0.21447358 1.2416084 0.091670595 100
0.21198013 1.2451131 0.11334054 20
0.2314246 1.2177824 0.12687239 16
0.19722846 1.2658477 0.163056 70
0.20393667 1.2600311 0.010471444 96
0.21587968 1.2431196 0.030354854 97
0.18796107 1.2826529 0.054908119 100
0.21333459 1.2467235 0.071659178 64
0.21612182 1.2427768 0.091670595 100
0.20797804 1.2543085 0.11524864 54
0.22961715 1.2236671 0.12822211 24
0.19896147 1.2670761 0.163056 70
0.20794499 1.2579613 0.010401634 83
0.22097254 1.2393767 0.03004084 66
0.19432735 1.2773876 0.054210871 100
0.21841908 1.2430193 0.070927955 65
0.22344354 1.2358516 0.090106249 100
0.20741683 1.2587147 0.11601187 99
0.22560975 1.2327614 0.13047162 56
0.2006987 1.2682984 0.163056 70
0.20279768 1.269001 0.010611063 81
0.22261298 1.2405224 0.03004084 66
0.20292827 1.2688133 0.053165004 100
0.21440336 1.2523212 0.072146654 79
0.22507167 1.2369887 0.090106249 96
0.20912486 1.2599075 0.11601187 99
0.22500104 1.2370901 0.13137141 78
0.20244023 1.2695147 0.163056 70
0.21363264 1.2570465 0.010331824 84
0.22425738 1.2416623 0.03004084 66
0.206936 1.2667429 0.05281638 100
0.22060135 1.2469561 0.071171694 97
0.22894886 1.2348692 0.089480512 100
0.21976238 1.2481709 0.11295892 89
0.23217058 1.2302042 0.1291219 88
0.20967507 1.2627769 0.1604678 72
0.21751145 1.2548609 0.010262015 98
0.22582325 1.2427399 0.03004084 99
0.20633161 1.2711642 0.053165004 100
0.21993947 1.2513201 0.071659178 80
0.22267205 1.2473352 0.091670595 100
0.22579107 1.2427868 0.11143246 100
0.22377956 1.2457201 0.13317102 93
0.2124036 1.2623094 0.15995017 72
0.21920595 1.2560184 0.010262015 84
0.23534188 1.2323108 0.029308135 68
0.2114462 1.2674195 0.05264207 100
0.22832322 1.242623 0.07019674 82
0.23212051 1.2370437 0.089480512 97
0.22633874 1.2455386 0.11181407 98
0.23421395 1.233968 0.12957181 96
0.2162981 1.2602909 0.15891489 73
0.21978509 1.2588272 0.010296919 42
0.21795139 1.2615417 0.031087559 31
0.20203176 1.2851081 0.054385185 76
0.22886375 1.2453878 0.070440479 98
0.23596427 1.2348768 0.088854775 100
0.22140682 1.2564266 0.11410378 100
0.23692626 1.2334527 0.1291219 96
0.20503482 1.2806625 0.16512655 83
0.21481195 1.2699425 0.010506349 40
0.21744478 1.2660156 0.031296901 31
0.21159852 1.2747355 0.053165004 52
0.22499785 1.25475 0.071659178 96
0.24198908 1.2294071 0.087603301 100
0.22201347 1.2592013 0.1144854 100
0.23854592 1.2345426 0.1291219 100
0.21112266 1.2754452 0.163056 86
0.22550648 1.2578477 0.01022711 42
0.22590181 1.2572533 0.03066887 32
0.21896794 1.2676778 0.052293446 53
0.23117435 1.2493265 0.070684217 81
0.24258092 1.2321777 0.087916173 98
0.23250711 1.2473228 0.11143246 100
0.23809212 1.2389262 0.13002171 96
0.21832708 1.2686412 0.1604678 72
0.22721136 1.2589774 0.01022711 28
0.1879929 1.3183875 0.03443706 27
0.21082839 1.2837951 0.053862248 51
0.23503667 1.2471231 0.07019674 82
0.2365782 1.2447879 0.090106249 100
0.24282795 1.2353206 0.10837951 87
0.2343629 1.2481438 0.13227122 100
0.22113395 1.2681837 0.15995017 72
0.23330352 1.2534103 0.010087491 28
0.21836635 1.2762107 0.031715591 30
0.20498112 1.2966421 0.055082429 50
0.24214324 1.2399173 0.068978049 100
0.23498991 1.2508361 0.091044858 95
0.23692304 1.2478855 0.11105084 84
0.2488488 1.2296817 0.12687239 99
0.22287494 1.2693286 0.15995017 72
0.2306329 1.2612189 0.01022711 28
0.22884467 1.2639694 0.030878214 31
0.22745571 1.2661058 0.051770512 54
0.23945731 1.2476461 0.069953002 99
0.24528414 1.2386838 0.08854191 84
0.23966321 1.2473295 0.11066922 85
0.24939302 1.2323639 0.1273223 97
0.21935487 1.2785656 0.16253836 70
0.23443246 1.2589151 0.0101573 42
0.25214657 1.2314702 0.028784776 34
0.22694167 1.2705207 0.052119136 54
0.23781344 1.2536769 0.070684217 65
0.25112498 1.233053 0.087290429 85
0.24231246 1.2467064 0.1102876 85
0.24987113 1.2349956 0.1277722 97
0.22942421 1.2666744 0.15839726 73
0.24045521 1.253278 0.010017681 43
0.2472958 1.2425982 0.029412808 67
0.23191464 1.2666121 0.051596198 54
0.24806911 1.2413908 0.068734311 67
0.25061229 1.2374203 0.087916173 84
0.24503723 1.2461243 0.10990598 85
0.24939394 1.2393224 0.128672 97
0.24053755 1.2531495 0.15373851 76
0.23999873 1.257731 0.010087491 57
0.24573323 1.2487087 0.029726824 100
0.23792508 1.2609934 0.050898954 55
0.24226254 1.2541692 0.070440479 49
0.25012645 1.2417967 0.08854191 84
0.25407293 1.2355876 0.10723466 81
0.2499887 1.2420135 0.1291219 88
0.23393571 1.2672698 0.15787962 65
0.24383664 1.2554272 0.010017681 87
0.2537989 1.2396319 0.029098792 100
0.23645225 1.2671354 0.051421888 82
0.2492494 1.2468452 0.069221787 67
0.25388277 1.239499 0.087916173 70
0.24941596 1.2465812 0.10952436 85
0.25891528 1.2315198 0.12597258 99
0.22948998 1.2781742 0.16098544 64
0.24977642 1.2497126 0.0098780617 73
0.25755918 1.2372769 0.028889447 100
0.23607552 1.2716045 0.051770512 81
0.25407508 1.242844 0.068490572 50
0.25761932 1.2371808 0.087290429 85
0.25733054 1.2376423 0.10723466 81
0.25949422 1.234185 0.12642249 99
0.23024091 1.2809274 0.16150309 63
0.24195832 1.2660468 0.010192205 85
0.25287014 1.2484752 0.029517479 100
0.23572618 1.2760825 0.052119136 81
0.25153849 1.2506196 0.069465525 49
0.26133609 1.2348423 0.086664692 57
0.24239329 1.2653463 0.11334054 96
0.26317242 1.2318852 0.12552269 99
0.24119866 1.2672701 0.15684435 66
0.25304866 1.251745 0.0098780617 73
0.25969854 1.2409569 0.028994121 100
0.25204265 1.2533771 0.049678773 86
0.25105062 1.2549864 0.069953002 49
0.26287916 1.2357969 0.086664692 71
0.26052043 1.2396235 0.10723466 73
0.26368308 1.2344928 0.12597258 82
0.24690413 1.2617133 0.15477379 67
0.26099217 1.2425431 0.0096686333 75
0.25613388 1.2504866 0.029517479 100
0.24437591 1.2697115 0.051247578 82
0.25481683 1.25264 0.069465525 49
0.2603842 1.2435372 0.087916173 70
0.25396678 1.25403 0.1102876 99
0.26530623 1.2354894 0.12597258 90
0.24459058 1.2693605 0.15684435 66
0.25123212 1.2623543 0.010052586 86
0.25677675 1.253217 0.029622151 100
0.2409541 1.2792919 0.052119136 100
0.25753316 1.2519704 0.069221787 33
0.26203892 1.2445452 0.087916173 56
0.265843 1.2382762 0.10647142 81
0.26996568 1.2314823 0.12462288 100
0.24232677 1.2770298 0.15891489 65
0.25088975 1.2668204 0.010122396 99
0.26361609 1.2456821 0.029098792 100
0.25198257 1.2650054 0.05055033 100
0.26024124 1.2512877 0.068978049 50
0.26981038 1.2353934 0.086038955 72
0.25330266 1.2628126 0.11181407 84
0.27358854 1.2291179 0.12372308 83
0.24808419 1.2714806 0.15684435 66
0.25262579 1.2678615 0.010122396 85
0.26732662 1.2432495 0.028889447 100
0.25371227 1.2660426 0.05055033 84
0.26192302 1.2522962 0.068978049 50
0.26839772 1.2414563 0.086977564 57
0.26509213 1.2469904 0.10799789 72
0.27819073 1.2250609 0.12237337 76
0.25672752 1.2609944 -0.0099827768 86
0.24983653 1.2725313 0.15684435 66
0.26252091 1.2551339 0.0098431576 88
0.2669439 1.2476698 0.029098792 100
0.2595084 1.2602175 0.049853086 85
0.26563227 1.2498833 0.068490572 50
0.27810138 1.2288411 0.084474608 59
0.26475716 1.2513601 0.10876112 79
0.27878737 1.2276834 0.12282328 85
0.25356221 1.270252 0.15580906 67
0.26632717 1.2527361 0.0097733475 89
0.26667279 1.252148 0.029308135 100
0.2542412 1.2733033 0.051073264 83
0.26839873 1.2492108 0.068246834 34
0.27077779 1.2451624 0.087290429 57
0.26652336 1.2524023 0.10876112 79
0.27651751 1.235395 0.12462288 83
0.2612702 1.2613418 0.15270324 68
0.27607071 1.2399027 0.0094941091 92
0.27841619 1.2358793 0.028261416 100
0.25901008 1.2691689 0.05055033 84
0.27107295 1.248476 0.068003096 51
0.27542263 1.2410145 0.086351827 58
0.26919773 1.2516928 0.10837951 87
0.28501371 1.2245618 0.12147357 86
0.25909534 1.2690226 0.15477379 67
0.26861826 1.2563868 0.0098082526 74
0.27396175 1.2471502 0.028889447 100
0.260667 1.2701311 0.05055033 84
0.27464926 1.2459618 0.067515619 51
0.28094283 1.2350829 0.085100345 58
0.27079663 1.2526213 0.10837951 79
0.28554672 1.2271248 0.12192347 85
0.26561418 1.2615795 -0.0099129668 87
0.25301269 1.283362 0.15891489 65
0.27031776 1.2573659 0.0098082526 74
0.27761722 1.2446462 0.028680105 100
0.2713396 1.2555854 0.048981529 87
0.27631235 1.24692 0.067515619 51
0.2835511 1.234306 0.084787481 59
0.2685743 1.2604041 0.10990598 92
0.28811392 1.226355 0.12147357 77
0.26733184 1.2625692 -0.0099129668 87
0.26826805 1.2609378 0.15166797 69
0.2759777 1.2513878 0.0096686333 75
0.27532351 1.2525371 0.029098792 100
0.26416558 1.2721388 0.05055033 84
0.26815853 1.2651242 0.069953002 49
0.28517348 1.2352333 0.084787481 59
0.28097129 1.2426155 0.10570818 73
0.28874445 1.2289599 0.12192347 76
0.26905295 1.2635529 -0.0099129668 87
0.26998347 1.2619182 0.15166797 69
0.28060925 1.2471175 0.0095639192 91
0.27897352 1.2500145 0.028889447 100
0.26787931 1.2696636 0.050201707 100
0.26891255 1.2678336 0.07019674 66
0.28777027 1.2344347 0.084474608 59
0.27779636 1.2520995 0.10761628 79
0.28843188 1.2332629 0.12282328 85
0.27075246 1.2645749 0.1521856 77
0.2764138 1.2585233 0.0097733475 89
0.28260252 1.2474725 0.028680105 100
0.27059868 1.268907 0.050027397 85
0.27744174 1.2566878 0.068490572 50
0.28649741 1.2405177 0.085413218 73
0.27564371 1.2598984 0.10914274 92
0.29100275 1.2324729 0.12237337 93
0.27055123 1.2689917 -0.0099827768 86
0.27342451 1.2638612 0.15166797 69
0.27520773 1.2647197 0.0098780617 73
0.28427085 1.2484031 0.028680105 100
0.2646023 1.2838131 0.051421888 82
0.2704671 1.2732544 0.070684217 81
0.29101899 1.2362541 0.084474608 59
0.28784177 1.2419741 0.10494494 75
0.29924244 1.221449 0.11922406 87
0.27229473 1.2699641 -0.0099827768 86
0.26952174 1.2749565 0.15477379 67
0.27404162 1.2709304 0.0099827768 87
0.28208756 1.2563251 0.029098792 100
0.27601123 1.2673552 0.049678773 86
0.2789304 1.2620561 0.068978049 50
0.29550758 1.2319646 0.083536007 60
0.28285971 1.2549235 0.10761628 87
0.295178 1.2325629 0.12192347 76
0.2779012 1.2639244 -0.0098431576 87
0.2750147 1.2691641 0.15270324 76
0.28442082 1.2560968 0.0096686333 75
0.28378677 1.2572573 0.029098792 100
0.27870426 1.2665601 0.049504463 86
0.2844567 1.2560312 0.068003096 51
0.29617456 1.2345836 0.083848871 59
0.28549534 1.2541301 0.10723466 81
0.29679421 1.2334495 0.12192347 85
0.27490631 1.2735116 0.15373851 68
0.29374033 1.2429554 0.0093893949 77
0.28358629 1.2616957 0.029308135 100
0.28138837 1.2657523 0.049330149 87
0.28993762 1.2499738 0.067028143 51
0.29685676 1.2372037 0.084161744 59
0.29186329 1.2464197 0.10532656 82
0.27850619 1.2710717 0.15270324 76
0.29160684 1.2508931 0.0095290141 92
0.29097632 1.2520666 0.028680105 100
0.28312051 1.2666869 0.049330149 87
0.28973547 1.2543759 0.067515619 51
0.29445711 1.2455884 0.10494494 82
0.27934253 1.2737181 0.15322088 76
0.29046601 1.2570865 0.0096337283 90
0.27829757 1.2799239 0.05055033 56
0.29329479 1.2517776 0.067028143 51
0.29057956 1.2568734 0.10723466 73
0.28482398 1.2676754 -0.0098431576 87
0.27837718 1.2797745 0.15477379 67
0.2902995 1.2615256 0.0097035384 90
0.29621413 1.2503313 0.02847076 100
0.29310986 1.2562066 0.048109971 59
0.29868746 1.2456501 0.066053182 52
0.29228064 1.257776 0.10723466 73
0.2902995 1.2615256 -0.0097035384 89
0.28918308 1.2636386 0.14959741 70
0.2960386 1.2547525 0.028680105 100
0.2966578 1.2535707 0.047761347 90
0.29666445 1.2535579 0.067028143 51
0.28459284 1.2765999 -0.0099827768 96
0.29270083 1.2611237 0.14856213 79
0.29957363 1.2520913 0.02847076 100
0.29835391 1.2544394 0.067028143 51
0.28636283 1.2775232 -0.0099827768 96
0.29441673 1.2620188 0.14856213 71
0.29074171 1.2729497 0.049504463 57
0.29987708 1.2552276 0.067028143 51
0.29153797 1.271405 0.15115032 77
0.2988348 1.2614542 0.0096337283 100
0.29249892 1.2738516 0.049504463 57
0.29246467 1.2739186 -0.0098780617 100
0.29065236 1.2774647 0.15270324 76
0.29512906 1.2730308 -0.0098431576 100
0.2994104 1.2645807 0.14856213 79
0.2987349 1.2702374 0.068734311 67
0.29509139 1.2774912 -0.0099129668 100
0.29686442 1.2783779 -0.0099129668 100
0.29605287 1.2845011 0.15373851 76
