# .PCD v0.7 - Point Cloud Data file format
VERSION 0.7
FIELDS x y z intensity
SIZE 4 4 4 4
TYPE F F F F
COUNT 1 1 1 1
WIDTH 735
HEIGHT 1
VIEWPOINT 0 0 0 1 0 0 0
POINTS 735
DATA ascii
-1.096218 0.1503581 0.057988241 26
-1.1841512 0.16663235 0.020873077 25
-1.1589751 0.16308962 0.061337739 30
-1.1796039 0.17019367 0.020803269 33
-1.0444856 0.15442248 0.018429741 6
-1.0123056 0.15327755 0.017871264 4
-1.0255693 0.15913311 0.018115599 1
0.056207716 0.0081718564 0.015846785 62
0.04821533 0.0075566173 0.047835063 20
0.042245507 0.004319191 0.048149079 100
0.038733542 0.0042570829 0.048253752 70
0.033700109 0.0028222203 0.048463095 34
0.029770553 0.0030667782 0.048567768 25
0.033726513 0.01487118 0.047939736 18
0.030356169 0.014760971 0.04804441 9
0.032144129 0.023235559 0.047625721 9
0.0084159374 0.00083148479 0.049300469 7
0.012932122 0.012313306 0.048672438 8
-1.0409486 1.1326228 0.028482327 2
-1.0253789 1.1290741 0.084679574 5
-1.0409636 1.1326263 0.14276111 6
-1.028048 1.1351914 0.028272899 8
-0.99888378 1.1284423 0.083318844 11
-1.0242238 1.1343064 0.14136662 17
-1.0014577 1.1347482 0.027819136 17
-0.99762315 1.1338468 0.083318844 75
-1.0268214 1.1407113 0.14171524 61
-1.00212 1.1406261 0.02785404 38
-0.99828631 1.1397107 0.083423518 100
-1.0138903 1.1434367 0.14066938 100
-0.97943968 1.1408582 0.027470088 45
-0.99116331 1.143701 0.083109498 100
-0.99902338 1.1456068 0.13944919 91
-0.98007745 1.1466727 0.027504992 31
-0.99760693 1.150988 0.083528183 100
-0.98996431 1.1491065 0.13875194 91
-0.97487324 1.1510417 0.027435184 23
-0.97689074 1.1515459 0.082481466 70
-0.99829632 1.1568948 0.13962349 79
-0.97547227 1.1568538 0.027470088 31
-0.9774856 1.1573644 0.082586139 38
-0.99693638 1.162297 0.13962349 69
-0.9721759 1.1616781 0.027435184 48
-0.9780584 1.1631917 0.082690813 39
-0.97819179 1.163226 0.1380547 89
-0.9611252 1.1644636 0.027260659 66
-0.96701413 1.1660008 0.082167454 94
-0.97295433 1.1675515 0.13770607 92
-0.94814056 1.1666651 0.027051231 74
-0.9791376 1.1748723 0.082900152 97
-0.97540933 1.1738851 0.1380547 99
-0.95454234 1.1737039 0.027190849 83
-0.95463842 1.1737297 0.081644088 96
-0.97213727 1.178425 0.13788038 100
-0.95891267 1.1805282 0.027295563 92
-0.94358391 1.1763576 0.081120729 100
-0.97646993 1.1853049 0.13840333 99
-0.95361513 1.1847293 0.027225753 93
-0.94408172 1.1820998 0.081225403 100
-0.96540755 1.187982 0.13753176 94
-0.9406032 1.1867448 0.027016325 92
-0.94455761 1.1878504 0.081330076 90
-0.95626408 1.1911232 0.13683452 94
-0.93913943 1.1919454 0.027016325 88
-0.9430899 1.1930648 0.081330076 80
-0.95095104 1.1952922 0.13648589 100
-0.95687789 1.2026596 0.027365373 55
-0.92624646 1.1938646 0.080492698 54
-0.95328742 1.2016287 0.13683452 100
-0.94575793 1.2051241 0.027190849 42
-0.91900462 1.1973414 0.080178685 22
-0.95942396 1.2090995 0.13753176 89
-0.93655735 1.2080815 0.027051231 63
-0.92516726 1.2047249 0.080597371 26
-0.94450408 1.2104234 0.13631158 84
-0.91968983 1.2086922 0.026771991 74
-0.92172688 1.2093003 0.080492698 28
-0.93150264 1.2122183 0.13526571 92
-0.91432136 1.2126625 0.026702182 75
-0.92974359 1.2173246 0.081016064 58
-0.93376428 1.2185401 0.13561434 99
-0.91475755 1.2181009 0.026737086 81
-0.91297299 1.2175549 0.080178685 100
-0.92464787 1.2211266 0.1349171 99
-0.91318446 1.2232111 0.026737086 88
-0.90567833 1.2208861 0.079864666 97
-0.92687052 1.2274503 0.13526571 84
-0.9115935 1.2283158 0.026737086 81
-0.91171855 1.2283551 0.080283359 74
-0.92146248 1.2314104 0.1349171 54
-0.8985489 1.2297851 0.026527658 81
-0.9101097 1.2334546 0.080283359 68
-0.90465075 1.2317219 0.1335226 46
-0.89701623 1.2345861 0.026527658 88
-0.91046649 1.2389045 0.080388032 78
-0.90311152 1.2365431 0.1335226 46
-0.88397473 1.2359266 0.02631823 89
-0.8955242 1.2396793 0.079655327 100
-0.91094857 1.2446909 0.13439415 49
-0.88985568 1.2436789 0.026457848 100
-0.89189583 1.2443501 0.079550654 100
-0.91676933 1.252533 0.13509139 71
-0.88819343 1.248702 0.026457848 100
-0.88644117 1.2481189 0.079341307 100
-0.90751439 1.255133 0.13439415 82
-0.88280755 1.252193 0.026388038 93
-0.89431244 1.2560649 0.079864666 100
-0.88701433 1.2536087 0.13265105 84
-0.86975759 1.2533249 0.02617861 96
-0.89449769 1.2617471 0.079969339 100
-0.89663404 1.2624744 0.13369691 87
-0.8718434 1.2595799 0.02624842 99
-0.87577635 1.2609341 0.079027295 100
-0.89302236 1.2668724 0.1335226 100
-0.87012571 1.2645401 0.02624842 81
-0.86085087 1.2613102 0.07829459 100
-0.9100948 1.2784588 0.13526571 82
-0.87207574 1.271071 0.02631823 77
-0.86469191 1.2684692 0.07860861 70
-0.9007048 1.2811584 0.13456847 40
-0.86089939 1.2726762 0.026143705 88
-0.85541767 1.2707231 0.078189917 29
-0.88765067 1.2822071 0.1335226 39
-0.8535803 1.2753201 0.026038991 96
-0.86690372 1.2801168 0.078922622 23
-0.87469667 1.2829223 0.13247673 30
-0.85180789 1.2802163 0.026038991 96
-0.85197681 1.2802777 0.078189917 63
-0.88225871 1.2912996 0.13334829 18
-0.85377175 1.2864873 0.0261088 100
-0.85206145 1.2858582 0.07829459 100
-0.87295097 1.2935441 0.13265105 13
-0.85205132 1.2911396 0.0261088 100
-0.8409825 1.2870255 0.077771232 100
-0.87307447 1.298954 0.13282534 1
-0.83533877 1.2901628 0.025829561 100
-0.83365089 1.2895291 0.077457212 48
-0.87131268 1.3036702 0.13282534 1
-0.83360618 1.2947538 0.025829561 89
-0.83939034 1.2969476 0.077875905 53
-0.83786565 1.2963693 0.12986206 7
-0.82607228 1.2976736 0.025724847 72
-0.83744961 1.3020364 0.077875905 57
-0.8694126 1.314293 0.13299966 37
-0.83923274 1.3080112 0.026004085 72
-0.83381528 1.3059132 0.077771232 76
-0.85273641 1.3132408 0.13160518 86
-0.83352739 1.3116415 0.025934275 88
-0.82068282 1.3066128 0.0771432 65
-0.84702533 1.3169258 0.13125655 97
-0.82242531 1.3125505 0.025759751 99
-0.82818276 1.3148266 0.077666558 76
-0.82852823 1.3149631 0.12968774 99
-0.81299978 1.3146092 0.025620133 100
-0.82988602 1.3213563 0.077875905 91
-0.82097107 1.3177943 0.12916481 95
-0.81489521 1.3206223 0.025689943 100
-0.81693679 1.3214459 0.077247873 95
-0.83762401 1.3297915 0.13090792 100
-0.81296486 1.3253834 0.025689943 100
-0.81500357 1.3262141 0.077247873 100
-0.83381647 1.3338799 0.13073361 100
-0.79381996 1.3175821 0.17817298 22
-0.81111568 1.3299 0.025689943 100
-0.80761033 1.3284581 0.076933853 100
-0.8135131 1.3308862 0.1289905 100
-0.80117589 1.3258113 0.17939167 17
-0.7977795 1.3307505 0.025480513 100
-0.80351359 1.3331361 0.07682918 100
-0.80757159 1.3348246 0.12864187 100
-0.78060597 1.3236053 0.17695428 16
-0.79222518 1.3336682 0.025410704 100
-0.79611427 1.3353014 0.076515168 99
-0.80936497 1.3408661 0.1289905 100
-0.7805931 1.3287833 0.17719802 20
-0.79403085 1.3396769 0.025480513 100
-0.79791003 1.3413211 0.076724514 94
-0.80563003 1.3445933 0.12881619 100
-0.76776665 1.3285446 0.17573559 18
-0.81419688 1.3535686 0.025899371 67
-0.79784435 1.3465734 0.07682918 42
-0.80554897 1.3498693 0.1289905 56
-0.77138251 1.3352536 0.17646681 11
-0.8248983 1.3641171 0.026143705 71
-0.81222278 1.3586397 0.077771232 68
-0.82536191 1.3643174 0.13108224 28
-0.77476865 1.3424551 0.17719802 11
-0.80459052 1.3606801 0.025794657 100
-0.80843252 1.3623555 0.077666558 100
-0.80512041 1.3609113 0.12933913 93
-0.80015725 1.358747 0.18085411 24
-0.78960603 1.3599989 0.025550323 100
-0.80990797 1.3689405 0.077875905 100
-0.82300264 1.3747077 0.13125655 100
-0.78890687 1.359691 0.17963541 38
-0.78764218 1.3644381 0.025550323 100
-0.8024388 1.3710136 0.077561885 100
-0.81006557 1.3744028 0.13021068 100
-0.76336151 1.3536479 0.17646681 33
-0.80187398 1.3767056 0.025864467 100
-0.79840475 1.3751488 0.077457212 100
-0.81147665 1.3810152 0.1305593 100
-0.7612136 1.3584577 0.17646681 20
-0.7962113 1.3795357 0.025794657 100
-0.79821008 1.3804407 0.077561885 100
-0.80218285 1.3822395 0.12986206 100
-0.76467997 1.3652589 0.17719802 16
-0.79567939 1.385532 0.025829561 100
-0.81220263 1.39309 0.078503937 100
-0.79619843 1.3857694 0.12951343 100
-0.78585237 1.381037 0.18036664 15
-0.7918151 1.3891532 0.025794657 100
-0.81375593 1.3992774 0.078713275 100
-0.80500358 1.3952389 0.1305593 100
-0.77120155 1.3796415 0.17866045 12
-0.7859115 1.3923781 0.025724847 100
-0.80600899 1.4017413 0.078399263 100
-0.80992693 1.4035665 0.13125655 100
-0.76895827 1.3844799 0.17866045 10
-0.79650909 1.4027581 0.025969181 100
-0.80209905 1.405385 0.07829459 100
-0.80781847 1.4080727 0.13125655 100
-0.75793022 1.384629 0.17744176 7
-0.80332631 1.4117384 0.026143705 100
-0.79987293 1.4101008 0.07829459 100
-0.79838187 1.4093938 0.1305593 100
-0.78675884 1.4093205 0.025864467 100
-0.80675179 1.4188824 0.078817949 100
-0.80164641 1.4164405 0.13108224 100
-0.78992206 1.41659 0.025969181 100
-0.81347245 1.4279544 0.079341307 100
-0.80117601 1.4220207 0.13125655 100
-0.79496282 1.4245299 0.0261088 100
-0.79691595 1.4254804 0.078503937 100
-0.81333846 1.4334724 0.13265105 100
-0.79614455 1.4312183 0.02617861 100
-0.79629713 1.4312932 0.07860861 100
-0.81447417 1.4402218 0.13299966 100
-0.80469602 1.441004 0.026388038 100
-0.79946595 1.4384136 0.078922622 100
-0.80510265 1.4412055 0.13230242 100
-0.78791827 1.4388117 0.0261088 100
-0.80415303 1.4469273 0.079341307 100
-0.8061977 1.4479494 0.13265105 100
-0.78926438 1.4450448 0.02617861 100
-0.80903488 1.4550099 0.07976 100
-0.80216295 1.4515462 0.13247673 100
-0.78678125 1.4499489 0.02617861 100
-0.79939419 1.4563644 0.079341307 100
-0.81386274 1.4637239 0.13387123 100
-0.79875392 1.4616781 0.026457848 100
-0.79711074 1.4608355 0.079341307 100
-0.82219189 1.4736978 0.1349171 100
-0.79988366 1.4682194 0.026527658 100
-0.79823905 1.4673687 0.079550654 100
-0.80910915 1.4729912 0.13387123 100
-0.78692228 1.4671444 0.02631823 100
-0.79946095 1.4736828 0.07976 100
-0.79793733 1.4728882 0.13299966 100
-0.78435808 1.4720397 0.02631823 100
-0.80217546 1.4814138 0.080074012 100
-0.80593151 1.4833901 0.13404553 100
-0.7855559 1.4783347 0.026388038 41
-0.7909866 1.4812149 0.079550654 44
-0.80179828 1.4869491 0.13387123 84
0.1406194 1.2798953 0.011413874 12
0.13736698 1.2839463 0.03454173 27
0.098457694 1.3324089 0.063100755 19
0.13333029 1.288974 0.1293685 17
0.18887189 1.2197955 0.13317102 7
0.13757613 1.2836858 0.1765146 6
0.15228653 1.2687424 0.011134636 37
0.15526155 1.2650117 0.033180997 57
0.16119277 1.2575737 0.054559495 50
0.13662621 1.2883809 0.081408724 13
0.16328117 1.2549549 0.098240845 12
0.14484581 1.2780733 0.12631555 58
0.18915048 1.2225142 0.13362093 15
0.1573486 1.2623944 0.16875002 14
0.16023633 1.2622887 0.010960111 100
0.1644305 1.2569911 0.032552965 88
0.15052959 1.2745488 0.056302611 96
0.16677931 1.2540246 0.075802729 30
0.15761918 1.2655942 0.10011806 24
0.16246444 1.2594745 0.12135452 100
0.17500672 1.243633 0.13946965 29
0.15067557 1.2743642 0.17237349 42
0.16187096 1.2635784 0.010960111 100
0.17098585 1.2519872 0.032134276 100
0.15097338 1.2774367 0.056476921 100
0.17697585 1.2443697 0.07409656 30
0.16659108 1.257576 0.098240845 24
0.17137104 1.2514973 0.11906482 100
0.18260232 1.2372147 0.13722014 45
0.15473858 1.2726486 0.1713382 43
0.16737354 1.2602684 0.010855397 100
0.18012783 1.243926 0.031506244 93
0.14793265 1.2851785 0.057174169 100
0.16894642 1.2582531 0.076046467 29
0.17810348 1.2465199 0.095737889 38
0.17434627 1.2513342 0.1186832 100
0.190312 1.2308768 0.13497064 30
0.14350927 1.2908463 0.17703223 34
0.17022651 1.2599541 0.010820492 91
0.17191279 1.2577785 0.032343622 60
0.15818745 1.275486 0.055953987 97
0.16813534 1.2626519 0.076533951 14
0.17968574 1.2477505 0.095737889 25
0.17113349 1.2587839 0.12020966 57
0.19064847 1.2336073 0.13542053 30
0.14760572 1.2891376 0.17599694 27
0.17315865 1.259692 0.010785587 65
0.16996357 1.2638439 0.032657638 59
0.17332035 1.2594819 0.054036561 51
0.17954251 1.2513964 0.074584037 61
0.18376508 1.2459092 0.095112152 38
0.18481523 1.2445446 0.11639348 13
0.17206484 1.2611133 0.14306886 21
0.14824215 1.2920702 0.1765146 55
0.1747846 1.2609389 0.010785587 52
0.16190082 1.2777963 0.033495013 28
0.16768649 1.2702262 0.055082429 50
0.18355176 1.2494678 0.07409656 76
0.18894383 1.2424127 0.094173551 52
0.19473603 1.2348341 0.11372216 20
0.19736248 1.2313976 0.13407083 31
0.1640527 1.2749808 0.17030293 58
0.18142033 1.2559379 0.010645968 53
0.15169474 1.2951283 0.03454173 27
0.17193055 1.2684493 0.054733805 50
0.18891045 1.2460629 0.073365346 62
0.19306526 1.2405851 0.093547814 52
0.19169638 1.2423899 0.11524864 13
0.20494428 1.2249238 0.13182132 47
0.17641327 1.2625393 0.16564418 68
0.17581478 1.2667409 0.010855397 39
0.17026216 1.2741122 0.033076324 29
0.17358556 1.2697003 0.054733805 50
0.18690798 1.2520144 0.07409656 76
0.19819334 1.2370328 0.092609204 53
0.19562733 1.2404392 0.1144854 13
0.21231729 1.2182828 0.12957181 32
0.17107454 1.2730336 0.16875002 66
0.18961099 1.2520927 0.010506349 54
0.20559609 1.2307094 0.030145511 32
0.17541957 1.2710766 0.054733805 50
0.19818559 1.2406224 0.072146654 79
0.20109022 1.2367369 0.092296332 53
0.20675784 1.2291553 0.11143246 14
0.211629 1.2226391 0.13047162 40
0.17986092 1.2651354 0.16564418 68
0.19001967 1.2548907 0.010541254 81
0.20236361 1.2382635 0.030564198 32
0.1818338 1.2659171 0.054036561 51
0.19501504 1.248162 0.073121607 78
0.20028493 1.2410635 0.092922069 66
0.20828235 1.230291 0.11143246 14
0.21545511 1.2206293 0.12957181 32
0.18611106 1.2601556 0.16357364 69
0.19408718 1.2529248 0.010471444 82
0.2051852 1.2378664 0.030459527 65
0.18120304 1.2704068 0.054385185 76
0.19904172 1.2462022 0.072634131 63
0.2054472 1.2375108 0.091983467 93
0.20290262 1.2409635 0.11372216 13
0.21009326 1.2312068 0.13227122 23
0.18667811 1.262978 0.16409127 69
0.18869057 1.2638476 0.010680873 80
0.20446181 1.242291 0.03066887 64
0.18883422 1.2636513 0.053513627 100
0.2042225 1.2426181 0.071902916 48
0.20008287 1.2482762 0.093860678 91
0.21034485 1.2342498 0.11181407 14
0.23011583 1.2072264 0.12507279 16
0.18840113 1.2642431 0.16409127 69
0.19990167 1.2522229 0.010401634 83
0.2050218 1.2451705 0.030773543 64
0.18362275 1.2746453 0.054559495 100
0.20712331 1.2422758 0.071659178 64
0.20415929 1.2463585 0.093234941 92
0.21550894 1.2307255 0.11066922 14
0.22714093 1.2147037 0.12687239 16
0.18908009 1.2671285 0.16460891 69
0.19223371 1.2664204 0.010680873 93
0.21368903 1.23665 0.030145511 98
0.19237593 1.266223 0.053513627 100
0.20645267 1.2466908 0.072146654 95
0.21390885 1.2363448 0.091044858 100
0.20678842 1.2462249 0.11410378 13
0.24464652 1.1936947 0.12057377 17
0.19307661 1.2652508 0.16357364 69
0.20551971 1.2513424 0.010331824 98
0.20942649 1.2458835 0.03066887 96
0.19402343 1.2674062 0.053513627 100
0.19301662 1.268813 0.075315252 100
0.21430752 1.2390633 0.09135773 100
0.21636757 1.2361847 0.11143246 14
0.23017541 1.2168911 0.12687239 16
0.19696948 1.2632897 0.16253836 70
0.20720202 1.252542 0.010331824 98
0.20414957 1.2568388 0.031296901 94
0.1980696 1.2653973 0.053165004 100
0.21200463 1.2457815 0.071659178 80
0.20908281 1.2498944 0.093234941 100
0.20776391 1.2517509 0.11486702 20
0.22496575 1.2275367 0.12957181 16
0.19869354 1.264519 0.16253836 78
0.20658368 1.2570041 0.010401634 97
0.21045506 1.251514 0.030878214 95
0.19520822 1.2731358 0.053862248 100
0.21366748 1.2469585 0.071659178 64
0.21645197 1.2430097 0.091670595 100
0.20265922 1.2625694 0.11715672 53
0.23442611 1.2175204 0.12642249 24
0.20153517 1.2641635 0.16202073 70
0.20369896 1.2647529 0.010541254 95
0.22702676 1.2314249 0.029517479 100
0.19125414 1.2825325 0.054733805 100
0.21078116 1.2546347 0.072634131 78
0.21810511 1.2441711 0.091670595 100
0.20100334 1.268604 0.11830158 97
0.2304028 1.2266017 0.128672 56
0.19661552 1.2748728 0.16512655 68
0.20534152 1.2658986 0.010541254 95
0.2217195 1.2423337 0.030145511 98
0.19864115 1.2755392 0.053862248 100
0.21692181 1.2492367 0.071659178 80
0.22531623 1.2371588 0.090106249 96
0.2172246 1.248801 0.11334054 96
0.22969434 1.2308594 0.12957181 80
0.20490688 1.266524 0.16202073 70
0.21615875 1.2539304 0.010262015 84
0.21543133 1.2549849 0.030878214 95
0.20380205 1.2718425 0.053339314 100
0.21408778 1.2569325 0.072634131 63
0.22919229 1.2350372 0.089480512 97
0.21666831 1.2531917 0.11410378 96
0.22687867 1.238391 0.13137141 86
0.2154181 1.255004 0.15787962 73
0.21559048 1.2583928 0.010331824 98
0.22389662 1.246262 0.030250182 65
0.21343535 1.2615402 0.052119136 100
0.21242499 1.2630159 0.073365346 100
0.22412139 1.2459337 0.09135773 94
0.22612122 1.243013 0.11143246 91
0.22631368 1.2427319 0.13227122 94
0.2127474 1.262545 0.15995017 72
0.21842134 1.2579032 0.010296919 84
0.2356647 1.2325304 0.029308135 68
0.20843387 1.2725992 0.053165004 100
0.22419009 1.2494147 0.071171694 81
0.22578469 1.2470683 0.09135773 94
0.22887784 1.2425169 0.11105084 91
0.23453793 1.2341883 0.12957181 96
0.20795357 1.273306 0.163056 70
0.21789002 1.2623733 0.010366729 41
0.24733281 1.2187226 0.028366089 35
0.20907623 1.2754402 0.053339314 52
0.21587509 1.2653606 0.073365346 100
0.23076582 1.2432842 0.090419121 100
0.2228443 1.2550282 0.11372216 100
0.23942935 1.2304399 0.12822211 97
0.21187308 1.2712938 0.16202073 70
0.21071136 1.2768233 0.010645968 40
0.22667968 1.2529701 0.030459527 32
0.22081783 1.2617264 0.051770512 54
0.21760628 1.2665238 0.073365346 100
0.23351872 1.2427541 0.090106249 96
0.22453937 1.2561673 0.11372216 100
0.24320662 1.2282825 0.1273223 97
0.22007307 1.262839 0.15891489 81
0.21912226 1.2680111 0.010436539 41
0.20847273 1.2840399 0.032343622 30
0.21702343 1.27117 0.05264207 53
0.22922829 1.2528002 0.071171694 65
0.24391612 1.2306933 0.087603301 99
0.23601642 1.2425833 0.1102876 92
0.23618087 1.2423358 0.13092151 96
0.22393355 1.2607695 0.15787962 73
0.21205631 1.2825185 0.010715778 39
0.22786039 1.2585504 0.03066887 32
0.22645226 1.2606859 0.051421888 55
0.23310104 1.2506025 0.070684217 65
0.23900166 1.2416537 0.089480512 97
0.24199089 1.2371203 0.10876112 87
0.24319527 1.2352939 0.128672 89
0.2224583 1.2667431 0.15943253 73
0.22251976 1.2702518 0.010436539 27
0.21197957 1.2863526 0.032343622 30
0.22698998 1.2634231 0.051596198 54
0.22708574 1.2632768 0.072390392 100
0.23840356 1.2459879 0.090106249 96
0.23063812 1.2578503 0.11334054 100
0.24580726 1.2346783 0.12822211 97
0.22199118 1.2710592 0.1604678 72
0.23516202 1.2546228 0.010087491 43
0.23336944 1.257382 0.030459527 32
0.22545803 1.2695599 0.052119136 54
0.24070552 1.2460898 0.069709264 99
0.24760008 1.2354772 0.087916173 84
0.23769075 1.2507304 0.11143246 91
0.25061607 1.2308347 0.12687239 90
0.2195324 1.278681 0.16253836 70
0.23243546 1.2623862 0.01022711 42
0.24364755 1.2450018 0.029622151 33
0.23251581 1.2622616 0.051247578 55
0.24121004 1.2487811 0.069953002 66
0.25556925 1.2265171 0.086038955 87
0.2488634 1.2369145 0.10799789 87
0.24792102 1.2383757 0.128672 97
0.23273882 1.2619158 0.15684435 74
0.23846799 1.2567546 0.010087491 57
0.25069073 1.2376571 0.029098792 68
0.22993997 1.2700793 0.051944822 54
0.24502337 1.2465121 0.069465525 49
0.24864575 1.2408524 0.08854191 70
0.24520347 1.2462307 0.10990598 85
0.25375977 1.2328619 0.12687239 90
0.23549923 1.2613931 0.1563267 74
0.24231315 1.254463 0.010017681 72
0.24590033 1.2488148 0.029726824 100
0.23809648 1.2611023 0.050898954 55
0.23711032 1.262655 0.071659178 80
0.24817309 1.2452364 0.089167647 56
0.24581513 1.2489491 0.1102876 99
0.25328776 1.2371831 0.1277722 97
0.2320379 1.2706418 0.15891489 65
0.24827084 1.2487671 0.0098780617 73
0.24970332 1.2464941 0.029517479 100
0.23131436 1.2756727 0.052293446 80
0.24412391 1.2553473 0.070440479 98
0.25194022 1.2429447 0.08854191 56
0.25272259 1.2417033 0.10837951 87
0.25699836 1.2349187 0.12687239 90
0.23378742 1.2717485 0.15891489 65
0.23942789 1.2668263 0.01022711 70
0.25568652 1.2408172 0.029098792 100
0.2300016 1.2819057 0.05281638 79
0.24906152 1.2514153 0.069709264 66
0.25995815 1.2339838 0.086664692 71
0.23884362 1.267761 0.11410378 96
0.26593509 1.2244225 0.12372308 83
0.23153248 1.2794566 0.16098544 64
0.24538022 1.2611099 0.010087491 71
0.25522622 1.2452362 0.029308135 100
0.2338908 1.2796333 0.052467756 80
0.25179017 1.2507758 0.069465525 49
0.26366198 1.231636 0.086038955 58
0.25300109 1.2488236 0.10952436 71
0.26649585 1.2270672 0.12417299 100
0.24854237 1.256012 -0.0099827768 86
0.24349564 1.2641484 0.15580906 67
0.25233692 1.2536552 0.0099129668 87
0.25898057 1.2428603 0.029098792 100
0.24611449 1.2637657 0.05072464 84
0.24930838 1.2585762 0.070440479 49
0.25906295 1.2427266 0.087916173 56
0.25879034 1.2431695 0.10799789 87
0.26298603 1.2363522 0.12642249 99
0.24420986 1.2668605 0.1563267 74
0.2570698 1.2495203 0.0098082526 74
0.26055023 1.2438228 0.029098792 100
0.24983084 1.2613702 0.05037602 84
0.24886054 1.2629586 0.070927955 97
0.26475129 1.2369459 0.086664692 57
0.2583141 1.2474834 0.10876112 87
0.26453409 1.2373013 0.12642249 99
0.24888045 1.262926 0.15477379 67
0.25762475 1.2521989 0.0098431576 88
0.26005203 1.2481958 0.029308135 100
0.24836293 1.2674739 0.050898954 83
0.25873065 1.250375 0.068978049 50
0.2663013 1.2378892 0.086664692 57
0.2639707 1.241733 0.10723466 81
0.27618903 1.2215819 0.12192347 85
0.24450701 1.2738333 0.15787962 65
0.25716317 1.2565925 0.0099129668 87
0.26369908 1.2457321 0.029098792 100
0.24282283 1.2804211 0.052119136 81
0.25827807 1.25474 0.069465525 49
0.27294731 1.2303648 0.085100345 58
0.25642565 1.257818 0.11066922 78
0.27969772 1.2191479 0.12102367 86
0.24418721 1.2781541 0.15891489 65
0.25484926 1.264531 0.010052586 86
0.26339751 1.2502084 0.029308135 100
0.25286436 1.2678568 0.05072464 84
0.26005667 1.255806 0.069465525 49
0.27564886 1.2296809 0.084787481 59
0.25419095 1.2656341 0.11219569 91
0.27934831 1.2234824 0.12192347 85
0.2539722 1.2660006 0.15477379 67
0.26260558 1.2551841 0.0098431576 88
0.25888419 1.2614665 0.029936166 99
0.25959396 1.2602682 0.049853086 85
0.26369265 1.2533488 0.068978049 50
0.27516127 1.2339873 0.085413218 58
0.27284566 1.2378966 0.10570818 73
0.27787411 1.2294074 0.12327318 85
0.26056734 1.258625 -0.0099129668 87
0.25955683 1.2603309 0.15270324 68
0.27046269 1.2458887 0.0096337283 90
0.26473379 1.2556417 0.029517479 100
0.26139286 1.2613294 0.049853086 85
0.2694878 1.2475483 0.068003096 51
0.27286172 1.2418046 0.086664692 57
0.27356806 1.240602 0.1060898 81
0.27659872 1.2354426 0.12462288 83
0.25548521 1.2713866 0.15580906 75
0.26700687 1.255451 0.0098082526 89
0.27238101 1.2462322 0.028889447 100
0.25700325 1.2726114 0.050898954 83
0.2640748 1.2604808 0.069709264 83
0.27044842 1.2495474 0.087916173 70
0.26623151 1.2567811 0.10952436 78
0.28108799 1.2312961 0.12327318 85
0.25520363 1.2756984 0.15684435 66
0.26178277 1.2686038 0.010052586 86
0.2761274 1.2437882 0.028680105 100
0.26283577 1.2667822 0.050201707 85
0.27282855 1.249495 0.068003096 51
0.28011659 1.236887 0.085413218 73
0.26703504 1.2595177 0.10990598 85
0.28765678 1.2238429 0.12102367 86
0.25802591 1.2751031 0.1563267 74
0.26443279 1.2678223 0.010017681 87
0.27968764 1.2412288 0.02847076 100
0.26349339 1.26946 0.05037602 84
0.27639562 1.2469678 0.067515619 51
0.28264925 1.236066 0.085100345 58
0.27256739 1.2536414 0.10837951 79
0.29013288 1.2230198 0.12057377 77
0.2654278 1.2660877 -0.0099827768 86
0.26258624 1.2710413 0.15477379 67
0.27029976 1.2619616 0.0098780617 73
0.27952474 1.2457359 0.028680105 100
0.27821475 1.24804 0.048109971 89
0.27822903 1.2480148 0.067515619 51
0.28736973 1.2319374 0.084161744 59
0.27733746 1.249583 0.10723466 81
0.29091111 1.2257085 0.12102367 86
0.27406031 1.2553471 0.14959741 70
0.2817584 1.2454699 0.0095290141 76
0.27325284 1.2605463 0.029517479 100
0.27001169 1.2662914 0.049853086 85
0.2759141 1.2558291 0.068490572 50
0.28696176 1.2362467 0.084787481 73
0.27892932 1.2504845 0.10723466 88
0.28763607 1.2350514 0.12327318 76
0.26898497 1.2681113 -0.0099827768 86
0.27187434 1.2629898 0.15166797 69
0.27756083 1.2568737 0.0097384425 75
0.28667039 1.2405941 0.028261416 100
0.26785409 1.2742205 0.05055033 100
0.27955034 1.2533183 0.068003096 51
0.28183863 1.249229 0.086977564 57
0.28252557 1.2480013 0.10647142 73
0.29592222 1.2240603 0.12012386 86
0.26793677 1.2740728 0.15477379 67
0.28208894 1.2525296 0.0096337283 90
0.28435436 1.2484493 0.028680105 100
0.27339628 1.2681857 0.049853086 85
0.27922738 1.2576835 0.068490572 50
0.28534704 1.2466614 0.086351827 58
0.28125313 1.254035 0.10761628 87
0.29553741 1.2283077 0.12102367 94
0.27335268 1.2682643 -0.0099478718 86
0.2696099 1.2750053 0.15477379 67
0.28394368 1.2535548 0.0096337283 90
0.28811902 1.2459661 0.02847076 100
0.27819258 1.2640073 0.049330149 87
0.27727419 1.2656765 0.069465525 49
0.293845 1.2355592 0.084161744 74
0.28311366 1.2550633 0.10761628 79
0.29917789 1.2258668 0.12012386 86
0.27719587 1.2658188 -0.0098780617 87
0.27900118 1.2625377 0.15063268 70
0.28363234 1.2579448 0.0097035384 90
0.28587085 1.2538441 0.028889447 100
0.28365088 1.2579108 0.048632905 88
0.27796826 1.2683206 0.069709264 49
0.29633674 1.2346723 0.083848871 59
0.28942713 1.2473296 0.10570818 81
0.29975721 1.2284064 0.12057377 69
0.28075787 1.2632103 -0.0098082526 88
0.27693337 1.2702162 0.15270324 76
0.28628924 1.2571131 0.0096686333 75
0.28756139 1.2547631 0.028889447 100
0.28345853 1.2623417 0.048981529 87
0.28821504 1.2535558 0.067515619 51
0.2960794 1.2390292 0.084474608 59
0.29576829 1.2396038 0.1038001 76
0.29486454 1.2412732 0.12372308 83
0.28603891 1.2575755 0.14856213 71
0.28885221 1.2562232 0.0096337283 90
0.29862073 1.2380354 0.027842728 100
0.28697813 1.2597125 0.048632905 88
0.29639494 1.2421796 0.065809444 35
0.29763615 1.2398686 0.084474608 59
0.29639801 1.2421739 0.10418171 75
0.28400087 1.2652557 0.15063268 70
0.29166052 1.255457 0.0095988233 76
0.29854316 1.2425236 0.028052073 100
0.28324452 1.2712719 0.049678773 86
0.28888428 1.260674 0.068246834 34
0.29175681 1.2552761 0.10685304 73
0.28790283 1.2625182 -0.0097384425 88
0.28771958 1.2628627 0.14959741 70
0.29047108 1.2616162 0.0097035384 90
0.29451695 1.2539523 0.028680105 100
0.29979062 1.2439626 0.046889789 91
0.29700005 1.2492487 0.066540658 52
0.29153439 1.2596021 0.10761628 79
0.2839362 1.2739952 -0.0099478718 86
0.29115918 1.2603128 0.14856213 71
0.29682562 1.2536609 0.0095290141 92
0.29250282 1.2619191 0.029098792 100
0.29590264 1.2554243 0.047935657 89
0.29130962 1.2641987 0.068490572 50
0.29870787 1.2500651 0.10532656 75
0.28755185 1.2713774 -0.0098780617 87
0.29466408 1.2577903 0.14752686 71
0.29965776 1.252135 0.02847076 100
0.29751375 1.2562642 0.047935657 89
0.29272214 1.2654924 0.14959741 70
0.29920834 1.2571509 0.0095639192 91
0.29647681 1.2624569 0.048458595 59
0.29831395 1.2588882 0.067515619 68
0.29268479 1.2698226 0.15063268 70
0.29900637 1.2615418 0.0096337283 90
0.29722828 1.2650241 0.068246834 68
0.29258659 1.2741141 0.15166797 69
0.29810107 1.2678113 -0.0097384425 100
0.29618046 1.2716068 0.15063268 78
0.2936531 1.2812442 -0.0099827768 100
