# .PCD v0.7 - Point Cloud Data file format
VERSION 0.7
FIELDS x y z intensity
SIZE 4 4 4 4
TYPE F F F F
COUNT 1 1 1 1
WIDTH 722
HEIGHT 1
VIEWPOINT 0 0 0 1 0 0 0
POINTS 722
DATA ascii
-1.0847821 0.1455117 0.05736021 25
-1.0862722 0.14938027 0.057464879 26
-1.1939933 0.1684424 0.021047601 26
-1.1589181 0.16349417 0.061337739 30
-1.0884782 0.15762787 0.019197647 5
-1.0424265 0.15467586 0.018394837 6
-1.0260642 0.15591042 0.018115599 4
-1.0452732 0.16256414 0.018464645 1
-1.0123668 1.1232408 0.083946876 3
-1.0513108 1.1320459 0.14363267 4
-1.0480449 1.1374691 0.028621947 7
-0.99938279 1.1262794 0.083318844 5
-1.0266726 1.1325545 0.14154093 9
-1.0117652 1.1345837 0.02799366 10
-1.0059726 1.1332314 0.08373753 46
-1.0177007 1.1359693 0.14084367 45
-0.98317939 1.1338413 0.027504992 32
-0.99491447 1.1366261 0.083214171 91
-1.0163488 1.1417127 0.14084367 91
-0.98390847 1.1393917 0.027539898 37
-0.99369019 1.1417472 0.083214171 100
-1.0092964 1.1455054 0.14032075 87
-0.99031383 1.1469123 0.027679516 37
-0.97097701 1.1421807 0.082062781 100
-1.0079098 1.1512181 0.14032075 82
-0.99293715 1.1529816 0.027749326 23
-0.96779603 1.1467413 0.081958108 86
-0.99310106 1.1530223 0.13910057 91
-0.9701938 1.1532569 0.027365373 26
-0.98189837 1.1562078 0.082795486 41
-0.9974826 1.1601367 0.13962349 73
-0.96497208 1.1575698 0.027295563 44
-0.98634571 1.1630378 0.083109498 31
-0.98066956 1.1615856 0.13822901 82
-0.95973891 1.1618509 0.027225753 61
-0.96949869 1.1643841 0.08227212 78
-0.98507887 1.1684279 0.13875194 91
-0.96609706 1.169155 0.027365373 67
-0.95845562 1.1671432 0.081748761 98
-0.98175198 1.1732767 0.13857763 89
-0.95696646 1.1723813 0.027225753 78
-0.9589898 1.1729215 0.081853434 92
-0.97071022 1.176051 0.13770607 100
-0.9516924 1.1765939 0.027155945 85
-0.95564634 1.1776645 0.081748761 98
-0.95966786 1.1787534 0.13683452 100
-0.93497926 1.1770802 0.026876707 93
-0.95435816 1.1823926 0.081748761 100
-0.96798378 1.1861278 0.13770607 99
-0.94510931 1.1854737 0.027086135 96
-0.94521207 1.1855023 0.081330076 98
-0.96652192 1.191424 0.13770607 92
-0.94364995 1.19069 0.027086135 92
-0.93029541 1.1869287 0.080597371 84
-0.96312386 1.1961749 0.13753176 98
-0.95755559 1.200292 0.027365373 64
-0.9326722 1.1931897 0.080806717 72
-0.94629997 1.1970794 0.13613728 100
-0.96372825 1.2077739 0.027504992 45
-0.9369418 1.2000272 0.081120729 34
-0.94097227 1.2011929 0.13578865 98
-0.92381054 1.2018101 0.026806897 56
-0.9296816 1.2035303 0.080806717 24
-0.94710606 1.2086354 0.13648589 84
-0.91654307 1.2052453 0.026702182 74
-0.91667098 1.2052832 0.080178685 26
-0.9417457 1.2127249 0.13613728 87
-0.92075998 1.2120887 0.026806897 78
-0.90940446 1.2086754 0.079864666 38
-0.94400734 1.2190764 0.13648589 94
-0.92693847 1.2192914 0.026946515 85
-0.91367418 1.2152563 0.080178685 90
-0.92916697 1.2199693 0.13526571 99
-0.90625018 1.2185576 0.026597468 89
-0.91401976 1.2209507 0.080283359 92
-0.91806668 1.2221973 0.13439415 94
-0.90451711 1.2241459 0.026597468 88
-0.91227752 1.2265688 0.080283359 78
-0.91822141 1.2284248 0.13456847 61
-0.90292305 1.2292203 0.026597468 88
-0.90115279 1.2286608 0.07976 72
-0.92041177 1.2347479 0.1349171 45
-0.9052828 1.2349998 0.026667276 83
-0.90160722 1.2338253 0.079864666 80
-0.91514868 1.2381521 0.13456847 43
-0.90365082 1.2400768 0.026667276 85
-0.89807898 1.2382751 0.07976 95
-0.90402704 1.2401985 0.13369691 47
-0.88679689 1.2401727 0.026388038 100
-0.89833385 1.2439481 0.079864666 100
-0.90805763 1.24713 0.13421984 64
-0.88135022 1.2439282 0.02631823 99
-0.89477462 1.248373 0.07976 100
-0.90638322 1.2522167 0.13421984 80
-0.87968713 1.2489216 0.02631823 99
-0.8874144 1.2515101 0.07944598 100
-0.9084695 1.2585633 0.13456847 84
-0.88558239 1.2564764 0.026457848 93
-0.87815851 1.2539606 0.079027295 100
-0.89543325 1.2598146 0.1335226 84
-0.88387543 1.2614845 0.026457848 93
-0.87457114 1.2582953 0.078922622 100
-0.89371473 1.2648571 0.1335226 100
-0.87081486 1.2625568 0.02624842 88
-0.87285799 1.263265 0.078922622 100
-0.88256615 1.2666306 0.13265105 95
-0.86153847 1.2648669 0.0261088 81
-0.87489706 1.2695503 0.079131968 85
-0.90150589 1.2788789 0.13456847 54
-0.86734158 1.2724638 0.02624842 83
-0.85808486 1.2691822 0.07829459 51
-0.89972073 1.2839426 0.13456847 38
-0.86566752 1.2771611 0.02624842 92
-0.84326011 1.2691337 0.077561885 17
-0.89425713 1.2874033 0.13421984 40
-0.85636789 1.2793757 0.0261088 93
-0.86028808 1.2807956 0.07860861 53
-0.87932914 1.2876921 0.13299966 22
-0.84707016 1.2815316 0.025969181 96
-0.86037201 1.286402 0.078713275 100
-0.85319144 1.2837728 0.13073361 15
-0.83777457 1.2836287 0.025829561 100
-0.85668772 1.2906287 0.07860861 100
-0.86260062 1.2928171 0.13177948 3
-0.83971912 1.2898712 0.025899371 100
-0.83241397 1.2871385 0.077352546 70
-0.87196356 1.3019333 0.13282534 1
-0.83789593 1.294719 0.025899371 99
-0.83060044 1.2919607 0.077352546 46
-0.86823446 1.3061891 0.13265105 3
-0.84165984 1.3017015 0.026004085 75
-0.83250147 1.2982025 0.077561885 53
-0.84215885 1.3018923 0.130385 18
-0.82860237 1.3022349 0.025794657 71
-0.84182864 1.3073411 0.078189917 68
-0.84029371 1.3067485 0.130385 58
-0.81742138 1.3034103 0.025620133 78
-0.83064097 1.308567 0.077666558 68
-0.85140485 1.3166667 0.13160518 100
-0.82671362 1.3125794 0.025829561 93
-0.82317811 1.3111861 0.077352546 63
-0.84021991 1.3179026 0.13073361 99
-0.82481128 1.3173819 0.025829561 99
-0.81756943 1.3144984 0.0771432 89
-0.83644789 1.3220149 0.1305593 100
-0.82660264 1.3236698 0.025899371 100
-0.81751353 1.3200142 0.077247873 95
-0.82342166 1.3223904 0.12951343 100
-0.81364244 1.3237178 0.025689943 100
-0.82308418 1.3275516 0.077666558 95
-0.82896632 1.3299401 0.13021068 100
-0.79448801 1.3159399 0.17817298 12
-0.80430073 1.3254392 0.025550323 100
-0.82667321 1.3346148 0.077980578 97
-0.81409973 1.329458 0.1289905 100
-0.80175728 1.324396 0.17939167 19
-0.79865867 1.3286327 0.025480513 100
-0.81362253 1.334831 0.077352546 100
-0.82134217 1.3380284 0.12986206 100
-0.78514189 1.3230338 0.17744176 20
-0.80407959 1.3364238 0.025620133 100
-0.78400439 1.3280261 0.075782463 100
-0.81199878 1.3397365 0.12916481 100
-0.77954072 1.3261589 0.17695428 18
-0.80209416 1.3411469 0.025620133 100
-0.79124767 1.3365653 0.076305822 96
-0.80449575 1.3421614 0.12864187 100
-0.77027673 1.3277067 0.17597933 18
-0.80009228 1.3458631 0.025620133 83
-0.79844743 1.3451616 0.07682918 54
-0.80249017 1.3468859 0.12864187 86
-0.77014774 1.3330908 0.17622307 15
-0.80909365 1.3553182 0.025829561 56
-0.82945031 1.3640852 0.078713275 53
-0.8279168 1.3634248 0.13125655 20
-0.78275985 1.343977 0.17817298 5
-0.79970688 1.3568692 0.025689943 99
-0.80172557 1.3577471 0.077247873 100
-0.81304699 1.3626697 0.13003637 58
-0.79531175 1.3549582 0.18012288 19
-0.79765004 1.361577 0.025689943 100
-0.80515224 1.3648702 0.077561885 100
-0.82191604 1.3722291 0.13108224 100
-0.78599089 1.356459 0.17914793 36
-0.80299443 1.369282 0.025829561 100
-0.80317205 1.3693608 0.077561885 100
-0.81262463 1.3735476 0.130385 100
-0.76225859 1.351239 0.17622307 30
-0.79187125 1.3696859 0.025655037 100
-0.81211776 1.3787342 0.078189917 100
-0.79424471 1.3707466 0.12881619 100
-0.79838318 1.3725961 0.18134159 35
-0.78440636 1.3716667 0.025550323 100
-0.81555396 1.3857107 0.078503937 100
-0.80314296 1.3801148 0.12986206 100
-0.75656515 1.3591135 0.17597933 20
-0.79118532 1.3809307 0.025724847 100
-0.80590934 1.3876377 0.078085244 100
-0.80804282 1.3886095 0.1305593 100
-0.76332599 1.3682404 0.17719802 16
-0.79460305 1.3878797 0.025829561 100
-0.80385381 1.3921306 0.078085244 100
-0.81322557 1.3964373 0.13125655 100
-0.76854998 1.3759077 0.17817298 14
-0.79777128 1.3953288 0.025934275 100
-0.80881149 1.4004509 0.078503937 100
-0.80007643 1.3963983 0.13021068 100
-0.76992184 1.3824073 0.17866045 12
-0.79387909 1.398947 0.025899371 100
-0.8049044 1.4041069 0.078399263 100
-0.79799181 1.4008718 0.13021068 100
-0.76788372 1.386781 0.17866045 7
-0.79156476 1.4038683 0.025899371 100
-0.8079887 1.4116284 0.078713275 100
-0.79567045 1.4058082 0.13021068 100
-0.77638334 1.3966954 0.18012288 3
-0.79487103 1.4108944 0.026004085 100
-0.79683846 1.411832 0.078189917 100
-0.81154066 1.4188383 0.13195379 100
-0.79623002 1.4173181 0.026073895 100
-0.79818982 1.4182605 0.078399263 100
-0.81285876 1.4253137 0.13230242 100
-0.80127329 1.4252689 0.026213514 100
-0.79782981 1.4235991 0.078503937 100
-0.80709273 1.4280908 0.13195379 100
-0.78976756 1.4260554 0.026038991 100
-0.80427903 1.4331614 0.079027295 100
-0.80097705 1.4315445 0.13160518 100
-0.78758472 1.4304947 0.026038991 100
-0.80744487 1.4403017 0.079341307 100
-0.80592173 1.4395494 0.13230242 100
-0.79589337 1.4407444 0.02624842 100
-0.79782873 1.4417089 0.078922622 100
-0.81415778 1.4498467 0.13334829 100
-0.79723531 1.4469995 0.02631823 100
-0.79916304 1.4479684 0.079131968 100
-0.80833536 1.4525776 0.13299966 100
-0.79498285 1.4514635 0.02631823 100
-0.80047065 1.454244 0.079341307 100
-0.80250984 1.4552772 0.13265105 100
-0.79271561 1.4559199 0.02631823 100
-0.80175143 1.4605358 0.079550654 100
-0.80555278 1.4624777 0.13317397 100
-0.78663772 1.4590042 0.02624842 100
-0.80276197 1.4673157 0.07976 100
-0.80654746 1.4692671 0.1335226 100
-0.78789431 1.465277 0.02631823 100
-0.78980881 1.4662719 0.079131968 100
-0.80422121 1.4737618 0.1335226 100
-0.79229814 1.4741247 0.026457848 99
-0.79420012 1.4751225 0.079550654 100
-0.81033081 1.483584 0.13439415 100
-0.7934913 1.4804416 0.026527658 79
-0.78832334 1.4777088 0.079341307 97
-0.80443448 1.4862283 0.13404553 98
-0.79476875 1.4874365 0.13334829 26
0.13479879 1.2851162 0.12860526 5
0.15766406 1.2602412 0.010960111 25
0.15939003 1.2580845 0.032762308 29
0.15411782 1.2646723 0.055431053 24
0.085909843 1.3499012 0.11763871 8
0.15131992 1.2681684 0.12402584 36
0.18836123 1.2218837 0.13362093 7
0.14683312 1.2737749 0.17289113 7
0.15688968 1.2647389 0.011029921 89
0.17103615 1.2469351 0.031924933 91
0.15088907 1.2722908 0.056128297 72
0.16223028 1.2580175 0.076533951 14
0.17518818 1.2417098 0.095425025 25
0.15672535 1.2649457 0.122881 91
0.19721472 1.2139888 0.13092151 24
0.15460315 1.2676165 0.17030293 21
0.15366483 1.272388 0.01116954 100
0.17517737 1.2451191 0.031715591 100
0.16128299 1.2627313 0.054908119 100
0.15287063 1.2733947 0.078727596 28
0.17316657 1.2476679 0.096363634 25
0.16088736 1.2632328 0.12211776 100
0.18911079 1.2274573 0.13452072 46
0.15993217 1.2644436 0.16875002 36
0.16405234 1.2627485 0.010925206 100
0.1719119 1.2527139 0.032134276 100
0.15440542 1.2750649 0.056128297 100
0.15463021 1.2747779 0.078727596 28
0.16996399 1.2552009 0.097615108 37
0.17350674 1.2506778 0.1186832 100
0.18349999 1.2379191 0.13722014 37
0.15332189 1.2764482 0.17237349 42
0.17191249 1.2561998 0.010750682 100
0.16869494 1.2603374 0.032552965 59
0.16473234 1.2654331 0.054908119 100
0.16979915 1.2589173 0.076046467 29
0.16923472 1.2596433 0.098240845 36
0.1848284 1.2395906 0.11563025 100
0.18035045 1.245349 0.13901976 29
0.14560485 1.29003 0.1765146 41
0.17841613 1.2511203 0.010611063 81
0.18497297 1.2426307 0.031296901 62
0.16394168 1.2698616 0.055256739 49
0.18355644 1.2444648 0.073609084 46
0.1660307 1.2671567 0.099492319 24
0.1890758 1.2373184 0.13632034 22
0.15087411 1.2867813 0.17496167 42
0.16914675 1.2666965 0.010925206 52
0.17933318 1.2534118 0.031924933 30
0.16568887 1.2712061 0.055256739 49
0.1767596 1.2567681 0.075315252 90
0.18940422 1.2402774 0.093860678 39
0.1928117 1.2358334 0.11410378 13
0.20138127 1.2246573 0.13227122 31
0.15855795 1.2805061 0.17237349 57
0.16361544 1.2775697 0.011134636 50
0.17134476 1.2674161 0.032762308 29
0.16985437 1.269374 0.054908119 50
0.17846099 1.258068 0.075315252 45
0.19942352 1.2305307 0.091670595 54
0.19325078 1.2386396 0.1144854 13
0.2041508 1.2243209 0.13182132 39
0.17438406 1.2634237 0.16616182 68
0.17744631 1.2629619 0.010785587 39
0.16826656 1.2751085 0.033180997 28
0.17400238 1.2675189 0.054559495 50
0.18854502 1.248276 0.073609084 62
0.19865119 1.2349036 0.092296332 53
0.1984399 1.2351832 0.11334054 13
0.19868907 1.2348535 0.13452072 38
0.17727348 1.2631905 0.16564418 68
0.18396974 1.2578611 0.010645968 53
0.17003202 1.2764379 0.033180997 28
0.17932847 1.2640471 0.054036561 51
0.18545139 1.2558863 0.074584037 91
0.19434863 1.2440276 0.093860678 52
0.20360053 1.2316964 0.11219569 14
0.20967001 1.2236067 0.13092151 32
0.17899731 1.2644886 0.16564418 68
0.18806392 1.2559284 0.010576159 67
0.19566321 1.2457258 0.031087559 31
0.18105528 1.2653381 0.054036561 51
0.20019332 1.2396437 0.071902916 48
0.19010556 1.2531874 0.095425025 51
0.20404151 1.2344772 0.1125773 13
0.21125546 1.2247919 0.13092151 32
0.18418759 1.2611327 0.16409127 69
0.18619564 1.2620125 0.010680873 80
0.1913887 1.2549894 0.031610917 61
0.17686379 1.2746329 0.054908119 75
0.19829413 1.2456503 0.072634131 78
0.19884104 1.2449107 0.093547814 65
0.1974943 1.246732 0.11524864 13
0.21979669 1.2165701 0.12822211 32
0.1859042 1.2624066 0.16409127 69
0.1879153 1.2632794 0.010680873 80
0.20490223 1.2401376 0.030564198 64
0.18452236 1.2679017 0.054036561 100
0.19760734 1.2500756 0.073121607 62
0.20985207 1.2333941 0.091044858 81
0.20496914 1.2400464 0.11334054 13
0.21789813 1.2224329 0.12957181 24
0.19105464 1.2590026 0.16253836 70
0.19906056 1.2516111 0.010401634 83
0.21007407 1.2364968 0.030250182 65
0.18978262 1.2643437 0.053513627 100
0.19227096 1.2609289 0.074584037 76
0.2068184 1.2409647 0.092296332 100
0.21586153 1.2285544 0.1102876 14
0.24587518 1.1873652 0.11922406 17
0.19503915 1.2571299 0.16150309 70
0.20543185 1.2463522 0.010262015 98
0.20936337 1.2409171 0.030459527 65
0.18683952 1.2720554 0.054210871 100
0.20794809 1.2428735 0.071659178 80
0.2096222 1.2405592 0.091983467 93
0.22436807 1.2201736 0.10799789 14
0.22677547 1.2168455 0.1273223 8
0.19787398 1.2568007 0.16098544 72
0.20001364 1.257237 0.010471444 96
0.21092686 1.2420441 0.030459527 65
0.19083109 1.2700205 0.053862248 100
0.20141137 1.2552911 0.073365346 46
0.21348938 1.2384766 0.09135773 94
0.21326372 1.2387908 0.11219569 14
0.25781825 1.1767638 0.11562485 9
0.19160089 1.2689488 0.16460891 69
0.20171654 1.2584558 0.010471444 82
0.2218529 1.2302152 0.029622151 100
0.18563849 1.2810047 0.054908119 100
0.20425993 1.2548887 0.073121607 62
0.21971402 1.2332149 0.090106249 96
0.20692363 1.251153 0.11486702 20
0.23661268 1.2095151 0.12462288 16
0.19334474 1.2701969 0.16460891 77
0.20111319 1.2629329 0.010541254 95
0.21884596 1.2378788 0.03004084 66
0.20008579 1.2643845 0.05299069 100
0.2105419 1.2496114 0.072146654 63
0.21790934 1.239202 0.091044858 100
0.20406845 1.2587575 0.11639348 39
0.23139387 1.2201501 0.1273223 24
0.19620898 1.2698619 0.16409127 85
0.20513508 1.2608752 0.010471444 82
0.21818489 1.2423004 0.030250182 98
0.20066831 1.2672331 0.053165004 100
0.21221814 1.2507933 0.072146654 79
0.21500689 1.2468238 0.092296332 100
0.20239085 1.2647814 0.11753834 79
0.23296714 1.2212596 0.1273223 40
0.20017707 1.2679324 0.163056 78
0.21142599 1.2555151 0.010331824 98
0.21755067 1.2467322 0.030459527 97
0.20354575 1.2668153 0.05299069 100
0.21616942 1.248713 0.071659178 80
0.22006312 1.2431294 0.09135773 94
0.20861202 1.2595503 0.11601187 100
0.22005334 1.2431433 0.13317102 85
0.20081231 1.270735 0.16357364 69
0.2108466 1.2599823 0.010401634 97
0.22717378 1.2363942 0.029726824 100
0.20414814 1.2696598 0.053165004 100
0.21897227 1.2482431 0.071415432 48
0.22171667 1.2442782 0.09135773 94
0.22373125 1.2413677 0.11143246 91
0.22947064 1.2330759 0.13002171 88
0.20256233 1.271951 0.16357364 69
0.21482372 1.2578669 0.010331824 98
0.22993475 1.235872 0.029622151 100
0.19912508 1.2807171 0.054210871 100
0.21951959 1.2510319 0.071659178 64
0.22672996 1.2405367 0.090419121 100
0.21759659 1.2538309 0.11410378 82
0.23219252 1.2325857 0.12957181 96
0.20869231 1.2667915 0.16150309 70
0.20751601 1.272251 0.010611063 81
0.22931245 1.2402867 0.029831495 66
0.20876729 1.270416 0.05299069 100
0.21672726 1.2587428 0.072634131 63
0.23060018 1.2383982 0.089793384 100
0.21486327 1.2614763 0.11563025 100
0.23051551 1.2385223 0.13092151 100
0.21151689 1.2663838 0.16098544 72
0.22160029 1.2552267 0.01022711 42
0.23319492 1.238095 0.029622151 33
0.21498305 1.265004 0.052293446 80
0.22177321 1.2549713 0.071902916 48
0.23112994 1.2411462 0.090106249 100
0.23198637 1.2398808 0.1102876 92
0.2299684 1.2428625 0.13182132 94
0.21758282 1.2611628 0.15891489 81
0.22106597 1.25969 0.010296919 42
0.21923938 1.2624093 0.031087559 31
0.21782392 1.2645166 0.052119136 54
0.22346807 1.256114 0.071902916 48
0.2294721 1.2471757 0.091044858 100
0.23472321 1.2393583 0.10990598 100
0.22944772 1.2472121 0.13272113 100
0.21822211 1.2639238 0.15943253 73
0.22277731 1.2608353 0.010296919 42
0.22760749 1.25359 0.030459527 32
0.20850036 1.2822508 0.053862248 51
0.22957143 1.2506441 0.070927955 97
0.23771414 1.23843 0.089167647 98
0.23309645 1.2453566 0.11105084 91
0.24408701 1.2288706 0.1273223 97
0.21566188 1.2715085 0.16150309 78
0.2289063 1.2553036 0.0101573 28
0.24252236 1.2347243 0.029203463 34
0.22018498 1.2684851 0.052293446 53
0.23453721 1.246793 0.07019674 82
0.23935118 1.2395172 0.089167647 100
0.23584101 1.2448225 0.11066922 92
0.24676594 1.2283105 0.12687239 99
0.2174145 1.2726724 0.16150309 70
0.21734285 1.276422 0.010576159 27
0.21555507 1.2791438 0.031924933 30
0.23059079 1.2562541 0.050898954 55
0.22740117 1.2611098 0.072146654 79
0.24524796 1.2339406 0.087916173 100
0.23418367 1.2507844 0.11181407 100
0.24721751 1.2309422 0.1273223 89
0.22650766 1.26247 0.15787962 81
0.22784892 1.2641788 0.010296919 28
0.21297151 1.2870007 0.032343622 30
0.22902593 1.2623732 0.051421888 55
0.23128554 1.258907 0.071659178 80
0.25010553 1.2300372 0.086977564 100
0.24122453 1.2436606 0.10990598 85
0.2435073 1.2401588 0.12957181 96
0.22506371 1.2684512 0.15943253 73
0.24043772 1.2485104 0.0099478718 43
0.2212874 1.2781123 0.031715591 30
0.22966436 1.2651635 0.051596198 54
0.24162009 1.2466828 0.069709264 83
0.24420238 1.2426912 0.089167647 84
0.24394619 1.2430872 0.10952436 92
0.24409181 1.242862 0.13002171 88
0.22890428 1.2663383 0.15839726 73
0.24210992 1.249588 0.0099478718 43
0.24895903 1.2389195 0.029203463 68
0.23247114 1.2646021 0.051421888 55
0.25079292 1.236063 0.068003096 51
0.24585426 1.2437557 0.089167647 84
0.24772069 1.2408484 0.10876112 79
0.25416657 1.2308079 0.12642249 90
0.22959512 1.2690818 0.15891489 65
0.23519039 1.2641521 0.01022711 70
0.25274396 1.2365985 0.028994121 68
0.23312905 1.2673877 0.051596198 82
0.23962253 1.257195 0.070927955 48
0.2517553 1.2381504 0.087916173 84
0.24092725 1.255147 0.11181407 100
0.25996515 1.2252636 0.12462288 83
0.23133919 1.2701973 0.15891489 73
0.2358487 1.2669382 0.010262015 84
0.24690384 1.2494507 0.029726824 100
0.23912573 1.2617545 0.050898954 83
0.24875021 1.2465301 0.069221787 67
0.25761345 1.2325099 0.086664692 86
0.24891704 1.2462661 0.10952436 78
0.25843212 1.2312148 0.12597258 99
0.23928088 1.2615091 0.15580906 67
0.24396104 1.2578679 0.010052586 100
0.25070196 1.2471219 0.029517479 100
0.24613792 1.2543976 0.050027397 85
0.23775694 1.2677581 0.072146654 79
0.25503084 1.2402211 0.087916173 70
0.2484948 1.2506404 0.1102876 85
0.25797272 1.2355313 0.12687239 99
0.24715796 1.2527716 0.15270324 68
0.2541196 1.2453517 0.0097733475 89
0.25025839 1.251555 0.029726824 100
0.24151352 1.2656043 0.051073264 83
0.25313333 1.2469363 0.068978049 50
0.25249857 1.247956 0.089167647 70
0.25224933 1.2483565 0.10952436 85
0.25856972 1.2382023 0.1273223 89
0.23659462 1.2735069 0.15891489 65
0.24720341 1.2598869 0.010052586 86
0.26017347 1.2389029 0.028889447 100
0.24097696 1.2699605 0.051421888 82
0.25254574 1.2512437 0.069465525 49
0.25607875 1.2455277 0.08854191 56
0.25788245 1.2426095 0.10799789 72
0.26311582 1.2341425 0.12597258 90
0.23614657 1.2777755 0.15995017 64
0.24996072 1.2592362 0.010017681 87
0.26181203 1.2399118 0.028889447 100
0.24168241 1.2727346 0.051596198 82
0.2583786 1.2455102 0.068490572 67
0.26600218 1.2330794 0.086038955 72
0.2513229 1.2570151 0.11105084 84
0.26881289 1.2284963 0.12417299 92
0.23792094 1.278868 0.15995017 64
0.25063083 1.2619889 0.010052586 86
0.26137766 1.2443273 0.029098792 100
0.25379595 1.2567872 0.049853086 85
0.25591266 1.2533085 0.069465525 49
0.27070087 1.2290053 0.085100345 58
0.25914791 1.2479917 0.10876112 79
0.27041507 1.229475 0.12417299 83
0.24572438 1.2700522 0.15684435 66
0.25855106 1.2527593 0.0098431576 88
0.26097062 1.2487515 0.029308135 100
0.25549695 1.2578182 0.049853086 85
0.25349769 1.2611299 0.070440479 49
0.27128386 1.2316686 0.085413218 73
0.26081818 1.249004 0.10876112 87
0.26698479 1.2387896 0.12642249 90
0.2534624 1.2611883 0.15373851 76
0.25826797 1.2572557 0.0099129668 87
0.26067534 1.2532349 0.029517479 100
0.25319299 1.265732 0.05055033 84
0.2614181 1.2519943 0.068978049 50
0.2689189 1.2394663 0.086664692 71
0.26156726 1.2517452 0.10914274 78
0.27070698 1.2364799 0.12552269 90
0.2552647 1.2622719 0.15373851 68
0.26201305 1.2548325 0.0098431576 88
0.26848382 1.2439388 0.028889447 100
0.25492522 1.2667651 0.05055033 84
0.26310232 1.2529987 0.068978049 50
0.26955056 1.2421429 0.086977564 57
0.26625848 1.2476852 0.10799789 79
0.28029868 1.2240483 0.12192347 85
0.25501168 1.2666194 0.15477379 67
0.2596463 1.2627261 0.0099827768 87
0.2701399 1.2449186 0.028889447 100
0.24958044 1.2798077 0.051770512 81
0.25571978 1.2693894 0.071171694 65
0.27420896 1.2380135 0.086038955 72
0.26294404 1.2571299 0.10990598 78
0.27891716 1.2300237 0.12327318 76
0.25184309 1.2759681 0.15736198 74
0.2633864 1.2602839 0.0099129668 87
0.26776749 1.2527896 0.029308135 100
0.261417 1.2636528 0.050027397 100
0.26447761 1.2584174 0.069465525 49
0.27983204 1.2321519 0.084787481 59
0.26266456 1.2615187 0.11066922 78
0.27954113 1.2326496 0.12372308 92
0.26540479 1.2568312 -0.0098431576 76
0.26043582 1.2653313 0.15373851 68
0.27011541 1.2526321 0.0097384425 90
0.27145836 1.2503164 0.029098792 100
0.26614046 1.2594864 0.049504463 86
0.26618424 1.259411 0.069465525 49
0.27649206 1.2416363 0.086351827 58
0.27324605 1.2472336 0.10723466 81
0.28213534 1.231905 0.12327318 85
0.26410487 1.2629967 0.15270324 68
0.27778456 1.243206 0.0095290141 92
0.26915303 1.2582107 0.029517479 100
0.26685733 1.2622014 0.049678773 86
0.27383339 1.2500745 0.068003096 51
0.27814004 1.242588 0.086351827 58
0.27295569 1.2516003 0.10799789 87
0.28666446 1.2277696 0.12192347 85
0.26679081 1.2623171 0.1521856 77
0.2804291 1.2424165 0.0094941091 92
0.27877781 1.2453103 0.028680105 100
0.26857716 1.2631867 0.049678773 86
0.27747852 1.2475873 0.067515619 51
0.27685428 1.2486813 0.087290429 71
0.27463847 1.2525644 0.10799789 79
0.29405889 1.2185307 0.11922406 87
0.26372379 1.271692 0.15477379 67
0.27321476 1.2590171 0.0098082526 74
0.2804386 1.2462542 0.028680105 100
0.26539341 1.2728357 0.05055033 84
0.28110287 1.2450806 0.067028143 51
0.28728405 1.2341598 0.084474608 59
0.27245641 1.2603569 0.10952436 85
0.2937063 1.2228131 0.12012386 86
0.26927477 1.2659782 -0.0099478718 86
0.26357362 1.2760508 0.15580906 75
0.27198669 1.2652113 0.0099129668 87
0.27428085 1.2611248 0.029517479 100
0.27007639 1.2686141 0.050027397 85
0.27693224 1.2564021 0.068490572 50
0.28987288 1.2333516 0.084161744 59
0.277053 1.256187 0.10837951 79
0.29528847 1.2237051 0.12012386 77
0.27101606 1.2669404 0.15270324 68
0.27566263 1.2626846 0.0098431576 88
0.28765658 1.2411445 0.028261416 100
0.27957276 1.2556623 0.048632905 88
0.27187169 1.2694927 0.07019674 33
0.29245287 1.2325308 0.083848871 59
0.28352726 1.2485604 0.10647142 73
0.29308158 1.2314017 0.12192347 76
0.2727524 1.2679111 0.15270324 68
0.28898478 1.2426333 0.0094242999 93
0.27964732 1.259541 0.029308135 100
0.27549055 1.2670679 0.049678773 86
0.28801188 1.2443949 0.066540658 52
0.29024911 1.2403439 0.085100345 58
0.28614849 1.2477691 0.1060898 73
0.29186749 1.2374134 0.12327318 76
0.27448392 1.2688906 -0.0099478718 86
0.28009567 1.2587292 0.14959741 70
0.28391191 1.2558185 0.0096686333 75
0.28711441 1.2499714 0.028680105 100
0.27339891 1.275013 0.05037602 84
0.28394789 1.2557528 0.068003096 51
0.28809679 1.2481779 0.086351827 58
0.28593162 1.252131 0.10685304 81
0.27252313 1.2766119 0.15477379 67
0.28552443 1.2566983 0.0096686333 75
0.29442924 1.2403111 0.028052073 100
0.27697772 1.2724261 0.050027397 85
0.28461236 1.2583766 0.068246834 34
0.29345661 1.2421011 0.085100345 58
0.28846925 1.251279 0.10647142 81
0.27788612 1.2707546 -0.0099478718 86
0.27789423 1.2707396 0.15270324 76
0.27963576 1.2717013 0.0099478718 73
0.29228252 1.2482333 0.02847076 100
0.28629461 1.2593448 0.048632905 88
0.29008558 1.25231 0.067271881 51
0.29015082 1.2521889 0.10647142 73
0.28343034 1.2646599 -0.0098082526 88
0.28330964 1.2648839 0.15063268 78
0.29278263 1.251523 0.0095290141 76
0.2996833 1.2386047 0.027842728 100
0.2918449 1.2532785 0.047935657 89
0.29279041 1.2515085 0.067028143 51
0.29376993 1.2496748 0.10570818 73
0.28147638 1.2726889 -0.0099478718 96
0.28330481 1.2692659 0.15166797 69
0.29718986 1.2470725 0.0094242999 93
0.29375708 1.2535504 0.028680105 100
0.29531476 1.2506109 0.047587037 90
0.29067057 1.2593749 0.068003096 51
0.29656455 1.2482525 0.08572609 58
0.295362 1.2505219 0.10570818 73
0.28501752 1.2700427 -0.0098780617 87
0.28767562 1.2650266 0.15011504 78
0.29885668 1.2479521 0.0094242999 93
0.28957987 1.2656069 0.048981529 87
0.29607385 1.2532481 0.067028143 51
0.29795408 1.2496698 0.10532656 75
0.28850657 1.2676494 0.15063268 70
0.29951873 1.2505555 0.009459204 77
0.28846207 1.2717681 0.049504463 86
0.29584271 1.2576082 0.067515619 51
0.29863867 1.252244 0.10570818 81
0.29027587 1.2682883 -0.0098082526 88
0.28926536 1.270227 0.15115032 77
0.29477108 1.2638624 0.0097035384 90
0.29844779 1.256748 0.047935657 59
0.29845771 1.2567289 0.067271881 69
0.29942217 1.2548625 0.1060898 66
0.28926253 1.2745212 -0.0099129668 100
0.29722166 1.2591206 0.14752686 79
0.29641017 1.264706 0.0097035384 90
0.29002485 1.2771626 -0.0099478718 100
0.29355755 1.2702709 0.15063268 78
0.29115775 1.2799853 -0.0099827768 100
0.29644215 1.2695737 0.15011504 78
0.2981002 1.2704117 0.15011504 78
0.29903883 1.272691 0.049155839 29
0.29633218 1.2781125 -0.0099129668 100
0.29803523 1.2747011 0.15115032 77
0.29890579 1.2771589 -0.0098780617 100
