# .PCD v0.7 - Point Cloud Data file format
VERSION 0.7
FIELDS x y z intensity
SIZE 4 4 4 4
TYPE F F F F
COUNT 1 1 1 1
WIDTH 794
HEIGHT 1
VIEWPOINT 0 0 0 1 0 0 0
POINTS 794
DATA ascii
-1.1483095 0.16301972 0.020244792 4
-1.1844816 0.1681549 0.062698476 31
-1.0903745 0.15848541 0.019232552 6
-1.0186107 0.15168719 0.017975979 6
-1.0042372 0.1531318 0.017731644 3
-1.0847034 0.1692782 0.019162742 1
-0.63630652 1.1311078 0.022653224 1
-0.64794397 1.1612622 0.023211701 1
-0.63614047 1.1495197 0.022932462 1
-0.62999934 1.1483371 0.022862652 1
-0.62025279 1.1399901 0.022653224 1
-0.61646903 1.1420406 0.022653224 1
0.090278029 3.182888e-05 0.046997689 10
0.055289477 0.0029476285 0.047835063 61
0.056012779 0.0096169114 0.047521047 42
0.043018162 0.0014135838 0.048253752 100
0.045601487 0.011680841 0.047730394 100
0.039754629 0.0083797574 0.04804441 72
0.035848856 0.0085998178 0.048149079 35
0.034449995 0.011960447 0.04804441 18
0.027165592 0.012108326 0.048253752 8
0.02654022 0.017400742 0.04804441 9
0.03079325 0.029046535 0.047416378 9
-1.1888564 0.45180115 0.030855855 7
-1.1859112 0.45797303 0.030786045 9
-1.1535103 0.46993169 0.030192664 11
-1.1467161 0.47753611 0.030053044 12
-1.1398394 0.48479173 0.029913425 12
-1.1249928 0.49300706 0.029634187 12
-1.1239755 0.49917495 0.029599281 13
-1.1070886 0.50754297 0.029285138 17
-1.0921855 0.51577628 0.0290059 23
-1.0950835 0.5214982 0.029040804 15
-1.0820928 0.52928454 0.02879647 16
-1.1006954 0.53213114 0.029110614 15
-1.0876539 0.53984272 0.02886628 23
-1.0825038 0.5463748 0.028761566 20
-1.0872386 0.55154568 0.028831376 11
-1.1098423 0.55471867 0.029215328 2
-1.0425808 1.1344571 0.028517231 3
-1.0231183 1.1300032 0.084574908 5
-1.0289936 1.1313478 0.14171524 6
-1.0159783 1.1341264 0.028063469 8
-1.000453 1.1305164 0.083423518 18
-1.0219007 1.1355035 0.1411923 34
-0.99341744 1.1339952 0.027679516 27
-0.99348086 1.1340102 0.083109498 84
-1.0285015 1.1422694 0.14188954 81
-0.98630339 1.1379831 0.027574802 36
-0.99414319 1.139861 0.083214171 100
-1.0252547 1.147313 0.14171524 95
-0.98876482 1.1448259 0.027644612 43
-0.97524697 1.1415331 0.08227212 100
-1.0005651 1.1477003 0.13962349 87
-0.98550588 1.1497148 0.027609708 25
-0.98169619 1.1487727 0.082690813 95
-0.9953689 1.1521538 0.13927488 94
-0.96684808 1.1501616 0.027295563 26
-0.99018544 1.1560106 0.083214171 54
-0.99416059 1.157007 0.13927488 85
-0.96744984 1.155947 0.027330469 38
-0.97721487 1.1584307 0.082586139 36
-0.99859303 1.163868 0.13979781 74
-0.96415704 1.1607419 0.027295563 61
-0.97391576 1.1632602 0.082481466 60
-0.989492 1.1672798 0.13910057 94
-0.9724564 1.168557 0.027470088 58
-0.96866947 1.1675657 0.08227212 100
-0.97267634 1.1686146 0.13770607 91
-0.95752686 1.1702768 0.027225753 78
-0.95955092 1.1708142 0.081853434 94
-0.95972174 1.1708596 0.1366602 99
-0.94453496 1.172417 0.027016325 88
-0.96007115 1.1766003 0.081958108 100
-0.97178036 1.1797531 0.13788038 100
-0.94697934 1.1786848 0.027086135 93
-0.95286244 1.1802909 0.081644088 100
-0.9722628 1.1855874 0.1380547 99
-0.95325261 1.1860414 0.027225753 92
-0.93409699 1.1807398 0.080702044 100
-0.9669624 1.1898357 0.13770607 92
-0.95179123 1.1912861 0.027225753 92
-0.93650025 1.1869967 0.08091139 86
-0.95205933 1.1913613 0.13648589 98
-0.9426176 1.1943384 0.027086135 77
-0.93695682 1.1927291 0.081016064 72
-0.93908066 1.1933329 0.13544002 100
-0.95258099 1.2031295 0.027295563 55
-0.93731648 1.1987295 0.081120729 42
-0.94709128 1.2015471 0.13631158 99
-0.94338185 1.2061296 0.027155945 44
-0.93197662 1.2027988 0.08091139 22
-0.95896322 1.21068 0.13753176 84
-0.93226272 1.2085035 0.026981421 71
-0.9170503 1.2040031 0.080178685 26
-0.94977361 1.2136838 0.13683452 85
-0.93463176 1.2145636 0.027051231 74
-0.91751641 1.2094386 0.080283359 32
-0.93684214 1.2152256 0.13578865 94
-0.91584808 1.2145205 0.026737086 78
-0.91788477 1.2151381 0.080388032 80
-0.92574579 1.2175219 0.1349171 100
-0.90671915 1.2170323 0.026597468 88
-0.92594749 1.2229331 0.08091139 100
-0.92425352 1.2224132 0.1349171 99
-0.90125185 1.2211812 0.026527658 89
-0.90520531 1.2224102 0.079864666 93
-0.92448801 1.2284051 0.13509139 77
-0.9073779 1.2283912 0.026667276 89
-0.90179187 1.2266341 0.07976 76
-0.91725808 1.2314987 0.13456847 54
-0.90195805 1.2322623 0.026597468 77
-0.90399534 1.2329109 0.079969339 72
-0.90045017 1.2317822 0.13317397 46
-0.89470679 1.2352357 0.026492752 83
-0.90435332 1.2383422 0.080074012 84
-0.90080744 1.2372003 0.13334829 48
-0.88340443 1.2376783 0.02631823 96
-0.90634185 1.245162 0.080283359 100
-0.91226166 1.2470934 0.13456847 59
-0.88564366 1.2436821 0.026388038 100
-0.88958472 1.2449824 0.07944598 100
-0.9125635 1.2525642 0.13474278 78
-0.88398153 1.2486906 0.026388038 99
-0.88033992 1.2474749 0.079027295 100
-0.9146499 1.2589283 0.13509139 84
-0.889965 1.2560011 0.026527658 96
-0.89010304 1.2560477 0.079655327 100
-0.8979184 1.2586854 0.13369691 77
-0.87682003 1.2573971 0.02631823 93
-0.8845318 1.2600313 0.07944598 100
-0.89234668 1.2627009 0.13334829 97
-0.86385483 1.2582097 0.0261088 93
-0.88478678 1.2654376 0.079550654 100
-0.88693839 1.2661806 0.13299966 100
-0.86960703 1.266027 0.02624842 81
-0.86033565 1.2627873 0.07829459 97
-0.90579981 1.2786732 0.1349171 61
-0.86795443 1.2707318 0.02624842 77
-0.84927732 1.2641363 0.077771232 59
-0.90222627 1.2828345 0.13474278 36
-0.86808115 1.2763507 0.026283324 83
-0.8475439 1.2690177 0.077771232 23
-0.89104551 1.2845507 0.13387123 36
-0.8569892 1.277657 0.0261088 96
-0.86466855 1.2804279 0.078817949 42
-0.86684173 1.2812121 0.13177948 28
-0.84375924 1.2789404 0.025899371 96
-0.86457425 1.2865412 0.078922622 85
-0.8760975 1.2907488 0.13282534 16
-0.84206384 1.2835594 0.025899371 100
-0.85348457 1.2877728 0.078399263 100
-0.87062424 1.294096 0.13247673 11
-0.84401006 1.2898128 0.025969181 100
-0.83482617 1.2863883 0.077457212 89
-0.90238899 1.3115819 0.13561434 1
-0.84602135 1.2958425 0.026038991 100
-0.83123702 1.2902737 0.077352546 51
-0.85956591 1.3009443 0.13177948 1
-0.83660966 1.2981087 0.025899371 88
-0.83678681 1.2981762 0.077771232 51
-0.83899134 1.2990158 0.13003637 11
-0.82551891 1.2991142 0.025724847 72
-0.84248406 1.3056402 0.078189917 59
-0.85768455 1.3114873 0.13195379 50
-0.82357031 1.3041523 0.025724847 74
-0.83120424 1.3071209 0.077666558 72
-0.85754734 1.3173652 0.1321281 100
-0.8347258 1.3140626 0.025969181 93
-0.81630844 1.3068264 0.076933853 67
-0.84635609 1.3186321 0.13125655 100
-0.83281821 1.3188928 0.025969181 100
-0.82556432 1.3160136 0.077561885 82
-0.83517331 1.3198277 0.130385 99
-0.81604546 1.3177625 0.025689943 100
-0.82179624 1.3200685 0.077457212 95
-0.82954711 1.3231764 0.13003637 99
-0.80680722 1.3192879 0.025550323 100
-0.82736987 1.3276124 0.077875905 95
-0.83139879 1.3292434 0.130385 100
-0.80858344 1.3255343 0.025620133 100
-0.81432301 1.3278813 0.077247873 100
-0.81837314 1.3295374 0.12933913 100
-0.79315001 1.3192235 0.17817298 21
-0.81043059 1.3315625 0.025689943 100
-0.79031152 1.3232577 0.075991809 100
-0.82019347 1.3355925 0.12968774 100
-0.76930231 1.3145854 0.17524812 16
-0.80477065 1.334769 0.025620133 100
-0.79943305 1.3325438 0.076619841 100
-0.80717689 1.3357722 0.12864187 100
-0.7600643 1.3161321 0.17427316 15
-0.79531997 1.3366259 0.025480513 100
-0.79368085 1.3359356 0.076410495 100
-0.79774946 1.3376491 0.12794463 100
-0.79647225 1.3371112 0.17939167 24
-0.78597313 1.3381879 0.025340894 100
-0.79537314 1.3421857 0.076619841 74
-0.80126017 1.3446896 0.12846756 100
-0.75977629 1.3270465 0.17476064 18
-0.80970579 1.3538946 0.025829561 59
-0.80437881 1.3516071 0.077247873 40
-0.8175531 1.3572645 0.13021068 35
-0.77424008 1.3386647 0.17695428 7
-0.81499809 1.3618191 0.025969181 86
-0.80050796 1.3555367 0.0771432 89
-0.83743054 1.3715451 0.13230242 48
-0.77588946 1.3448629 0.17744176 11
-0.8021391 1.3612971 0.025759751 100
-0.8096413 1.364578 0.077771232 100
-0.81910461 1.3687162 0.13073361 100
-0.78680843 1.354593 0.17914793 29
-0.7982375 1.3652058 0.025724847 100
-0.80573052 1.3685138 0.077666558 100
-0.80789298 1.3694685 0.12986206 100
-0.78112775 1.3576524 0.17866045 29
-0.79594213 1.3703783 0.025724847 100
-0.81801456 1.380224 0.078503937 100
-0.80558115 1.3746779 0.12986206 100
-0.78248733 1.3643765 0.17914793 28
-0.7938382 1.3750728 0.025724847 100
-0.8049491 1.3800756 0.077875905 100
-0.81799608 1.3859501 0.13125655 100
-0.74601299 1.3535392 0.1745169 18
-0.79546565 1.3811799 0.025794657 100
-0.79746324 1.3820873 0.077561885 100
-0.81231791 1.3888352 0.13090792 100
-0.77479595 1.3717906 0.17866045 21
-0.79877728 1.3883729 0.025899371 100
-0.81165832 1.3942785 0.078503937 100
-0.80652732 1.3919261 0.1305593 100
-0.76546937 1.3731022 0.1776855 15
-0.78753632 1.3888786 0.025724847 100
-0.80584568 1.3973503 0.07829459 100
-0.80073172 1.394984 0.13021068 100
-0.77416557 1.382692 0.17914793 10
-0.78899175 1.3952358 0.025794657 100
-0.81088632 1.4054594 0.078713275 100
-0.80215234 1.4013811 0.1305593 100
-0.76302546 1.383111 0.17792924 9
-0.79041892 1.4016107 0.025864467 100
-0.80143291 1.4068005 0.07829459 100
-0.80354482 1.4077957 0.13090792 100
-0.75369447 1.384306 0.17695428 3
-0.79181796 1.4080031 0.025934275 100
-0.79198688 1.4080834 0.077875905 100
-0.81210643 1.4176499 0.13195379 100
-0.75871319 1.3922627 0.17792924 1
-0.80040032 1.417873 0.026143705 100
-0.79875511 1.4170837 0.078399263 100
-0.8098374 1.4224005 0.13195379 100
-0.7891311 1.4182265 0.025969181 100
-0.80547673 1.4261389 0.078922622 100
-0.8003785 1.423671 0.13125655 100
-0.79045385 1.4246521 0.026038991 100
-0.8067674 1.4326193 0.079131968 100
-0.8088302 1.4336267 0.13230242 100
-0.7918635 1.4308605 0.0261088 100
-0.80097908 1.4353499 0.078922622 100
-0.80662209 1.4381292 0.13230242 100
-0.7931301 1.43732 0.02617861 100
-0.79507107 1.4382844 0.078713275 100
-0.81855601 1.4499526 0.13369691 100
-0.80521291 1.448936 0.026457848 100
-0.79999036 1.4463196 0.079131968 100
-0.80916828 1.4509175 0.13299966 100
-0.79914623 1.452094 0.026388038 100
-0.80463213 1.4548676 0.079550654 100
-0.80310732 1.4540966 0.13265105 100
-0.78975052 1.4529315 0.02624842 100
-0.80947119 1.4629841 0.079969339 100
-0.8079316 1.4621992 0.13334829 100
-0.79790789 1.4633255 0.026457848 100
-0.79626566 1.4624808 0.079341307 100
-0.81247252 1.4708171 0.13404553 100
-0.7920509 1.4659503 0.026388038 100
-0.79396194 1.4669414 0.079341307 100
-0.81898457 1.4799173 0.1349171 100
-0.7931574 1.4724842 0.026457848 100
-0.79683048 1.4744053 0.079655327 100
-0.81296712 1.4828448 0.13456847 100
-0.78374499 1.4732039 0.02631823 96
-0.79802066 1.4807307 0.079864666 100
-0.79825872 1.4808562 0.13334829 100
-0.78822047 1.4818441 0.026457848 26
-0.79893321 1.4875425 0.080074012 20
-0.79388529 1.4848573 0.13317397 60
-0.18110818 1.3082321 0.015846785 9
-0.20010585 1.3262656 0.016300548 11
-0.17893487 1.3145196 0.015881689 13
-0.21218282 1.3435121 0.016649596 29
-0.18308401 1.3256347 0.016056214 29
-0.20021319 1.3427519 0.016475072 24
-0.20623678 1.35133 0.016649596 39
-0.20104069 1.3515178 0.016579786 32
-0.18954509 1.3467574 0.016370358 32
-0.19696265 1.3567469 0.016579786 29
-0.19334173 1.35811 0.016544882 20
-0.19910377 1.3669322 0.016719405 9
-0.20637274 1.3770533 0.016928835 8
-0.18247694 1.3620906 0.016440166 21
-0.18660873 1.3696938 0.016579786 19
-0.203067 1.3874764 0.016998643 7
-0.2072928 1.3949302 0.017138263 11
-0.1958794 1.389901 0.016928835 8
-0.19984472 1.3976349 0.017068453 12
-0.20223612 1.4041151 0.017173167 4
-0.19696915 1.4041486 0.017103359 4
-0.19627094 1.4080517 0.017138263 7
-0.18797773 1.4054337 0.016998643 7
-0.18877679 1.4106259 0.017068453 12
-0.1910547 1.4171468 0.017173167 15
-0.17827994 1.4104855 0.016928835 8
-0.1971131 1.4314549 0.017417502 11
-0.19330704 1.4327281 0.017382598 12
-0.18206161 1.4273027 0.017173167 15
-0.20052832 1.4486303 0.017661836 10
-0.18632638 1.4404755 0.017382598 14
-0.18840307 1.4470961 0.017487312 5
-0.17722028 1.4415298 0.017277882 6
-0.1821937 1.4508728 0.017452406 11
-0.18857032 1.4616256 0.017661836 12
-0.19779032 1.4751749 0.017941074 10
-0.19967437 1.4819119 0.018045789 5
-0.18562293 1.4734681 0.01776655 3
-0.18604368 1.4788057 0.01783636 3
-0.18930721 1.4869391 0.017975979 3
-0.18978751 1.4921806 0.018045789 3
-0.18726212 1.4947585 0.018045789 5
-0.17793578 1.4956524 0.017941074 22
0.13055867 1.2892628 0.12975012 5
0.15589979 1.26139 0.010995016 12
0.16387746 1.2514429 0.032343622 30
0.1186969 1.3077769 0.060311776 21
0.14342859 1.2769399 0.12631555 17
0.12817582 1.295958 0.18065569 6
0.15761745 1.2627627 0.010995016 38
0.16556036 1.2527878 0.032343622 60
0.15656883 1.2640796 0.055256739 49
0.15677321 1.2638229 0.077508904 14
0.15500623 1.2660419 0.10043093 23
0.15131542 1.2706769 0.12440746 72
0.18825257 1.2242904 0.13407083 15
0.1480653 1.2747585 0.17289113 14
0.16182029 1.2609921 0.010925206 100
0.17839608 1.240026 0.031401575 100
0.15458891 1.2701386 0.055779677 100
0.15726823 1.2667496 0.077752642 28
0.17266658 1.247273 0.096363634 37
0.16280624 1.2597449 0.12135452 100
0.1922577 1.2224929 0.13317102 46
0.15582025 1.2685812 0.17030293 43
0.15983242 1.2670629 0.011029921 100
0.16894019 1.2554599 0.032343622 100
0.15141633 1.2777848 0.056476921 100
0.17984134 1.2415721 0.073609084 31
0.17921364 1.2423718 0.095112152 25
0.17421579 1.2487389 0.11830158 100
0.18421343 1.2360022 0.13677025 45
0.15517738 1.2729933 0.1713382 43
0.16648671 1.2621127 0.010890301 100
0.17923108 1.2457595 0.031610917 92
0.15319127 1.279173 0.056476921 100
0.17538854 1.2506902 0.074827775 30
0.17600772 1.2498956 0.096363634 37
0.18192324 1.242305 0.11639348 100
0.18943596 1.2326649 0.13542053 38
0.14506051 1.2896061 0.1765146 41
0.1644488 1.2681258 0.010995016 51
0.17958832 1.2485659 0.031715591 61
0.16097942 1.2726083 0.055605363 73
0.17333952 1.2566392 0.07555899 30
0.16913757 1.262068 0.09855371 24
0.16907147 1.2621534 0.1209729 25
0.1969361 1.2261528 0.13317102 31
0.14087358 1.2985847 0.17910278 26
0.17228216 1.2615405 0.010820492 78
0.18126106 1.2498559 0.031715591 61
0.17244819 1.2613245 0.054210871 51
0.1774596 1.2548029 0.075071514 60
0.1913192 1.2367668 0.093234941 53
0.17557669 1.2572532 0.11944643 12
0.19021875 1.2381989 0.13632034 22
0.15331513 1.2862232 0.17444403 56
0.1752989 1.2613316 0.010785587 52
0.15637705 1.2861431 0.034018371 27
0.16700235 1.2722106 0.055256739 49
0.17803523 1.2577436 0.075315252 45
0.19423026 1.2365077 0.092922069 53
0.19284195 1.2383281 0.1144854 13
0.19666412 1.2333162 0.13452072 38
0.17278212 1.2646317 0.16667947 67
0.18184453 1.2562594 0.010645968 40
0.16059232 1.2843292 0.033809029 28
0.16755506 1.2751329 0.055431053 49
0.18932605 1.2463778 0.073365346 46
0.1910913 1.2440462 0.094173551 52
0.20395944 1.2270501 0.11143246 14
0.20181248 1.2298857 0.13317102 46
0.17217878 1.2690259 0.16771474 67
0.18345904 1.2574775 0.010645968 40
0.17190254 1.2728471 0.032971654 29
0.17042962 1.2748059 0.055256739 49
0.18971476 1.2491578 0.073609084 93
0.1914781 1.2468127 0.094486415 52
0.1995776 1.2360408 0.11334054 13
0.21153748 1.220135 0.13002171 32
0.17847967 1.2640998 0.16564418 68
0.18277052 1.261959 0.010715778 53
0.19516522 1.2453544 0.031087559 31
0.16981041 1.279321 0.055605363 49
0.19851425 1.2408679 0.072146654 79
0.19905287 1.2401464 0.092922069 53
0.1929858 1.2482741 0.11601187 13
0.21544221 1.2181903 0.1291219 32
0.18020666 1.2653936 0.16564418 68
0.18457609 1.2633016 0.010715778 66
0.204043 1.2370224 0.030459527 32
0.18709716 1.2598984 0.053339314 52
0.19197112 1.2533188 0.073852822 93
0.20548174 1.2350802 0.091670595 81
0.20175287 1.240114 0.11372216 13
0.21244726 1.2256771 0.13092151 32
0.18202487 1.2667457 0.16564418 68
0.1945931 1.2532973 0.010471444 82
0.20212558 1.2430543 0.030773543 64
0.19117016 1.257952 0.05299069 100
0.18542814 1.2657602 0.07555899 75
0.20593697 1.2378714 0.091983467 93
0.2022329 1.2429084 0.11410378 13
0.21865794 1.2205729 0.1291219 24
0.19062805 1.2586892 0.16253836 70
0.19156605 1.2609954 0.010611063 94
0.20495659 1.2426525 0.03066887 64
0.1905261 1.2624199 0.053339314 78
0.20354715 1.2445832 0.072146654 63
0.20407808 1.243856 0.092922069 79
0.21546149 1.2282627 0.1102876 14
0.21908373 1.2233007 0.12957181 16
0.19119704 1.2615008 0.163056 70
0.19093531 1.2654819 0.010680873 80
0.21715644 1.2292988 0.029726824 67
0.19224715 1.2636718 0.053339314 78
0.20870042 1.2409675 0.071415432 64
0.20805255 1.2418616 0.092296332 80
0.20784691 1.2421453 0.11334054 13
0.23324671 1.2070955 0.12462288 8
0.18724686 1.2705718 0.16564418 68
0.19258034 1.26667 0.010680873 80
0.21051505 1.241748 0.030459527 65
0.18806735 1.2729414 0.054210871 100
0.21142358 1.2404854 0.071171694 81
0.21192685 1.2397861 0.091670595 100
0.20597422 1.2480578 0.1144854 13
0.25291032 1.1828356 0.11742445 17
0.19229403 1.2670679 0.16409127 69
0.19199151 1.2711689 0.010750682 79
0.2144857 1.2396798 0.030250182 65
0.19214138 1.2709591 0.053862248 100
0.20845243 1.2481256 0.072146654 79
0.21816167 1.2345338 0.090419121 100
0.20764506 1.2492559 0.1144854 20
0.24642396 1.19497 0.12057377 17
0.20076889 1.2588817 0.16098544 72
0.20291111 1.2593052 0.010471444 96
0.21835619 1.2375317 0.03004084 66
0.19841555 1.2656429 0.053165004 100
0.21003985 1.2492557 0.072146654 63
0.21970394 1.2356317 0.090419121 100
0.2092362 1.2503885 0.1144854 27
0.23205012 1.2182268 0.12687239 16
0.20239198 1.2600371 0.16098544 72
0.20692375 1.2572438 0.010401634 97
0.21769047 1.2419527 0.030250182 65
0.20473602 1.2603508 0.052467756 100
0.20828626 1.2553086 0.072877869 100
0.21564502 1.2448575 0.091983467 93
0.20413345 1.2612066 0.1167751 66
0.22912896 1.2257074 0.128672 32
0.19631922 1.2723045 0.16460891 85
0.21091774 1.2551602 0.010331824 98
0.21705163 1.2463839 0.030459527 97
0.1927534 1.2811499 0.054559495 100
0.21794266 1.245109 0.071171694 65
0.21730462 1.2460219 0.091983467 100
0.20809954 1.2591925 0.11601187 100
0.22513986 1.2348112 0.13092151 80
0.20028812 1.2703691 0.16357364 77
0.2057744 1.2661991 0.010541254 95
0.21985495 1.2459021 0.030354854 97
0.19908246 1.2758455 0.053862248 100
0.22299761 1.241372 0.070440479 65
0.22459805 1.2390649 0.090419121 100
0.21876162 1.2474781 0.11295892 82
0.23565054 1.2231328 0.1273223 81
0.2097449 1.2604756 0.15995017 72
0.20750856 1.2673976 0.010541254 81
0.22491628 1.2421166 0.03004084 99
0.2098898 1.2639394 0.052467756 100
0.21901602 1.2506855 0.071659178 80
0.22511709 1.241825 0.090731993 95
0.21597672 1.2550995 0.1144854 81
0.22949791 1.2354627 0.13047162 96
0.21474588 1.256887 0.15839726 73
0.21827346 1.2553825 0.010262015 84
0.22882015 1.2399507 0.029831495 66
0.21161604 1.2651236 0.052467756 100
0.22069594 1.251838 0.071659178 64
0.23122445 1.2364326 0.089480512 100
0.21988755 1.2530208 0.11372216 100
0.22782591 1.2414054 0.13182132 94
0.21753749 1.2564594 0.15787962 73
0.22558254 1.248263 0.010087491 71
0.22709897 1.2460275 0.030145511 65
0.21110952 1.2695994 0.05281638 79
0.2246086 1.2496989 0.071171694 81
0.22398335 1.2506206 0.091983467 100
0.2303924 1.2411723 0.11066922 100
0.23275524 1.2376889 0.13047162 96
0.21489972 1.2640119 0.15995017 72
0.21831983 1.2626629 0.010366729 41
0.21872392 1.2620627 0.031087559 31
0.21063012 1.2740848 0.053165004 52
0.22961086 1.2458917 0.070440479 98
0.2267662 1.2501171 0.091670595 100
0.23752114 1.2341422 0.10876112 94
0.23765466 1.2339438 0.1291219 100
0.2166262 1.2651786 0.15995017 80
0.22004154 1.2638177 0.010366729 41
0.21822432 1.2665374 0.031296901 31
0.20796412 1.2818928 0.053862248 51
0.23127401 1.2470071 0.070440479 98
0.23283392 1.2446725 0.090419121 100
0.23259884 1.2450244 0.11105084 84
0.2371107 1.238272 0.13002171 100
0.21191704 1.2759769 0.163056 78
0.22397763 1.2616334 0.010296919 42
0.21775195 1.2710216 0.031506244 31
0.21415755 1.2764418 0.053165004 52
0.22526136 1.2596976 0.072146654 63
0.24431828 1.2309602 0.087603301 99
0.22991884 1.2526742 0.1125773 96
0.24305516 1.2328649 0.12822211 97
0.22436196 1.2610538 0.15787962 73
0.22569573 1.2627684 0.010296919 42
0.20413092 1.2955353 0.032971654 29
0.22249931 1.2676252 0.052119136 54
0.23570317 1.2475624 0.07019674 66
0.23724145 1.2452252 0.090106249 96
0.23916075 1.2423089 0.10990598 92
0.2382448 1.2437005 0.13092151 96
0.2282021 1.25896 0.15684435 74
0.23397878 1.2538521 0.010087491 28
0.21907347 1.2766732 0.031715591 30
0.22750688 1.263761 0.051596198 54
0.228688 1.2619526 0.072146654 79
0.2399824 1.2446601 0.089793384 100
0.24510559 1.236816 0.10837951 87
0.24096584 1.2431543 0.13047162 96
0.22885445 1.2616978 0.15736198 74
0.23550043 1.2548425 0.010087491 43
0.2380574 1.2509005 0.03004084 33
0.21604857 1.2848301 0.053687938 52
0.24103796 1.2463056 0.069709264 83
0.2490001 1.234031 0.087603301 99
0.24230003 1.24436 0.10990598 85
0.24881685 1.2343135 0.1277722 97
0.22934943 1.264325 0.15787962 73
0.23503 1.2593002 0.0101573 57
0.24838638 1.2385514 0.029203463 34
0.22971025 1.2675643 0.051770512 54
0.24055353 1.2507195 0.07019674 66
0.24741408 1.2400618 0.08854191 84
0.2428951 1.247082 0.1102876 92
0.25254902 1.2320848 0.12687239 99
0.23421386 1.2605681 0.1563267 74
0.23467308 1.2638222 0.01022711 70
0.24473128 1.2480704 0.029726824 67
0.23368061 1.2653764 0.051421888 82
0.2391125 1.2568698 0.070927955 48
0.25764388 1.2278484 0.086038955 87
0.24041939 1.2548231 0.11181407 84
0.26053733 1.2233171 0.12417299 83
0.23393461 1.2649786 0.15736198 74
0.24068001 1.2581632 0.010087491 71
0.2421259 1.2558814 0.030145511 98
0.23754454 1.2631116 0.051073264 83
0.24187639 1.2562752 0.070684217 32
0.25712928 1.2322034 0.086664692 71
0.25472331 1.2360004 0.10723466 81
0.25586322 1.2342014 0.12687239 99
0.23566434 1.2660789 0.15736198 74
0.25090119 1.245697 0.0098082526 89
0.2438238 1.2569531 0.030145511 98
0.23502564 1.270946 0.051770512 81
0.24674559 1.2523062 0.069953002 49
0.25243565 1.2432566 0.08854191 56
0.24694663 1.2519865 0.11066922 92
0.25437352 1.2401745 0.12822211 89
0.23431301 1.2720795 0.15891489 65
0.24409556 1.2603108 0.010087491 71
0.25081146 1.2495464 0.029622151 100
0.24415857 1.2602098 0.05055033 84
0.24317718 1.2617828 0.071171694 97
0.25408944 1.2442924 0.08854191 56
0.25590536 1.2413818 0.10799789 87
0.26014262 1.2345902 0.12642249 99
0.23402235 1.2764564 0.15995017 64
0.2414248 1.268069 0.01022711 70
0.25442323 1.2470883 0.029412808 100
0.23940426 1.2713304 0.051596198 82
0.24681461 1.2593694 0.070684217 81
0.26182303 1.2351444 0.086664692 86
0.24808201 1.2573236 0.11143246 77
0.26673523 1.2272156 0.12417299 100
0.23561499 1.2774465 0.15995017 64
0.24735412 1.2623289 0.010087491 71
0.25818226 1.2447141 0.029203463 100
0.2411561 1.2724115 0.051596198 82
0.25164339 1.2553513 0.069953002 49
0.26965535 1.2260504 0.084787481 73
0.24464425 1.2667371 0.11334054 96
0.26323026 1.2365024 0.12642249 90
0.25155187 1.2555002 0.15270324 68
0.25028741 1.2617798 0.010052586 86
0.25688899 1.2509476 0.029517479 100
0.24516124 1.270191 0.051247578 82
0.25350919 1.2564933 0.069953002 49
0.26832446 1.2321838 0.08572609 58
0.2608577 1.2444355 0.10799789 79
0.26502362 1.2376001 0.12642249 90
0.2493968 1.2632411 0.15477379 67
0.25924879 1.2508446 0.0098082526 89
0.24926862 1.2673498 0.030459527 97
0.25309461 1.2610223 0.050201707 100
0.25726348 1.254128 0.069465525 49
0.27096164 1.2314739 0.085413218 87
0.25946802 1.2504821 0.10914274 78
0.26564923 1.2402595 0.12687239 99
0.24512279 1.2742062 0.15787962 65
0.2640152 1.2467122 0.0097035384 90
0.26128122 1.2512695 0.029412808 100
0.24866062 1.2723069 0.051247578 82
0.26508242 1.2449331 0.068003096 51
0.26037964 1.2527723 0.089167647 70
0.25710708 1.2582275 0.11066922 85
0.27230504 1.2328937 0.12462288 92
0.24688464 1.2752674 0.15787962 65
0.25954458 1.2580178 0.0099129668 87
0.26602736 1.2471255 0.029098792 100
0.25143483 1.2716436 0.051073264 83
0.26471147 1.2493365 0.068490572 50
0.2762107 1.2300158 0.084787481 73
0.25680491 1.2626209 0.11143246 84
0.28189588 1.2204635 0.12102367 86
0.24865019 1.2763224 0.15787962 65
0.26023313 1.2607507 0.0099478718 73
0.26769459 1.2481139 0.029098792 100
0.26027879 1.2606733 0.049853086 85
0.26638642 1.2503294 0.068490572 50
0.27580938 1.2343706 0.085413218 58
0.25852627 1.2636414 0.11143246 91
0.28247911 1.2230747 0.12147357 77
0.26023313 1.2607507 -0.0099478718 86
0.2582773 1.2640631 0.15373851 68
0.26287311 1.2599835 0.0099129668 87
0.27029139 1.2473242 0.028994121 100
0.26190752 1.2616314 0.049853086 85
0.26998806 1.2478418 0.068003096 68
0.28034696 1.2301644 0.084474608 59
0.2690981 1.2493606 0.10799789 79
0.27708629 1.2357287 0.12462288 100
0.25601041 1.2716948 0.15580906 67
0.26760018 1.2557964 0.0098082526 74
0.26593673 1.2586579 0.029622151 100
0.25861883 1.2712464 0.05072464 84
0.27165774 1.2488164 0.068003096 51
0.27500555 1.2430574 0.086664692 57
0.27274644 1.2469436 0.10723466 81
0.27969301 1.2349937 0.12417299 92
0.26164702 1.2660372 0.15373851 68
0.27121118 1.2532659 0.0097384425 75
0.2735469 1.249217 0.028994121 100
0.26924297 1.2566776 0.049155839 100
0.27721485 1.2428589 0.067028143 51
0.27953705 1.2388334 0.08572609 58
0.27236751 1.2512615 0.10799789 79
0.28805295 1.2240715 0.12102367 86
0.25557077 1.2803777 0.15787962 65
0.26801988 1.2629634 0.0099129668 87
0.27927187 1.2432925 0.028575432 100
0.25816825 1.2801862 0.051421888 82
0.283878 1.2352399 0.065809444 70
0.28027642 1.2415363 0.086038955 87
0.27510807 1.2505717 0.10761628 87
0.29455692 1.2165709 0.11877415 78
0.25936177 1.2780997 0.15684435 66
0.27064326 1.2621567 0.0098780617 73
0.28478655 1.2372398 0.028156744 100
0.26674631 1.2690222 0.050201707 85
0.27660298 1.2516571 0.068003096 51
0.28184158 1.2424281 0.086038955 58
0.27476493 1.2548953 0.10837951 79
0.29122934 1.2258892 0.12102367 77
0.26965615 1.2638958 -0.0099129668 76
0.26677012 1.2689803 0.15373851 68
0.27530608 1.2579013 0.0097733475 89
0.2766206 1.2555665 0.029203463 100
0.27239981 1.2630633 0.049504463 86
0.2821815 1.2456894 0.067028143 51
0.28543052 1.2399187 0.085413218 73
0.27164334 1.2644069 0.1102876 99
0.28804201 1.2352803 0.12327318 85
0.27040082 1.2666138 -0.0099478718 86
0.26661807 1.2733326 0.15477379 67
0.28570291 1.2430978 0.009459204 62
0.27043968 1.2704194 0.03004084 99
0.27889493 1.2552843 0.048632905 88
0.28182411 1.250041 0.067515619 51
0.28795367 1.2390689 0.085100345 58
0.28573182 1.243046 0.10532656 67
0.29148719 1.2327439 0.12237337 85
0.27394181 1.2641505 0.15166797 69
0.27775007 1.2615564 0.0098082526 89
0.2819525 1.2539688 0.028994121 100
0.27777943 1.2615035 0.049155839 87
0.28262359 1.2527572 0.067759357 68
0.28393221 1.2503945 0.086977564 57
0.28176016 1.2543161 0.10761628 87
0.29790583 1.2251645 0.12012386 86
0.27575481 1.2651589 0.15166797 69
0.28130773 1.2589515 0.0097384425 75
0.28548262 1.2513543 0.028784776 100
0.27077499 1.2781185 0.05072464 84
0.29091808 1.2414632 0.066053182 52
0.29408878 1.2356932 0.084161744 59
0.28053117 1.2603648 0.10876112 79
0.2984781 1.2277058 0.12057377 69
0.27367681 1.2728379 0.15373851 76
0.28127453 1.2634921 0.0098082526 74
0.28542253 1.2558745 0.028994121 100
0.28225631 1.2616891 0.048981529 87
0.28133824 1.263375 0.068978049 50
0.29304475 1.241877 0.085100345 58
0.28617159 1.254499 0.10723466 81
0.28127453 1.2634921 -0.0098082526 88
0.27560961 1.2738953 0.15373851 68
0.28956589 1.2520649 0.0095639192 91
0.2870352 1.2567493 0.028994121 100
0.29714653 1.2380332 0.046541166 92
0.28486294 1.2607701 0.068490572 50
0.29367203 1.2444644 0.085413218 58
0.29337871 1.2450074 0.10494494 75
0.28291246 1.2643805 -0.0098082526 88
0.28095505 1.2680037 0.15166797 69
0.29219455 1.2512084 0.0095290141 76
0.29250863 1.2506222 0.028575432 100
0.29031378 1.254719 0.048109971 89
0.29220232 1.2511939 0.067028143 51
0.29906121 1.2383914 0.084161744 59
0.29596549 1.2441697 0.10456333 75
0.28634426 1.2621284 0.14959741 70
0.29473022 1.2502949 0.0094941091 92
0.29597855 1.247946 0.028366089 100
0.28724727 1.2643741 0.048981529 87
0.297526 1.2450346 0.066053182 52
0.29505336 1.2496868 0.086038955 58
0.2947751 1.2502104 0.10570818 81
0.28979099 1.2595881 0.14856213 71
0.29471287 1.2548103 0.0095639192 91
0.29595447 1.2524524 0.028575432 100
0.28821915 1.2671423 0.049155839 58
0.29380244 1.2565392 0.067515619 51
0.29570612 1.252924 0.1060898 73
0.28446412 1.2742734 -0.0099478718 86
0.2862722 1.2708397 0.15166797 69
0.28984115 1.2680614 0.0098082526 74
0.29817125 1.2521138 0.047587037 90
0.29449821 1.2591456 0.067759357 51
0.29640001 1.2555047 0.10647142 73
0.29169279 1.2645165 -0.0097384425 88
0.29240662 1.26315 0.14907977 78
0.29626501 1.2601323 0.0096337283 90
0.29720533 1.2583159 0.067515619 51
0.29688025 1.2589439 0.14752686 71
0.29637426 1.2639263 0.029098792 100
0.29247868 1.2715127 0.069221787 67
0.29938546 1.2580621 0.14700922 81
0.2978102 1.2653778 0.048632905 59
0.29232624 1.27615 0.1521856 77
0.29313537 1.2787261 0.15270324 68
0.29508305 1.2797239 -0.0099478718 100
0.29766327 1.2787749 -0.0099129668 100
0.29776585 1.2832857 -0.0099827768 100
