# .PCD v0.7 - Point Cloud Data file format
VERSION 0.7
FIELDS x y z intensity
SIZE 4 4 4 4
TYPE F F F F
COUNT 1 1 1 1
WIDTH 788
HEIGHT 1
VIEWPOINT 0 0 0 1 0 0 0
POINTS 788
DATA ascii
-1.1682209 0.15442152 0.061756428 21
-1.1724707 0.16352813 0.020663649 21
-1.1818199 0.16882928 0.020838173 31
-1.0565987 0.15451777 0.01863917 6
-1.0303168 0.15453345 0.018185407 5
-1.0179392 0.15613025 0.017975979 2
-0.93115687 1.1731442 0.026143705 1
-0.88249809 1.1198454 0.024887132 1
-0.92294419 1.1796163 0.026143705 1
-0.91882092 1.1828308 0.026143705 1
-0.9146865 1.1860309 0.026143705 1
-0.91054088 1.1892165 0.026143705 1
-0.8589682 1.16295 0.02523618 1
-0.82652497 1.1272378 0.024398465 1
-0.81552434 1.1204156 0.024189034 1
-0.83268911 1.1524309 0.024817321 1
-0.83332324 1.1618302 0.024956942 1
0.055519909 0.0062348247 0.015881689 112
0.049097419 0.0022029281 0.04804441 38
0.045473456 0.0080324411 0.015951499 4
0.042326212 0.0090630054 0.047939736 73
0.0385589 0.0091821551 0.04804441 45
0.033666193 0.0076647401 0.048253752 26
0.026371241 0.0029641986 0.048672438 16
0.027092457 0.0097334385 0.048358422 17
0.026848793 0.014755368 0.048149079 8
0.028787732 0.02313751 0.047730394 9
-1.0238063 1.1269823 0.084574908 5
-1.0393996 1.1305193 0.1425868 4
-1.0400577 1.1365092 0.028482327 8
-1.0050347 1.1284363 0.083632857 7
-1.0245409 1.1329325 0.14136662 11
-0.9998917 1.1326678 0.02778423 12
-1.0174506 1.1367764 0.084365562 58
-1.0194488 1.137244 0.14101799 53
-0.9888888 1.1357636 0.027609708 36
-0.98701388 1.135318 0.082795486 100
-1.0220342 1.1436416 0.14136662 95
-0.98358554 1.14073 0.027539898 37
-0.97977585 1.1398091 0.082481466 100
-1.0128415 1.1478024 0.14066938 91
-0.9861663 1.1470343 0.027609708 33
-0.98041528 1.1456228 0.082586139 100
-0.99603349 1.1494561 0.13927488 89
-0.9791525 1.1504102 0.027504992 23
-0.9772895 1.1499467 0.082481466 74
-0.9890334 1.1528683 0.13875194 91
-0.97005993 1.1537875 0.027365373 30
-0.97982687 1.1562536 0.082690813 37
-1.00121 1.1616523 0.13997212 69
-0.96096247 1.157106 0.027225753 48
-0.97073025 1.1596085 0.08227212 34
-0.99018306 1.1645923 0.13910057 89
-0.96734363 1.1643901 0.027365373 61
-0.96742791 1.164412 0.082167454 84
-0.99072462 1.1704674 0.13927488 89
-0.9659577 1.1696842 0.027365373 71
-0.96604198 1.1697065 0.082167454 98
-0.97775799 1.1727954 0.13822901 98
-0.94909865 1.1708411 0.027086135 81
-0.96463746 1.174996 0.082167454 96
-0.96286935 1.1745232 0.13700883 100
-0.9554103 1.1781646 0.027225753 92
-0.95935923 1.1792353 0.081958108 100
-0.96144801 1.1798017 0.13700883 99
-0.94240743 1.1802368 0.027016325 96
-0.94251496 1.1802664 0.081120729 100
-0.9734562 1.1887717 0.13822901 98
-0.95252413 1.1886643 0.027225753 89
-0.9391498 1.1849377 0.081016064 94
-0.96622735 1.1924826 0.13770607 92
-0.95490247 1.1949935 0.027295563 92
-0.93961436 1.1906761 0.081120729 86
-0.95323902 1.1945238 0.1366602 99
-0.95333463 1.2005064 0.027295563 60
-0.93614239 1.1955831 0.081016064 66
-0.94784218 1.1989336 0.13631158 100
-0.94414085 1.2035224 0.027155945 44
-0.95191115 1.205777 0.081958108 24
-0.94633573 1.2041594 0.13631158 91
-0.92926461 1.2045298 0.026911611 59
-0.92937857 1.2045631 0.080806717 24
-0.9544459 1.2119267 0.13718314 85
-0.92773873 1.2096907 0.026911611 74
-0.91636676 1.2063071 0.080178685 24
-0.94525558 1.2149026 0.13648589 89
-0.92244309 1.2134353 0.026841801 75
-0.92064911 1.212895 0.080492698 46
-0.93423325 1.2169859 0.13561434 99
-0.91132253 1.2156558 0.026667276 81
-0.91145259 1.2156955 0.080074012 94
-0.9269467 1.2204206 0.13509139 100
-0.90211529 1.218394 0.026527658 83
-0.91370457 1.2219727 0.080283359 90
-0.91394323 1.2220464 0.13404553 89
-0.91199297 1.2270402 0.026737086 83
-0.90639919 1.2252915 0.079969339 76
-0.92186457 1.2301261 0.1349171 61
-0.90657562 1.230934 0.026667276 85
-0.90289682 1.2297699 0.079864666 68
-0.9202494 1.2352611 0.1349171 47
-0.90876657 1.2372355 0.026737086 79
-0.897479 1.2336202 0.079655327 85
-0.90723175 1.2367439 0.13387123 43
-0.89761549 1.2392417 0.026562562 88
-0.9034515 1.2411335 0.080074012 96
-0.90369838 1.2412134 0.13369691 49
-0.88266808 1.2399292 0.02631823 100
-0.90369588 1.2468265 0.080178685 100
-0.90583092 1.2475269 0.13404553 71
-0.88101894 1.2449273 0.02631823 99
-0.88875347 1.2474942 0.07944598 100
-0.91550106 1.2563713 0.13509139 82
-0.88693529 1.2524656 0.026457848 99
-0.88139778 1.2506063 0.079131968 100
-0.90812808 1.2595813 0.13456847 80
-0.88145548 1.2561922 0.026388038 93
-0.88160259 1.2562423 0.079236634 100
-0.90452367 1.2640274 0.13439415 82
-0.87218481 1.2585871 0.02624842 96
-0.88367432 1.2625344 0.07944598 100
-0.88583165 1.2632755 0.13282534 100
-0.86669284 1.2622359 0.02617861 83
-0.88383299 1.2681913 0.079550654 100
-0.89727527 1.272862 0.13404553 89
-0.85930604 1.2651894 0.026073895 72
-0.86512631 1.2672344 0.07860861 76
-0.91242868 1.2838552 0.13561434 47
-0.87264329 1.2754617 0.026353134 83
-0.85585409 1.2694964 0.078189917 40
-0.89748424 1.2842875 0.13439415 33
-0.87275225 1.2811005 0.026388038 96
-0.85222226 1.2737255 0.078085244 17
-0.88067955 1.2839484 0.13299966 31
-0.85216373 1.2792375 0.026038991 96
-0.85796458 1.2813443 0.078503937 59
-0.87513143 1.2875789 0.13265105 18
-0.84286886 1.2813722 0.025899371 100
-0.8599208 1.2876326 0.078713275 100
-0.85461289 1.2856839 0.13090792 13
-0.84116548 1.2859883 0.025899371 100
-0.8450883 1.2874433 0.077980578 100
-0.86410326 1.2944961 0.13195379 3
-0.84684557 1.293649 0.026038991 100
-0.83018249 1.2874024 0.077247873 53
-0.87159187 1.3029258 0.13282534 1
-0.8412692 1.2971048 0.025969181 96
-0.83583874 1.2950473 0.077666558 51
-0.84736508 1.2994143 0.13073361 3
-0.83568579 1.300528 0.025899371 79
-0.84332377 1.3034523 0.078189917 55
-0.84178728 1.302864 0.130385 22
-0.8319605 1.3046402 0.025864467 75
-0.8433159 1.3090332 0.07829459 68
-0.83248597 1.3048434 0.12968774 60
-0.82636088 1.3080049 0.025794657 83
-0.82282382 1.3066223 0.077247873 63
-0.85658985 1.319821 0.1321281 100
-0.82633442 1.3135405 0.025829561 100
-0.82279998 1.3121446 0.077352546 70
-0.84724957 1.3218002 0.13143086 97
-0.82814342 1.3198235 0.025899371 100
-0.82460934 1.3184135 0.077561885 95
-0.82865995 1.3200295 0.12986206 93
-0.81156927 1.3181756 0.025620133 77
-0.82658511 1.3242211 0.077771232 95
-0.825077 1.3236139 0.12968774 100
-0.80223805 1.3199118 0.025480513 41
-0.82649225 1.3297753 0.077875905 97
-0.82682735 1.3299115 0.13003637 100
-0.77949113 1.3106614 0.17622307 15
-0.77256411 1.3132322 0.024956942 17
-0.8042075 1.3262295 0.076724514 100
-0.83407944 1.3384991 0.13090792 100
-0.78126818 1.3168073 0.17671055 16
-0.5804109 1.2389251 0.021361746 8
-0.80410248 1.3317184 0.07682918 100
-0.82472521 1.3402734 0.13021068 100
-0.78485221 1.3237329 0.17744176 22
-0.24493247 1.1030166 0.015043974 17
-0.79292279 1.3325832 0.076305822 100
-0.80618733 1.33814 0.12864187 100
-0.79023486 1.3314571 0.17841671 19
-0.24929023 1.1081266 0.015148689 51
-0.79095083 1.3372674 0.076305822 96
-0.80419594 1.3428705 0.12864187 100
-0.78826684 1.3361319 0.17841671 21
-0.25368184 1.1131309 0.015253403 100
-0.80559391 1.3487692 0.077247873 44
-0.80045635 1.3465757 0.12846756 82
-0.76995116 1.3335515 0.17622307 15
-0.25247914 1.1159343 0.015253403 100
-0.81457001 1.3582414 0.077875905 57
-0.82222074 1.3615395 0.13073361 16
-0.77891356 1.3428705 0.1776855 7
-0.24564511 1.116617 0.015148689 37
-0.80314606 1.3594882 0.077352546 100
-0.82724553 1.369987 0.13143086 82
-0.77488416 1.3471761 0.17744176 18
-0.24443036 1.1193922 0.015148689 100
-0.80290836 1.365012 0.077457212 100
-0.81602389 1.3707803 0.1305593 100
-0.79466683 1.3613875 0.18036664 38
-0.24881262 1.1243186 0.015253403 90
-0.80650955 1.3716888 0.077771232 100
-0.80684465 1.3718375 0.12986206 100
-0.77828544 1.35917 0.17841671 26
-0.25669646 1.1311908 0.015427927 47
-0.81351537 1.3805012 0.07829459 100
-0.8047356 1.3765701 0.12986206 100
-0.76172656 1.3573132 0.17646681 24
-0.29916453 1.1537694 0.016265642 81
-0.80773598 1.3836119 0.078085244 100
-0.80260998 1.3812953 0.12986206 100
-0.76328629 1.3635235 0.17695428 18
-0.2668907 1.1426229 0.015672261 39
-0.80376869 1.3875186 0.077980578 100
-0.8149696 1.392628 0.13125655 100
-0.76662475 1.3705757 0.1776855 16
-0.249237 1.137946 0.015358117 43
-0.80886179 1.3955814 0.078399263 100
-0.80916828 1.3957224 0.13090792 100
-0.77894586 1.3818089 0.17963541 14
-0.22255856 1.1289375 0.014869451 50
-0.80666989 1.4003209 0.078399263 100
-0.79613453 1.395426 0.12986206 100
-0.77860242 1.3872805 0.17987914 10
-0.2176798 1.1299343 0.014799641 51
-0.81531149 1.4101399 0.079027295 100
-0.80115896 1.4035044 0.1305593 100
-0.76385814 1.3860154 0.17817298 7
-0.22184145 1.1351775 0.014904355 55
-0.8040418 1.4106309 0.078503937 100
-0.80614334 1.4116253 0.13125655 100
-0.77246624 1.3956918 0.17963541 3
-0.22417122 1.1395925 0.014974165 48
-0.79819244 1.4136326 0.07829459 100
-0.81108743 1.4197886 0.13195379 100
-0.23909062 1.150103 0.015288308 44
-0.8103326 1.4252688 0.079131968 100
-0.8052209 1.4228065 0.13160518 100
-0.23242974 1.1500962 0.015183593 50
-0.80994874 1.4306489 0.079236634 100
-0.80304867 1.427297 0.13160518 100
-0.21493751 1.1449046 0.014869451 56
-0.80763429 1.435392 0.079236634 100
-0.80790228 1.4355234 0.13230242 100
-0.21183169 1.1466861 0.014834546 25
-0.7981419 1.436586 0.078817949 100
-0.80914289 1.4420254 0.13265105 100
-0.22124881 1.1546985 0.015043974 47
-0.80116874 1.4439623 0.079131968 100
-0.81748623 1.4521015 0.13369691 100
-0.22704649 1.1609836 0.015183593 50
-0.80059201 1.4495723 0.079236634 100
-0.80263847 1.4506021 0.13247673 100
-0.2203275 1.1609786 0.015078879 47
-0.80533558 1.4578984 0.079655327 100
-0.80380768 1.457123 0.13282534 100
-0.21005803 1.1591088 0.014904355 55
-0.80825967 1.4653558 0.079969339 100
-0.80849499 1.4654763 0.1335226 100
-0.219356 1.1672642 0.015113784 51
-0.80050021 1.4673436 0.079655327 100
-0.81668085 1.4756987 0.13456847 100
-0.2144174 1.1681001 0.015043974 52
-0.79451495 1.4702084 0.07944598 100
-0.81774348 1.4823055 0.1349171 100
-0.22364527 1.1763451 0.015253403 56
-0.79559892 1.4767549 0.079655327 100
-0.80819315 1.4833698 0.13421984 100
-0.21868795 1.1771711 0.015183593 61
-0.79312378 1.4814476 0.079655327 68
-0.80393404 1.4871738 0.13404553 94
-0.21373433 1.1779674 0.015113784 51
-0.21061653 1.1795498 0.015078879 47
-0.2197265 1.1879274 0.015288308 38
-0.225205 1.1945882 0.015427927 36
-0.21679014 1.1932908 0.015288308 55
-0.1995824 1.1872122 0.014974165 54
-0.21563518 1.1994787 0.015323213 60
-0.20883459 1.1993279 0.015218498 56
-0.21956688 1.2087752 0.015462833 47
-0.19715118 1.199631 0.015043974 52
-0.20264322 1.2061166 0.015183593 56
-0.20794582 1.2129078 0.015323213 55
-0.21681195 1.2215065 0.015532642 51
-0.20671147 1.2189453 0.015358117 53
-0.19835293 1.217348 0.015218498 56
-0.19483888 1.2193155 0.015183593 50
-0.18992716 1.2197058 0.015113784 51
-0.20873415 1.2349529 0.015532642 46
-0.21399432 1.2416683 0.015672261 43
-0.1936667 1.2327117 0.015288308 55
-0.19551688 1.2372993 0.015358117 59
-0.19887054 1.2432333 0.015462833 57
-0.1972971 1.2457141 0.015462833 52
-0.19731516 1.2493994 0.015497737 41
-0.18900305 1.2475338 0.015358117 37
-0.18716401 1.2503679 0.015358117 32
-0.19225401 1.2571989 0.015497737 30
-0.1971342 1.2643298 0.015637357 29
-0.19207639 1.2647164 0.015567547 30
-0.19366491 1.2695336 0.015637357 29
-0.18860459 1.2698848 0.015567547 35
-0.18703049 1.2722027 0.015567547 30
-0.1885702 1.277036 0.015637357 34
-0.19648325 1.2866968 0.015846785 31
-0.19795561 1.291587 0.015916595 30
-0.19611251 1.2976909 0.015951499 13
-0.20240897 1.3060939 0.016126024 28
-0.20703119 1.3133812 0.016265642 27
-0.18577725 1.3018315 0.015846785 27
-0.17906666 1.3008653 0.015742071 23
-0.18204647 1.3069551 0.015846785 9
-0.19303405 1.319014 0.016126024 8
-0.18309242 1.3156345 0.015951499 8
-0.17958337 1.3169906 0.015916595 8
-0.18236029 1.3232772 0.016021309 4
0.13498142 1.2856259 0.011553493 11
0.13638952 1.2838764 0.12822364 11
0.15533179 1.2603422 0.14531837 7
0.14801931 1.2730122 0.01123935 24
0.16347146 1.2536763 0.032448292 29
0.16192624 1.2556099 0.054385185 25
0.1360836 1.2879477 0.081408724 13
0.14550865 1.2761538 0.10262101 11
0.14308834 1.2791824 0.12669717 47
0.19840941 1.2099572 0.13002171 16
0.1459789 1.2755654 0.17340876 7
0.15466237 1.2680773 0.011099731 88
0.17128593 1.2471335 0.031924933 91
0.1548681 1.267818 0.055605363 98
0.16618824 1.253556 0.075802729 30
0.18157563 1.2341698 0.093860678 26
0.1643078 1.2559252 0.12059128 100
0.17927444 1.237069 0.13767004 30
0.1512607 1.2723629 0.17185585 36
0.16144037 1.2632396 0.010960111 100
0.16685754 1.2563629 0.032448292 100
0.15792829 1.2676978 0.055431053 100
0.15322217 1.2736719 0.078727596 28
0.18572417 1.2324135 0.093234941 39
0.16609141 1.2573355 0.12059128 100
0.18340066 1.235363 0.13677025 45
0.14832276 1.2798911 0.1739264 49
0.16923934 1.2566507 0.010785587 100
0.1684725 1.2576308 0.032448292 100
0.16203633 1.265857 0.055082429 100
0.18180579 1.2405896 0.073365346 31
0.17995608 1.2429537 0.095112152 25
0.17738783 1.2462361 0.11753834 100
0.18614671 1.2350414 0.13632034 38
0.1535871 1.2766559 0.17237349 42
0.16988456 1.2596889 0.010820492 100
0.17769578 1.2496259 0.03182026 61
0.15416956 1.2799339 0.056476921 96
0.17022595 1.259249 0.076046467 29
0.17208469 1.2568545 0.097615108 24
0.19005367 1.2337056 0.11410378 82
0.19271475 1.2302775 0.13452072 31
0.14605883 1.2903826 0.1765146 41
0.16784772 1.2656977 0.010925206 65
0.16953275 1.263512 0.032657638 59
0.16559452 1.2686204 0.055082429 50
0.18033457 1.2495008 0.074340299 61
0.17370123 1.258105 0.097615108 37
0.17001703 1.2628839 0.1209729 12
0.19781253 1.2268298 0.13317102 15
0.14778671 1.2917193 0.1765146 48
0.16463092 1.2733133 0.011064826 51
0.18574172 1.2457414 0.031401575 31
0.16482764 1.2730563 0.055431053 49
0.1867539 1.2444193 0.073365346 62
0.19573706 1.2326869 0.092296332 53
0.1883629 1.2423179 0.11563025 20
0.19695997 1.2310897 0.13407083 31
0.16126329 1.2777115 0.1713382 58
0.17607114 1.2619195 0.010785587 39
0.18015268 1.2565501 0.032029606 30
0.17984873 1.25695 0.053513627 52
0.18480825 1.2504256 0.07409656 61
0.19615889 1.2354933 0.092609204 53
0.19833031 1.2326367 0.11295892 13
0.20093018 1.2292165 0.13317102 46
0.18291211 1.25292 0.16253836 70
0.18742704 1.2504523 0.010506349 40
0.16501001 1.2801576 0.033495013 28
0.17675012 1.2646005 0.054210871 51
0.19485784 1.2406056 0.072390392 63
0.18945655 1.247763 0.094799288 51
0.20112997 1.2322943 0.1125773 13
0.20018753 1.2335432 0.13407083 46
0.17878157 1.2619085 0.16512655 68
0.18431041 1.2581165 0.010645968 40
0.17158321 1.2751045 0.033076324 29
0.18086806 1.2627113 0.053862248 51
0.19293204 1.2466085 0.073121607 78
0.19231084 1.2474377 0.094486415 52
0.19686013 1.2413654 0.1144854 13
0.20531303 1.2300825 0.13272113 39
0.18165922 1.2616553 0.16460891 69
0.18601647 1.2593901 0.010645968 80
0.20433897 1.2347548 0.030354854 32
0.17069992 1.2799838 0.055605363 49
0.1863052 1.259002 0.074827775 100
0.19044295 1.2534385 0.095425025 63
0.19850767 1.2425952 0.1144854 13
0.21855092 1.2156463 0.12822211 32
0.18107185 1.2660383 0.16564418 68
0.18178809 1.2687012 0.010820492 78
0.20477703 1.2375653 0.030459527 65
0.18313336 1.2668792 0.054036561 77
0.20098451 1.2427018 0.072146654 79
0.2062127 1.2356209 0.091670595 81
0.19549492 1.2501369 0.11601187 13
0.21432096 1.2246392 0.13047162 32
0.18510056 1.2642148 0.16460891 69
0.18834591 1.2635952 0.010680873 93
0.19704956 1.2517161 0.031296901 62
0.19202232 1.2585775 0.05299069 79
0.19450668 1.2551868 0.073852822 62
0.20792159 1.2368777 0.091670595 94
0.20073813 1.2466819 0.11486702 13
0.21598956 1.2258663 0.13047162 16
0.19262329 1.2577573 0.16202073 70
0.19477603 1.2583859 0.010541254 95
0.19990802 1.2513301 0.03119223 63
0.18552637 1.2711029 0.054210871 100
0.19970539 1.2516086 0.073121607 78
0.20490566 1.244459 0.092922069 100
0.2127974 1.2336088 0.11143246 14
0.23248431 1.206542 0.12462288 16
0.18751007 1.2683756 0.16512655 68
0.19648299 1.2596228 0.010541254 95
0.20860529 1.2428334 0.030564198 64
0.18961039 1.2691414 0.053862248 100
0.20371273 1.2496096 0.072634131 94
0.21003297 1.2408561 0.091983467 93
0.20867148 1.2427417 0.11334054 13
0.23629159 1.2044878 0.12372308 8
0.19377542 1.2633729 0.163056 70
0.19353455 1.2673553 0.010680873 93
0.21723887 1.234282 0.029936166 66
0.1890336 1.2736351 0.054210871 100
0.20538899 1.2508155 0.072634131 78
0.21398014 1.2388288 0.09135773 100
0.20918006 1.2455261 0.11372216 13
0.24008062 1.2024124 0.12282328 17
0.1909982 1.2708941 0.16512655 68
0.20214295 1.2587595 0.010471444 82
0.21646407 1.2386374 0.030145511 98
0.20225856 1.258597 0.052467756 100
0.20353216 1.2568076 0.073365346 93
0.21897295 1.2351123 0.090419121 100
0.1982365 1.2642483 0.11791996 19
0.23586637 1.2113761 0.12507279 16
0.19938231 1.2626383 0.16202073 70
0.20154348 1.2632372 0.010541254 95
0.2146447 1.2446926 0.030459527 97
0.19706851 1.2695714 0.053513627 100
0.21325138 1.2466648 0.071659178 64
0.21603933 1.2427185 0.091670595 100
0.20562792 1.2574557 0.11601187 46
0.22504026 1.2299777 0.13002171 24
0.2055628 1.2575479 0.15995017 72
0.21007147 1.2545676 0.010331824 98
0.2070446 1.2588825 0.031296901 94
0.20330396 1.2642148 0.05281638 100
0.21483392 1.2477789 0.071659178 64
0.21987763 1.240589 0.091044858 100
0.20499131 1.2618095 0.1167751 92
0.22656739 1.2310528 0.13002171 48
0.20718145 1.2586874 0.15995017 72
0.21405038 1.2524692 0.010262015 98
0.22244874 1.2404079 0.03004084 99
0.20047715 1.2719622 0.053513627 100
0.21877238 1.2456877 0.071171694 65
0.21813592 1.2466018 0.091983467 100
0.21680689 1.2485105 0.11334054 96
0.22706518 1.2337782 0.13047162 88
0.20557764 1.2646372 0.16150309 70
0.20891485 1.2635092 0.010471444 82
0.22295719 1.2431915 0.030145511 98
0.19883308 1.2780962 0.054036561 100
0.21930623 1.2484741 0.071415432 48
0.23103285 1.2315071 0.088854775 98
0.21624678 1.2529007 0.11410378 96
0.23090199 1.2316964 0.12957181 88
0.20840472 1.2642472 0.16098544 72
0.2061148 1.2712927 0.010611063 94
0.22348112 1.2459772 0.030250182 98
0.20624414 1.2711041 0.053165004 100
0.20862606 1.2676319 0.07409656 76
0.22929341 1.2375045 0.089793384 100
0.21571329 1.2573006 0.11486702 100
0.2303108 1.2360214 0.13047162 96
0.20903921 1.2670296 0.16150309 86
0.21461937 1.2625724 0.010401634 83
0.22402051 1.248765 0.030354854 65
0.21920869 1.2558322 0.051421888 100
0.22153741 1.252412 0.071659178 64
0.23315078 1.2353554 0.089167647 100
0.22073111 1.2535962 0.11372216 100
0.22864917 1.241967 0.13182132 94
0.21186352 1.2666199 0.16098544 88
0.2196998 1.2587696 0.010296919 42
0.22793031 1.2465904 0.030145511 65
0.21309757 1.2685394 0.05264207 53
0.22989225 1.243687 0.07019674 82
0.22592872 1.2495521 0.091670595 94
0.22791746 1.2466093 0.11181407 98
0.23029861 1.2430857 0.13182132 94
0.21468076 1.2661966 0.1604678 88
0.22586343 1.2532766 0.0101573 42
0.22069576 1.2609814 0.030982886 31
0.20707121 1.2812951 0.053862248 51
0.22712472 1.2513961 0.071171694 81
0.23090562 1.2457588 0.090731993 95
0.23177025 1.2444696 0.11105084 98
0.23846486 1.2344882 0.1291219 100
0.20780623 1.2801993 0.16460891 69
0.20982325 1.281039 0.010715778 39
0.2224116 1.2621279 0.030982886 31
0.20885807 1.2824891 0.053862248 51
0.22550717 1.2574775 0.071902916 96
0.23804125 1.2386479 0.089167647 100
0.23234051 1.2472119 0.11143246 84
0.24116796 1.2339507 0.128672 97
0.21173018 1.2781744 0.16357364 69
0.22042719 1.2688756 0.010436539 27
0.21752599 1.273267 0.031610917 30
0.21943486 1.2703776 0.052467756 53
0.23049337 1.2536384 0.071171694 65
0.23750135 1.2430303 0.089793384 100
0.23725474 1.2434037 0.1102876 85
0.240641 1.2382778 0.12957181 96
0.22415465 1.2632333 0.15839726 73
0.23313481 1.2532997 0.010087491 43
0.22147492 1.2710841 0.031401575 31
0.23320007 1.2532002 0.05055033 56
0.22674146 1.2630513 0.072390392 100
0.24240369 1.2391623 0.088854775 98
0.23675624 1.2477762 0.11105084 98
0.24334595 1.2377251 0.1291219 96
0.22587833 1.2643677 0.15839726 73
0.236837 1.2509413 0.010017681 29
0.23612872 1.2520291 0.030145511 32
0.23254529 1.2575324 0.050898954 55
0.2423735 1.2424386 0.069221787 67
0.24280122 1.2417817 0.089167647 84
0.2457577 1.2372414 0.10837951 87
0.23950011 1.2468514 0.13137141 94
0.22637889 1.2670025 0.15891489 73
0.22549406 1.2721862 0.010436539 41
0.25082099 1.2329917 0.028889447 34
0.22019163 1.2803919 0.053165004 52
0.24186975 1.2468442 0.069709264 83
0.24873835 1.2362146 0.087916173 98
0.23993185 1.2498431 0.11105084 84
0.24857005 1.2364751 0.12822211 97
0.22811574 1.2681291 0.15891489 73
0.23588449 1.2598492 0.0101573 57
0.24704838 1.2424396 0.029412808 67
0.22089976 1.2832172 0.053339314 52
0.24460766 1.2462457 0.069465525 49
0.25036758 1.2372634 0.087916173 84
0.24584776 1.2443119 0.10952436 85
0.25966755 1.2227606 0.12417299 92
0.22359961 1.279007 0.16202073 63
0.23974338 1.2575685 0.010087491 57
0.25084382 1.2401242 0.029203463 68
0.23338953 1.2675536 0.051596198 82
0.24520621 1.2489836 0.069709264 66
0.25624245 1.2316402 0.086664692 86
0.2517212 1.2387453 0.10799789 72
0.25811115 1.2287035 0.12552269 90
0.22745261 1.2768835 0.16098544 64
0.24358252 1.2552669 0.010017681 72
0.24928764 1.2462318 0.029517479 100
0.24044701 1.2602326 0.05072464 84
0.24264061 1.2567586 0.070684217 65
0.25363696 1.2393439 0.087916173 70
0.24497366 1.2530638 0.11105084 84
0.25763321 1.2330151 0.12642249 99
0.23334968 1.2714725 0.15891489 65
0.24846354 1.2512499 0.0099129668 87
0.24883091 1.2506635 0.029726824 100
0.2358129 1.2714403 0.051770512 81
0.24539557 1.2561463 0.070440479 98
0.24898407 1.2504191 0.089793384 69
0.24978891 1.2491345 0.10990598 92
0.25614715 1.238987 0.1277722 97
0.23920497 1.2660265 0.15684435 66
0.25014526 1.2522995 0.0099129668 87
0.25261965 1.2483196 0.029517479 100
0.23756519 1.2725339 0.051770512 81
0.25443122 1.2454058 0.068734311 100
0.25483483 1.2447566 0.08854191 56
0.25871935 1.2385086 0.10723466 81
0.26395953 1.23008 0.12507279 92
0.23889831 1.2703896 0.15787962 65
0.24973083 1.2567471 0.0099827768 87
0.25638834 1.245955 0.029308135 100
0.23513702 1.2804041 0.052467756 80
0.25505027 1.2481241 0.068978049 50
0.26064232 1.2390592 0.087290429 57
0.24695665 1.2612442 0.11219569 91
0.26965982 1.2244415 0.12327318 93
0.23456126 1.2813375 0.16098544 64
0.24099228 1.274848 0.010331824 84
0.25492349 1.2520875 0.029622151 100
0.24524164 1.2679055 0.051073264 100
0.25257573 1.2559233 0.069953002 49
0.26950017 1.2282726 0.085100345 58
0.25789753 1.2472286 0.10876112 79
0.26921314 1.2287415 0.12417299 92
0.2444163 1.2692538 0.15684435 66
0.24898431 1.2656683 0.010122396 85
0.25349793 1.2582359 0.029936166 99
0.25835764 1.2502337 0.049155839 87
0.25633454 1.2535651 0.069465525 49
0.26700008 1.2360026 0.086351827 58
0.25548887 1.2549576 0.1102876 85
0.26575845 1.2380471 0.12642249 90
0.24415535 1.2736199 0.15787962 65
0.25897244 1.2530135 0.0098431576 88
0.25520399 1.2592679 0.029936166 99
0.25797924 1.2546619 0.049504463 86
0.25187743 1.264789 0.070927955 48
0.26557007 1.2420635 0.087290429 57
0.26630235 1.2408482 0.10685304 73
0.26638827 1.2407056 0.12687239 90
0.24790916 1.2713751 0.15684435 66
0.26066026 1.2540264 0.0098431576 88
0.26306233 1.2500081 0.029308135 100
0.25149459 1.2693594 0.050898954 83
0.26073614 1.2538996 0.069221787 83
0.27127382 1.2362714 0.086038955 72
0.25888166 1.2570018 0.1102876 85
0.27903178 1.2232933 0.12192347 76
0.25164357 1.2691102 0.15580906 67
0.26039678 1.2585239 0.0099129668 87
0.26584205 1.2493385 0.029203463 100
0.24621481 1.2824472 0.052119136 81
0.26251167 1.2549565 0.069221787 50
0.27902862 1.2270944 0.084161744 74
0.26066858 1.2580655 0.1102876 85
0.27970126 1.2259598 0.12237337 85
0.25835732 1.2619643 -0.0099827768 75
0.25347489 1.2702003 0.15580906 67
0.25804895 1.2664268 0.010052586 86
0.27055445 1.2451627 0.028889447 100
0.25507554 1.2714827 0.050898954 83
0.26823148 1.2491126 0.068246834 68
0.27762169 1.2331457 0.085100345 58
0.26834548 1.2489188 0.10799789 72
0.28228238 1.2252207 0.12192347 85
0.25522274 1.2712324 0.15580906 67
0.27070123 1.2483459 0.0096686333 75
0.26600617 1.2563869 0.029517479 100
0.25665244 1.2724067 0.050898954 83
0.26673526 1.2551382 0.068978049 50
0.27808198 1.235705 0.085413218 58
0.26985145 1.2498012 0.10799789 79
0.2797834 1.2327911 0.12372308 92
0.26069522 1.2654828 0.15373851 68
0.25934324 1.2718129 0.010122396 85
0.26770571 1.2573752 0.029517479 100
0.26539817 1.2613591 0.049678773 86
0.26644054 1.2595595 0.069465525 49
0.2826795 1.2315233 0.084474608 59
0.27054396 1.252475 0.10837951 94
0.2814005 1.2337315 0.12372308 75
0.25661698 1.2765198 0.15684435 66
0.27321956 1.2521145 0.0097035384 90
0.27952316 1.2411344 0.02847076 100
0.2613351 1.2728157 0.05072464 84
0.27425244 1.2503154 0.068003096 51
0.27363503 1.2513908 0.087916173 56
0.28217328 1.2365184 0.10456333 75
0.2860938 1.2296894 0.12237337 76
0.26048768 1.2742918 0.15580906 67
0.27292502 1.2565531 0.0097733475 89
0.28116938 1.2420757 0.02847076 100
0.26112014 1.277283 0.051073264 83
0.27986005 1.244375 0.067028143 51
0.28313723 1.2386202 0.085413218 58
0.2711736 1.2596287 0.10952436 85
0.29059303 1.2255275 0.12102367 86
0.26698771 1.2669792 -0.0099827768 96
0.2603378 1.2786567 0.15684435 66
0.27347085 1.2591619 0.0098082526 74
0.27282488 1.2603047 0.029517479 100
0.27448118 1.2573748 0.048981529 87
0.26865193 1.2676864 0.07019674 66
0.28558287 1.2377366 0.085100345 58
0.2765778 1.2536659 0.10799789 79
0.29394343 1.2229474 0.12012386 86
0.27248678 1.2609028 -0.0098431576 87
0.27524704 1.2560199 0.14959741 70
0.27518004 1.2601242 0.0098082526 89
0.27649167 1.257785 0.029308135 100
0.2732608 1.2635471 0.049504463 86
0.27524522 1.260008 0.068978049 50
0.28914943 1.2352107 0.084474608 59
0.27922797 1.252905 0.10761628 79
0.29076064 1.2323372 0.12237337 76
0.27420202 1.2618685 -0.0098431576 87
0.27883491 1.253606 0.14856213 71
0.2807802 1.2540901 0.0096686333 75
0.28013748 1.2552458 0.029098792 100
0.27401692 1.2662513 0.049678773 86
0.28081658 1.2540246 0.068003096 51
0.28597444 1.2447503 0.086038955 58
0.28568628 1.2452683 0.10570818 81
0.28953463 1.2383485 0.12372308 75
0.27203301 1.2698187 -0.0099827768 86
0.27301314 1.2680562 0.15270324 68
0.28343746 1.2532759 0.0096337283 90
0.28569147 1.2491894 0.028680105 100
0.27286401 1.2724454 0.050201707 85
0.28442532 1.2514849 0.067515619 51
0.28763324 1.2456689 0.086038955 58
0.28639868 1.2479072 0.1060898 81
0.27382034 1.2707117 0.15322088 76
0.28416634 1.2559578 0.0096686333 90
0.29311687 1.2395957 0.028052073 100
0.26983866 1.2821496 0.051073264 83
0.28706029 1.2506675 0.067271881 86
0.29687935 1.2327178 0.083536007 60
0.2852419 1.2539916 0.10723466 81
0.27744851 1.2682383 -0.0099129668 87
0.27649695 1.2699778 0.15270324 76
0.27918935 1.2691866 0.0099129668 87
0.28713846 1.254534 0.028889447 100
0.28682929 1.2551038 0.048284281 88
0.29063293 1.2480927 0.066784397 34
0.29661217 1.237071 0.084161744 59
0.28318822 1.2618155 0.10876112 79
0.27823579 1.2709444 -0.0099478718 96
0.28377113 1.260741 0.14959741 70
0.28946024 1.2542797 0.0095988233 76
0.28883141 1.2554486 0.028889447 100
0.28852421 1.2560196 0.048284281 88
0.28101739 1.2699729 0.069709264 99
0.29048753 1.2523702 0.10647142 81
0.28282833 1.2666068 -0.0098431576 87
0.28548574 1.2616674 0.14959741 78
0.29679987 1.2446003 0.0093893949 93
0.29428801 1.2493086 0.02847076 100
0.29022235 1.2569294 0.048284281 88
0.28743622 1.2621517 0.068490572 50
0.29894927 1.2405715 0.084474608 59
0.29586935 1.2463446 0.10494494 67
0.28083828 1.274519 0.15322088 76
0.29378256 1.2543192 0.0095639192 91
0.2996985 1.2431366 0.028052073 100
0.28353846 1.2736833 0.049853086 57
0.29751018 1.2472731 0.06629692 52
0.29782221 1.2466832 0.085413218 58
0.29386139 1.2541702 0.10647142 81
0.28256136 1.2755303 -0.0099827768 86
0.28621453 1.2686249 0.15115032 77
0.29361686 1.2587523 0.0096337283 90
0.28900039 1.2675529 0.049155839 58
0.29641131 1.2534252 0.067028143 51
0.29555303 1.2550614 0.10647142 73
0.28618547 1.2729191 -0.0099129668 87
0.28526443 1.2746749 0.15270324 68
0.29071081 1.2685146 0.0098082526 74
0.29165813 1.2666934 0.048981529 87
0.29626831 1.2578297 0.067515619 51
0.29996553 1.2507215 0.10532656 67
0.28978807 1.2702887 -0.0098431576 97
0.29505056 1.2601709 0.1480445 79
0.2988683 1.2569758 0.0095639192 91
0.29551259 1.2634829 0.029098792 100
0.29613307 1.2622797 0.048458595 59
0.29797271 1.2587124 0.067515619 51
0.291536 1.271194 -0.0098431576 97
0.29764858 1.259341 0.14752686 71
0.29877648 1.2613567 0.067759357 68
0.2975772 1.2679832 0.14959741 78
0.29410493 1.2792335 -0.0099478718 100
0.29855895 1.2747538 0.0098431576 100
0.29588404 1.2801236 -0.0099478718 100
0.29855165 1.2792145 -0.0099129668 100
