# .PCD v0.7 - Point Cloud Data file format
VERSION 0.7
FIELDS x y z intensity
SIZE 4 4 4 4
TYPE F F F F
COUNT 1 1 1 1
WIDTH 763
HEIGHT 1
VIEWPOINT 0 0 0 1 0 0 0
POINTS 763
DATA ascii
0.26619071 0.99691629 0.018010883 6
0.26966897 0.99598104 0.018010883 6
0.27314395 0.99503368 0.018010883 6
0.27554345 0.99022114 0.017941074 6
0.27502838 0.97582901 0.01769674 4
0.28721982 1.0056279 0.018255217 7
0.29110858 1.006591 0.018290121 12
0.29462045 1.0055686 0.018290121 10
0.29983559 1.0102853 0.018394837 15
-1.1683016 0.15380983 0.061756428 21
-1.0865827 0.14710486 0.057464879 26
-1.1759398 0.16757041 0.020733459 30
-1.0606101 0.15472628 0.01870898 6
-1.028393 0.15387787 0.018150503 6
-1.0298537 0.15758976 0.018185407 2
-0.99620628 1.0450234 0.025201274 4
-0.99961025 1.0555811 0.025375798 9
-0.98888642 1.0519527 0.025201274 16
-0.98266298 1.0523032 0.025131466 6
-1.0850403 1.1700974 0.02785404 63
0.055120081 0.0064938664 0.015881689 69
0.051146567 0.0056355 0.047835063 34
0.046286643 0.0040439963 0.04804441 22
0.041409552 0.0024771094 0.048253752 100
0.042752683 0.015989423 0.047625721 38
0.039003193 0.016111374 0.047730394 28
0.043132961 0.027795732 0.047102362 20
0.030356169 0.014760971 0.04804441 9
0.021029115 0.0066384673 0.048672438 8
0.029800653 0.024866164 0.047625721 9
0.027202845 0.02668649 0.047625721 9
0.013064384 0.012219608 0.048672438 8
-0.34902906 0.90998048 0.015881689 9
-0.34656012 0.91280329 0.015846785 9
-0.32242143 0.91177022 0.015427927 10
-0.32783926 0.91579759 0.015532642 15
-0.33915406 0.92086804 0.015742071 38
-0.314978 0.91987407 0.015323213 22
-0.32820636 0.9254837 0.015567547 30
-0.3237226 0.92783731 0.015497737 35
-0.31726652 0.92979914 0.015393022 43
-0.31670344 0.93282545 0.015393022 43
-0.32202184 0.9369781 0.015497737 35
-0.32535905 0.94078684 0.015567547 30
-0.30912638 0.94042325 0.015288308 33
-0.31244648 0.94421303 0.015358117 32
-0.30791569 0.94641685 0.015288308 33
-0.3151238 0.95104897 0.015427927 42
-0.31249863 0.95380181 0.015393022 43
-0.30598885 0.95554054 0.015288308 38
-0.29557186 0.95637524 0.015113784 46
-0.3047061 0.96136272 0.015288308 38
-0.31183231 0.96611989 0.015427927 36
-1.0060296 1.1240925 0.083632857 5
-1.0449755 1.1329551 0.14310972 6
-0.31117719 0.96897674 0.015427927 36
-1.0029008 1.1288009 0.083528183 11
-1.0146446 1.1315143 0.14049506 16
-0.29292184 0.96801597 0.015113784 46
-1.0190742 1.1386009 0.084470235 73
-1.0113695 1.136791 0.14032075 61
-0.28642505 0.96941882 0.01500907 48
-1.0159006 1.1433389 0.084365562 100
-1.0140207 1.1428907 0.14066938 100
-0.28568852 0.97248316 0.01500907 42
-0.9815231 1.1410804 0.082586139 100
-1.0068343 1.1472131 0.14014643 84
-0.28501248 0.97525322 0.01500907 42
-0.97446555 1.1447268 0.08227212 100
-1.0055749 1.1523738 0.14014643 84
-0.30559593 0.98364127 0.015393022 43
-0.97889513 1.1517632 0.082586139 64
-0.99063176 1.1546938 0.13892625 87
-0.28937471 0.98255032 0.015113784 46
-0.99310988 1.1607534 0.083423518 35
-0.98934752 1.1598006 0.13892625 73
-0.28862768 0.985479 0.015113784 46
-0.98786765 1.1651434 0.083214171 37
-0.978329 1.1626925 0.1380547 89
-0.28210312 0.98674661 0.01500907 42
-0.96915394 1.16571 0.08227212 88
-0.98473054 1.1697674 0.13875194 91
-0.29096943 0.9923507 0.015183593 45
-0.96190077 1.1697437 0.081958108 96
-0.98132879 1.1748805 0.13857763 94
-0.29409057 0.99617338 0.015253403 56
-0.95477921 1.1732044 0.081644088 98
-0.96458179 1.175831 0.13718314 100
-0.29325593 0.99926561 0.015253403 56
-0.95329124 1.1787169 0.081644088 98
-0.95923895 1.180334 0.13683452 100
-0.27706784 0.99781239 0.014974165 60
-0.95000213 1.1831694 0.081539422 100
-0.96555334 1.1874529 0.13753176 94
-0.26467168 0.99761367 0.014764735 57
-0.94078332 1.1865146 0.081120729 90
-0.96593207 1.193541 0.13770607 92
-0.2889263 1.0073922 0.015218498 56
-0.92594129 1.1876493 0.080388032 86
-0.96643633 1.1991082 0.13788038 98
-0.2861284 1.0099139 0.015183593 56
-0.93207985 1.1952595 0.080806717 60
-0.94570225 1.1991682 0.13613728 100
-0.27956736 1.0110116 0.015078879 100
-0.94216925 1.2035152 0.081434749 22
-0.9461841 1.2046816 0.13631158 91
-0.2652508 1.010096 0.014834546 100
-0.92141122 1.203339 0.080388032 26
-0.95031458 1.2118511 0.13683452 85
-0.27978092 1.0173684 0.015113784 100
-0.91422409 1.2065041 0.080074012 26
-0.94120365 1.2145472 0.13613728 89
-0.28465545 1.0219973 0.015218498 67
-0.91842753 1.2133443 0.080388032 54
-0.94536489 1.2214773 0.1366602 99
-0.28955245 1.0265167 0.015323213 44
-0.91121906 1.2164606 0.080074012 100
-0.92480522 1.2206118 0.1349171 100
-0.26759374 1.0230875 0.01493926 49
-0.91720456 1.2241757 0.080492698 92
-0.91362733 1.2230684 0.13404553 85
-0.26479709 1.025342 0.014904355 55
-0.91561025 1.2292944 0.080492698 74
-0.91774052 1.229962 0.13456847 54
-0.26771301 1.0293938 0.014974165 72
-0.91019064 1.2331997 0.080283359 64
-0.91232771 1.2338777 0.13421984 43
-0.27251446 1.0340805 0.015078879 100
-0.89715487 1.2346306 0.079655327 85
-0.91449362 1.2401974 0.13456847 43
-0.26968586 1.0363321 0.015043974 100
-0.8974238 1.2402965 0.07976 100
-0.90715879 1.2434596 0.13404553 54
-0.26685154 1.0385671 0.01500907 78
-0.89767069 1.2459699 0.079864666 100
-0.90549725 1.2485431 0.13404553 77
-0.26031071 1.0392404 0.014904355 73
-0.89616817 1.2505155 0.079864666 100
-0.90398663 1.2531133 0.13404553 82
-0.25936598 1.0420673 0.014904355 55
-0.88690943 1.253015 0.07944598 100
-0.91173416 1.2613599 0.1349171 80
-0.25836337 1.0450319 0.014904355 55
-0.87756616 1.2557051 0.079027295 100
-0.89294761 1.2609384 0.13334829 90
-0.25739837 1.0478519 0.014904355 49
-0.88152772 1.262635 0.079341307 100
-0.89122504 1.2659723 0.13334829 100
-0.26024991 1.0518417 0.014974165 48
-0.88365895 1.2686918 0.079550654 100
-0.89145428 1.2714033 0.1335226 84
-0.24794286 1.050687 0.014764735 51
-0.87437314 1.2710421 0.079131968 72
-0.89721328 1.2790765 0.13421984 42
-0.24507415 1.0528004 0.014729831 52
-0.85756141 1.2706565 0.07829459 29
-0.89542741 1.2841251 0.13421984 35
-0.24972725 1.0576042 0.014834546 50
-0.85204631 1.274215 0.078085244 21
-0.88612467 1.2864704 0.1335226 30
-0.2543565 1.0624439 0.01493926 42
-0.85966295 1.2825181 0.07860861 63
-0.88244063 1.2907996 0.13334829 18
-0.25333077 1.0652498 0.01493926 42
-0.85599071 1.2867467 0.078503937 100
-0.86191314 1.2889234 0.13160518 13
-0.24672335 1.065824 0.014834546 50
-0.85239702 1.2907112 0.078399263 100
-0.87325913 1.2984571 0.13282534 1
-0.24568588 1.0686033 0.014834546 50
-0.82813185 1.2871823 0.0771432 44
-0.87140578 1.303422 0.13282534 1
-0.2502479 1.0735062 0.01493926 49
-0.83378798 1.2948228 0.077561885 51
-0.84159154 1.2977824 0.13021068 7
-0.25478536 1.0784447 0.015043974 47
-0.8394075 1.3025091 0.077980578 55
-0.86020547 1.3104801 0.1321281 31
-0.23692113 1.0747527 0.014729831 45
-0.83940262 1.308077 0.078085244 76
-0.84344679 1.3096431 0.13073361 90
-0.23771471 1.0782263 0.014764735 51
-0.82821625 1.3092847 0.077561885 57
-0.85268706 1.3188599 0.13177948 100
-0.23477435 1.0802389 0.014729831 52
-0.83004016 1.3155608 0.077771232 72
-0.83223397 1.3164282 0.13003637 99
-0.24482912 1.0874263 0.01493926 49
-0.81699854 1.3159304 0.0771432 91
-0.83586901 1.3234665 0.1305593 95
-0.25298864 1.0939395 0.015113784 51
-0.82249337 1.3236876 0.077561885 95
-0.82469016 1.3245738 0.12968774 100
-0.23703814 1.0907037 0.014834546 75
-0.81870276 1.3277214 0.077457212 100
-0.8264361 1.3308725 0.13003637 100
-0.79014331 1.3160839 0.1776855 16
-0.23400837 1.0928248 0.014799641 76
-0.80741531 1.3289319 0.076933853 100
-0.8280558 1.337431 0.130385 100
-0.76977712 1.3134339 0.17524812 13
-0.25134081 1.1032379 0.015148689 63
-0.79807931 1.3305993 0.076515168 100
-0.8223874 1.3407078 0.13003637 100
-0.77337092 1.3203242 0.17597933 18
-0.24660194 1.1042064 0.015078879 99
-0.79078633 1.3325136 0.076201156 100
-0.81691319 1.3434749 0.12968774 100
-0.77529651 1.326015 0.17646681 18
-0.24543053 1.1069851 0.015078879 76
-0.79249269 1.3387485 0.076410495 94
-0.80206126 1.3428023 0.12846756 100
-0.77334756 1.3306377 0.17646681 20
-0.24057227 1.1081866 0.01500907 96
-0.80886215 1.3512864 0.077457212 38
-0.79822177 1.3467348 0.12829325 60
-0.7805081 1.3391573 0.1776855 13
-0.23020804 1.1069796 0.014834546 100
-0.81782609 1.3607779 0.078085244 72
-0.82912368 1.3656573 0.13143086 24
-0.7766909 1.3430111 0.17744176 9
-0.23263347 1.1114362 0.014904355 100
-0.8010065 1.359398 0.077247873 100
-0.81962663 1.3675213 0.13073361 86
-0.76002592 1.3415196 0.17549185 18
-0.23326689 1.1149721 0.01493926 55
-0.80076879 1.3649154 0.077352546 100
-0.81935591 1.3731016 0.13090792 100
-0.78345674 1.3572907 0.17890419 35
-0.66338032 1.309217 0.023176795 12
-0.8024388 1.3710136 0.077561885 100
-0.81552774 1.3768301 0.13073361 100
-0.77968782 1.3609033 0.17866045 29
-0.75271744 1.3543715 0.024922036 42
-0.81126648 1.3806355 0.078189917 100
-0.79340452 1.372623 0.12881619 100
-0.76131624 1.3582289 0.17646681 22
-0.79803294 1.3803605 0.025829561 59
-0.81094617 1.3862073 0.07829459 100
-0.80218285 1.3822395 0.12986206 100
-0.78457206 1.3742657 0.17987914 26
-0.79771298 1.3858933 0.025864467 88
-0.80333728 1.3884637 0.077980578 100
-0.80728608 1.3902683 0.1305593 100
-0.77342719 1.374795 0.17866045 17
-0.80089372 1.3933424 0.025969181 100
-0.80287486 1.3942566 0.078085244 100
-0.81223994 1.3985779 0.13125655 100
-0.76399177 1.3763146 0.1776855 13
-0.80596071 1.4014307 0.0261088 100
-0.80611926 1.4015045 0.078399263 100
-0.80281287 1.3999648 0.1305593 100
-0.77446407 1.3867637 0.17939167 10
-0.79299957 1.4008228 0.025899371 100
-0.81124872 1.4093946 0.078817949 100
-0.79710966 1.4027534 0.13021068 100
-0.77241153 1.3911524 0.17939167 7
-0.78898233 1.4046504 0.025864467 100
-0.81442291 1.4167087 0.079131968 100
-0.79849344 1.4091585 0.1305593 100
-0.7720291 1.3966148 0.17963541 3
-0.79047877 1.4108121 0.025934275 100
-0.79965729 1.4151998 0.078399263 100
-0.80715185 1.4187826 0.13160518 100
-0.7936371 1.4180936 0.026038991 100
-0.79919583 1.4207747 0.078503937 100
-0.81564611 1.4287095 0.13265105 100
-0.79844433 1.4265153 0.02617861 100
-0.80398446 1.4292126 0.078922622 100
-0.80247456 1.4284775 0.13160518 100
-0.79614455 1.4312183 0.02617861 100
-0.80346781 1.4348154 0.079027295 100
-0.79659122 1.4314377 0.13125655 100
-0.78666109 1.4323616 0.026038991 100
-0.81008691 1.4439698 0.079550654 100
-0.80498546 1.441442 0.13230242 100
-0.7914955 1.4405999 0.02617861 100
-0.79700702 1.4433551 0.078922622 100
-0.80441564 1.4470586 0.13247673 100
-0.79283577 1.4468449 0.02624842 100
-0.79833382 1.4496162 0.079131968 100
-0.8110587 1.4560301 0.13334829 100
-0.79759508 1.4551533 0.026388038 100
-0.7977336 1.4552238 0.079236634 100
-0.80155164 1.457165 0.13265105 100
-0.79519528 1.4598532 0.026388038 100
-0.80066508 1.4626582 0.079550654 100
-0.80623621 1.4655153 0.13334829 100
-0.78922671 1.462707 0.02631823 100
-0.80710906 1.4719567 0.080074012 100
-0.80556983 1.4711605 0.1335226 100
-0.79034644 1.4692276 0.026388038 100
-0.79579657 1.4720707 0.079550654 100
-0.806647 1.4777311 0.13387123 100
-0.78789753 1.473902 0.026388038 99
-0.78980261 1.4749043 0.079341307 100
-0.8112213 1.4861732 0.13456847 100
-0.7927466 1.4818481 0.026527658 52
-0.78405219 1.4772389 0.079131968 48
-0.8036837 1.4876463 0.13404553 85
0.15037444 1.2672117 0.011134636 12
0.14289793 1.2765138 0.12631555 11
0.19229889 1.2150495 0.13182132 7
0.15460706 1.2654775 0.011064826 38
0.15508878 1.2648739 0.033180997 28
0.14735249 1.2745684 0.056476921 48
0.15130353 1.2696172 0.078483857 14
0.15079063 1.27026 0.10136953 11
0.14834219 1.2733282 0.12517071 60
0.19142357 1.2193418 0.13272113 15
0.15717676 1.2622573 0.16875002 14
0.15376809 1.2699202 0.011134636 100
0.17285973 1.2458326 0.03182026 91
0.14779034 1.2774622 0.056651235 95
0.16159377 1.2600467 0.076777689 29
0.16717574 1.253004 0.097615108 24
0.15854979 1.2638873 0.12249938 100
0.18323195 1.2327461 0.13632034 30
0.14921159 1.2756691 0.17289113 35
0.15313035 1.2745125 0.011204445 100
0.17090175 1.2519211 0.032134276 100
0.15581217 1.2711034 0.055779677 100
0.15971053 1.2661476 0.077508904 29
0.18116179 1.2388781 0.094486415 39
0.16400409 1.2606895 0.12135452 100
0.18974987 1.2279607 0.13452072 38
0.15942851 1.2665062 0.16926765 44
0.16588578 1.2616438 0.010890301 100
0.17619082 1.2484539 0.03182026 100
0.1623826 1.2661276 0.055082429 100
0.1625801 1.2658749 0.077265166 29
0.18515101 1.2369854 0.093860678 26
0.1728856 1.2526845 0.11906482 100
0.17927286 1.2445091 0.13901976 29
0.15394092 1.2769325 0.17237349 42
0.17381707 1.255147 0.010715778 100
0.18406627 1.2419291 0.031296901 62
0.16054097 1.2722685 0.055605363 73
0.1777806 1.2500353 0.074584037 30
0.17233965 1.2570523 0.097615108 24
0.18307841 1.2432029 0.11639348 59
0.18220866 1.2443247 0.13856985 29
0.15461782 1.2799075 0.17289113 35
0.17054752 1.262729 0.010855397 78
0.17832154 1.2526343 0.031924933 61
0.16342434 1.2719787 0.055431053 49
0.18543047 1.2434032 0.073365346 46
0.18118846 1.2489116 0.095737889 38
0.17985815 1.250639 0.11791996 13
0.18497261 1.2439977 0.13811995 22
0.14923865 1.2903993 0.17599694 48
0.1626417 1.2768269 0.011134636 50
0.17524174 1.2603408 0.032343622 30
0.16768649 1.2702262 0.055082429 50
0.18114093 1.2526221 0.074584037 61
0.18174672 1.2518296 0.096050762 51
0.19354385 1.2363939 0.11410378 13
0.2032792 1.2236561 0.13182132 31
0.16639888 1.2719109 0.16926765 59
0.17399663 1.2653661 0.010855397 52
0.18169999 1.2552173 0.031924933 30
0.16573361 1.2762523 0.055605363 49
0.18394357 1.2522615 0.074340299 61
0.19767827 1.2341667 0.092296332 53
0.1974664 1.2344458 0.11334054 13
0.20949832 1.2185944 0.13002171 40
0.17507336 1.2639476 0.16616182 68
0.17091429 1.2730637 0.010995016 38
0.17858803 1.2628803 0.032343622 30
0.1770955 1.264861 0.054210871 51
0.18801853 1.2503656 0.073852822 93
0.1933566 1.2432818 0.093860678 52
0.1931822 1.2435132 0.11524864 13
0.20637515 1.2260056 0.13182132 39
0.18493816 1.2544534 0.16253836 70
0.18935862 1.2519039 0.010506349 54
0.16586432 1.283298 0.033599682 28
0.17396352 1.2724755 0.054908119 50
0.18961346 1.2515633 0.073852822 100
0.19137731 1.2492064 0.094799288 51
0.20181224 1.2352629 0.11295892 13
0.20321876 1.2333834 0.13362093 31
0.18191671 1.2618481 0.16460891 69
0.18763569 1.2581019 0.010611063 81
0.20474467 1.2350563 0.030354854 65
0.17470801 1.2755153 0.055082429 50
0.19974816 1.2417865 0.072146654 63
0.19557494 1.2474078 0.094173551 65
0.19892022 1.2429018 0.1144854 13
0.21661672 1.2190647 0.1291219 32
0.18265641 1.2648089 0.16512655 68
0.18688297 1.26252 0.010680873 93
0.20628875 1.2361987 0.030354854 65
0.1752041 1.2783608 0.055256739 74
0.19895861 1.246141 0.072634131 63
0.20536563 1.2374507 0.091983467 100
0.20864558 1.2330019 0.11181407 14
0.2296719 1.2044824 0.12462288 33
0.18315288 1.2675793 0.16564418 68
0.19105208 1.2606198 0.010611063 81
0.20917907 1.2358433 0.030250182 65
0.18059915 1.2749071 0.054733805 75
0.20070612 1.2474244 0.072634131 78
0.20591483 1.2403049 0.092296332 80
0.20802638 1.2374189 0.1125773 13
0.22551319 1.2135174 0.12687239 16
0.18954185 1.262684 0.16357364 69
0.19268101 1.2618074 0.010611063 94
0.20837781 1.2402027 0.030459527 65
0.18578881 1.2712936 0.054210871 100
0.19295678 1.2614279 0.074584037 61
0.20631522 1.2430415 0.092609204 100
0.21073225 1.236962 0.11219569 14
0.22813118 1.2130144 0.12642249 16
0.19685519 1.2560622 0.16098544 72
0.20375782 1.2500767 0.010331824 98
0.20301133 1.2511116 0.031087559 63
0.19220272 1.2660981 0.053513627 100
0.20396391 1.2497909 0.072634131 78
0.20796853 1.2442384 0.092609204 93
0.21121591 1.2397357 0.1125773 13
0.23879898 1.2014909 0.12282328 8
0.1940338 1.2635593 0.163056 70
0.20069429 1.2577252 0.010471444 96
0.22321561 1.2262793 0.029412808 67
0.19152963 1.2705215 0.053862248 100
0.2090244 1.2460941 0.071902916 48
0.20609248 1.2501879 0.093547814 100
0.21163234 1.2424527 0.11295892 13
0.23001942 1.2167794 0.12687239 16
0.19342276 1.2678782 0.16409127 69
0.20248425 1.2590022 0.010471444 96
0.22026226 1.2339861 0.029831495 66
0.19567484 1.2685839 0.053513627 100
0.21537137 1.2408682 0.070927955 48
0.21243194 1.2450044 0.092296332 100
0.20313075 1.2580924 0.11639348 19
0.23843232 1.2084184 0.12417299 16
0.19636905 1.2676071 0.16357364 69
0.1971899 1.2699549 0.010680873 80
0.22640899 1.2285496 0.029412808 100
0.19733015 1.2697562 0.053513627 100
0.20892277 1.2533287 0.072634131 78
0.22084269 1.2364373 0.090419121 100
0.19682747 1.2704685 0.11906482 52
0.22528115 1.2301478 0.13002171 24
0.2091597 1.2529929 0.15839726 81
0.20352629 1.264632 0.010541254 95
0.21540707 1.2476708 0.030564198 97
0.20593521 1.2611929 0.052467756 100
0.21516755 1.2480128 0.071659178 80
0.22473949 1.2343476 0.089793384 100
0.20533472 1.2620502 0.1167751 92
0.22800738 1.2296823 0.12957181 56
0.2041977 1.2636734 0.16150309 70
0.21430305 1.252645 0.010262015 98
0.22725683 1.2340208 0.029622151 100
0.20756596 1.2623312 0.052467756 100
0.2190215 1.2458611 0.071171694 97
0.22966492 1.2305586 0.088854775 100
0.2226626 1.2406262 0.11143246 91
0.21951893 1.2451459 0.13362093 93
0.20914593 1.2600596 0.15995017 72
0.2138027 1.2571638 0.010331824 98
0.22782531 1.2368445 0.029726824 100
0.20710942 1.2668626 0.05281638 100
0.22527787 1.2405357 0.07019674 66
0.22237921 1.2447361 0.09135773 94
0.21992931 1.2482861 0.11295892 89
0.22901067 1.2351269 0.13047162 80
0.21094438 1.2613056 0.15995017 80
0.20646486 1.2715327 0.010611063 81
0.22945687 1.2379662 0.029726824 100
0.20434222 1.2746315 0.053513627 100
0.22131336 1.249855 0.071415432 64
0.22961986 1.2377282 0.089793384 100
0.21827248 1.2542945 0.11410378 100
0.23614249 1.2282058 0.12822211 97
0.20720288 1.2704551 0.16253836 70
0.21608761 1.2611527 0.010366729 69
0.23558396 1.2324755 0.029308135 68
0.20946634 1.2708919 0.05299069 100
0.22187427 1.2526411 0.071659178 80
0.23347571 1.2355765 0.089167647 100
0.2210688 1.2538259 0.11372216 100
0.23117003 1.238968 0.13092151 96
0.21438259 1.2636607 0.15995017 72
0.21780407 1.2623153 0.010366729 41
0.23161453 1.2418482 0.029831495 33
0.22458988 1.2522588 0.050898954 55
0.21578866 1.2653022 0.073365346 62
0.23510283 1.2366786 0.089167647 100
0.22934839 1.2452066 0.11143246 100
0.22953895 1.2449242 0.13227122 94
0.22151062 1.2568222 0.15736198 74
0.21943849 1.2634143 0.010366729 41
0.21317136 1.272769 0.031715591 30
0.21953729 1.2632668 0.051944822 54
0.23400608 1.2416699 0.069709264 99
0.22785637 1.2508492 0.091670595 100
0.24076048 1.2315879 0.10799789 94
0.23436955 1.2411273 0.13092151 96
0.21990106 1.2627238 0.15891489 73
0.21009088 1.2812171 0.010715778 39
0.24146873 1.2340255 0.029203463 34
0.2146422 1.274372 0.05299069 52
0.23345622 1.2460761 0.07019674 82
0.23500547 1.243746 0.090106249 96
0.24019957 1.2359343 0.10876112 94
0.2435689 1.2308668 0.1277722 97
0.22055337 1.2654817 0.15943253 73
0.21848568 1.2723861 0.010506349 27
0.22108966 1.26844 0.031296901 31
0.21530747 1.2772025 0.053165004 52
0.23730662 1.2438644 0.069709264 66
0.24318898 1.2349501 0.088229038 98
0.23858395 1.2419287 0.10990598 85
0.24732611 1.2286806 0.12687239 90
0.22228491 1.2666287 0.15943253 73
0.223528 1.2685217 0.010401634 27
0.19000527 1.3197107 0.03443706 27
0.22690386 1.2633667 0.051596198 54
0.23570001 1.249935 0.070440479 98
0.24481383 1.2360182 0.088229038 98
0.23700646 1.2479401 0.11105084 91
0.24252328 1.2395159 0.12957181 96
0.22719559 1.2629212 0.15787962 73
0.23499286 1.2545129 0.010087491 43
0.22449002 1.2706673 0.031296901 31
0.22745571 1.2661058 0.051770512 54
0.22755498 1.2659531 0.072634131 63
0.2474376 1.2353716 0.087916173 84
0.24501383 1.2390996 0.10876112 87
0.24620637 1.2372653 0.128672 97
0.22672594 1.2672282 0.15891489 73
0.23451778 1.2589701 0.0101573 42
0.23057091 1.2650874 0.030878214 31
0.22810921 1.2689028 0.051944822 54
0.2422027 1.2470591 0.069709264 66
0.2512058 1.2331052 0.087290429 99
0.25197503 1.2319129 0.10685304 88
0.24466977 1.2432355 0.13002171 96
0.23160562 1.2634838 0.15736198 74
0.24286366 1.250071 0.0099478718 43
0.24754328 1.2427566 0.029412808 67
0.23754337 1.258387 0.05072464 56
0.25045556 1.2382045 0.068246834 68
0.25085706 1.237577 0.087916173 70
0.23893839 1.2562065 0.11219569 91
0.25174016 1.2361966 0.1277722 89
0.23350281 1.2647027 0.15736198 74
0.24025413 1.2578931 0.010087491 86
0.24170199 1.2556126 0.030145511 98
0.22857139 1.2762952 0.052467756 53
0.24996382 1.242599 0.068734311 33
0.25672603 1.2319477 0.086664692 57
0.25221226 1.2390574 0.10799789 79
0.2575472 1.2306541 0.12597258 82
0.22798359 1.277221 0.16098544 64
0.23538956 1.2690133 0.010296919 56
0.24748981 1.2498207 0.029726824 100
0.23760158 1.2655047 0.051247578 55
0.24827394 1.2485769 0.069465525 49
0.25817874 1.2328666 0.086664692 57
0.23693463 1.2665626 0.11410378 96
0.26107442 1.2282736 0.12507279 100
0.2398816 1.2618883 0.15580906 67
0.2456179 1.2565461 0.010017681 72
0.24916655 1.2508737 0.029726824 100
0.2435599 1.2598357 0.05055033 84
0.24573505 1.2563589 0.070440479 49
0.25770089 1.2372319 0.087290429 71
0.2532472 1.2443509 0.10876112 72
0.25750816 1.2375399 0.1273223 97
0.24160051 1.2629678 0.15580906 67
0.25689229 1.2423661 0.0097035384 90
0.25093105 1.2519732 0.029726824 100
0.2432563 1.2643416 0.050898954 83
0.24751967 1.2574708 0.070440479 49
0.26566446 1.228229 0.085413218 58
0.25291753 1.2487718 0.10952436 78
0.26230618 1.2336411 0.12597258 82
0.24137226 1.2673779 0.15684435 66
0.25434932 1.2501976 0.0098431576 88
0.26308656 1.2360065 0.028680105 100
0.24080545 1.2721957 0.051596198 82
0.25963062 1.2416197 0.068003096 68
0.25898045 1.2426758 0.087916173 70
0.24944404 1.2581649 0.11143246 91
0.26596972 1.2313237 0.12507279 92
0.24108464 1.2717423 0.15787962 65
0.24977261 1.2614655 0.010052586 86
0.26263261 1.240414 0.028889447 100
0.23944438 1.2783726 0.052119136 81
0.25713927 1.2494066 0.068978049 50
0.26475129 1.2369459 0.086664692 71
0.26240796 1.2407818 0.10723466 81
0.27367714 1.2223344 0.12237337 93
0.24082375 1.2761147 0.15891489 65
0.25356296 1.2590904 0.0099827768 87
0.25806504 1.2516624 0.029517479 100
0.24638435 1.2709343 0.051247578 82
0.25675666 1.2538211 0.069465525 49
0.26843074 1.23456 0.086038955 58
0.25489458 1.2568933 0.11066922 85
0.27222753 1.2282958 0.12372308 83
0.24559629 1.2722346 0.15736198 66
0.25827891 1.2549301 0.0098780617 73
0.25760478 1.2560507 0.029726824 100
0.25112832 1.2668166 0.05072464 84
0.25836268 1.2547909 0.069465525 49
0.26997283 1.2354913 0.086038955 58
0.26157096 1.2494577 0.10876112 79
0.27475336 1.2275445 0.12327318 76
0.256226 1.2583426 0.15270324 68
0.25894859 1.2576625 0.0099129668 87
0.26544467 1.2467782 0.029098792 100
0.25899085 1.2575917 0.049678773 86
0.26616076 1.2455784 0.068003096 51
0.26957467 1.2398584 0.086664692 71
0.26022789 1.255519 0.10990598 92
0.26936117 1.240216 0.12642249 82
0.25199208 1.2693183 0.15580906 67
0.25861496 1.2621169 0.0099827768 87
0.26711068 1.2477686 0.029098792 100
0.25358891 1.2706053 0.050898954 83
0.27186811 1.2397338 0.067028143 51
0.26920363 1.2442338 0.087290429 71
0.26892626 1.2447023 0.10723466 81
0.27994004 1.2261013 0.12237337 76
0.25964242 1.2603817 0.15270324 68
0.26236019 1.2596827 0.0099129668 87
0.27080327 1.2453089 0.028889447 100
0.25130168 1.2785087 0.051596198 82
0.2694878 1.2475483 0.068003096 51
0.27486271 1.2383981 0.086038955 72
0.26461884 1.2558374 0.10952436 78
0.28153378 1.2270411 0.12237337 85
0.25157139 1.2780496 0.15787962 73
0.26499268 1.2589061 0.0098780617 88
0.27036926 1.2496831 0.029098792 100
0.26001349 1.2674476 0.05037602 84
0.2640748 1.2604808 0.069709264 66
0.28039688 1.2324816 0.084787481 59
0.26722023 1.255085 0.10914274 85
0.28599516 1.2228782 0.12102367 86
0.26499268 1.2589061 -0.0098780617 87
0.26201412 1.2640157 0.15322088 76
0.2677021 1.258167 0.0098431576 88
0.27204537 1.2506562 0.029098792 100
0.26673868 1.259833 0.049504463 86
0.26678237 1.2597574 0.069465525 49
0.27904624 1.2385499 0.08572609 58
0.27088085 1.25267 0.10837951 79
0.2836754 1.2305449 0.12282328 93
0.2637403 1.2650179 0.15322088 76
0.27239284 1.2539457 0.0097384425 90
0.27372488 1.2516236 0.029098792 100
0.26845023 1.2608187 0.049504463 86
0.26750594 1.2624649 0.069709264 33
0.27871761 1.2429199 0.086351827 58
0.27647489 1.2468295 0.10685304 81
0.28140602 1.2382333 0.12462288 83
0.26258624 1.2710413 0.15477379 67
0.27606171 1.2514356 0.0096686333 90
0.27738321 1.2491132 0.028889447 100
0.26425323 1.2721887 0.05055033 84
0.27315357 1.2565466 0.068734311 50
0.27548546 1.2524484 0.087916173 56
0.2742573 1.2546068 0.10837951 87
0.29075205 1.225618 0.12102367 86
0.26815853 1.2653252 0.15270324 68
0.27586296 1.2559198 0.0097384425 90
0.27815971 1.2518487 0.028994121 100
0.27001169 1.2662914 0.049853086 85
0.2778649 1.2523713 0.068003096 51
0.28599116 1.2379671 0.085100345 58
0.27507067 1.2573242 0.10876112 79
0.29242373 1.2265651 0.12102367 86
0.26898497 1.2681113 -0.0099827768 86
0.26333123 1.2781328 0.1563267 66
0.2717019 1.2673441 0.0099478718 87
0.28276923 1.2475659 0.028680105 100
0.27758327 1.2568336 0.048807215 88
0.27761164 1.2567829 0.068490572 50
0.28762627 1.2388859 0.085100345 58
0.27869079 1.2548543 0.10799789 79
0.29401901 1.2274615 0.12102367 86
0.27267841 1.265599 -0.0099129668 87
0.27548361 1.2605859 0.15063268 78
0.27837706 1.2596176 0.0097733475 74
0.28452137 1.2485421 0.028680105 100
0.27743638 1.2613133 0.049155839 87
0.27458262 1.2664573 0.069709264 66
0.29030487 1.238117 0.084787481 59
0.28142211 1.2541287 0.10761628 87
0.29758814 1.2249885 0.12012386 77
0.27837706 1.2596176 -0.0097733475 88
0.28009504 1.2565209 0.14907977 78
0.28779957 1.2465467 0.0094941091 76
0.28041664 1.2599652 0.029308135 100
0.28011349 1.2605162 0.048981529 87
0.28492966 1.2517627 0.067515619 68
0.28908375 1.2442127 0.08572609 58
0.2887921 1.2447429 0.10532656 90
0.29542023 1.2326962 0.12192347 76
0.27900118 1.2625377 0.15063268 70
0.28554866 1.2544343 0.0096337283 75
0.28395689 1.2573502 0.029098792 100
0.27887762 1.2666547 0.049504463 86
0.29223567 1.2421849 0.066053182 52
0.29255074 1.2416077 0.085100345 58
0.28754574 1.2507761 0.10647142 81
0.29882348 1.230117 0.12102367 86
0.27596709 1.2719864 -0.0099827768 86
0.27508208 1.2736075 0.15373851 68
0.28628924 1.2571131 0.0096686333 90
0.29897177 1.2336866 0.027633386 100
0.28061292 1.2675982 0.049504463 86
0.28632489 1.2570472 0.068003096 51
0.2960794 1.2390292 0.084474608 59
0.28735623 1.2551422 0.10723466 73
0.28152913 1.2659057 -0.0098431576 97
0.27316275 1.2813597 0.15580906 67
0.28601363 1.2615082 0.0097384425 90
0.29106045 1.2521117 0.028680105 100
0.28414994 1.2649782 0.049155839 87
0.28794146 1.257919 0.068003096 51
0.29082435 1.2525513 0.10647142 73
0.28979841 1.2544615 -0.0095988233 100
0.28582907 1.2618519 0.14959741 70
0.29619122 1.246542 0.0094242999 77
0.29462269 1.249487 0.02847076 100
0.29243556 1.2535936 0.047935657 89
0.28964621 1.2588307 0.068003096 51
0.29251033 1.253453 0.10647142 81
0.29299638 1.2525405 0.14649157 72
0.29327175 1.2563111 0.0095988233 91
0.29265213 1.2574848 0.028889447 100
0.29700017 1.2492485 0.047412723 60
0.29885352 1.2457378 0.066053182 52
0.29520056 1.2526574 0.1060898 73
0.28300264 1.2757635 -0.0099827768 86
0.2893554 1.2637297 0.14959741 70
0.29868039 1.2501177 0.009459204 93
0.29991284 1.2477632 0.028261416 100
0.29590264 1.2554243 0.047935657 89
0.29506594 1.2570226 0.10685304 73
0.28662446 1.2731491 -0.0099129668 87
0.28928861 1.2680596 0.15063268 70
0.29935241 1.2527231 0.0094941091 76
0.28925055 1.2721783 0.049504463 57
0.29668236 1.2578653 0.10685304 73
0.28921592 1.2722449 -0.0098780617 97
0.28827095 1.2740649 0.1521856 77
0.29737774 1.2607068 0.0096337283 90
0.29748827 1.2604921 0.10723466 73
0.28914008 1.2767081 -0.0099478718 100
0.29268479 1.2698226 0.15063268 70
0.29821712 1.2633001 0.068003096 51
0.29628024 1.2802205 0.049853086 57
0.29891139 1.2749293 -0.0098431576 100
0.29968849 1.2733666 0.15063268 78
