# .PCD v0.7 - Point Cloud Data file format
VERSION 0.7
FIELDS x y z intensity
SIZE 4 4 4 4
TYPE F F F F
COUNT 1 1 1 1
WIDTH 797
HEIGHT 1
VIEWPOINT 0 0 0 1 0 0 0
POINTS 797
DATA ascii
0.21649803 0.97817522 0.017487312 6
0.21964248 0.97542429 0.017452406 4
0.22404201 0.98057783 0.01755712 5
0.22718196 0.97780228 0.017522216 4
0.23134123 0.98093617 0.017592026 6
0.23446885 0.97813708 0.01755712 7
0.23865636 0.98124027 0.01762693 8
0.24464969 0.99006546 0.017801454 11
0.25067368 1.0009307 0.018010883 11
0.25581932 1.0058192 0.018115599 18
0.25733003 0.99717504 0.017975979 20
0.26351696 1.0058973 0.018150503 23
0.26513726 0.99926603 0.018045789 18
0.27139756 1.0079422 0.018220313 11
0.27263325 0.99931985 0.018080693 9
0.27576074 0.99638665 0.018045789 9
0.27852356 0.99354124 0.018010883 10
0.28489736 1.0021311 0.018185407 7
0.29098499 1.0107892 0.018359931 10
0.29881188 1.0251771 0.01863917 11
0.29485267 0.99924731 0.018185407 8
0.29873696 1.0001801 0.018220313 6
-1.1345907 0.16006218 0.020000458 4
-1.1391414 0.16070417 0.060291022 33
-1.0905124 0.15753381 0.019232552 5
-1.0365192 0.15361443 0.018290121 6
-1.0241414 0.15525252 0.018080693 3
-1.084792 0.16871023 0.019162742 1
0.058654726 0.0055317879 0.047625721 72
0.053212494 0.0029643178 0.015951499 87
0.053817749 0.003898859 0.047835063 49
0.043749452 0.0057185888 0.04804441 100
0.047737181 0.017457783 0.047416378 88
0.041769743 0.014243543 0.047730394 47
0.034653485 0.0094083548 0.048149079 26
0.027497351 0.0046137571 0.048567768 16
0.039542675 0.027835071 0.047207031 10
0.030129671 0.019771576 0.047835063 9
0.02044028 0.016792119 0.048253752 8
-0.40569246 0.8343147 0.016719405 3
-0.41544753 0.83818799 0.016893929 16
-0.4012441 0.84052271 0.016649596 32
-0.39899844 0.84368789 0.01661469 22
-0.40471488 0.84748536 0.016719405 28
-0.3845129 0.84913027 0.016370358 32
-0.3842454 0.85222882 0.016370358 29
-0.37996989 0.85512483 0.016300548 30
-0.3975836 0.86007363 0.01661469 22
-0.40124351 0.86377311 0.016684501 21
-0.38300622 0.86526489 0.016370358 29
-0.37272483 0.86747074 0.016195834 32
-0.37236136 0.87085205 0.016195834 36
-0.3640554 0.87317395 0.016056214 34
-0.37560737 0.87775129 0.016265642 23
-0.36331284 0.87955266 0.016056214 25
-0.37483263 0.88421059 0.016265642 27
-0.35459077 0.88491803 0.015916595 30
-0.36015344 0.88869292 0.016021309 34
-0.37757152 0.8942588 0.016335452 26
-0.35930264 0.89504403 0.016021309 21
-0.34896016 0.8968206 0.015846785 27
-0.34853464 0.89980102 0.015846785 27
-0.35401052 0.90381509 0.015951499 39
-0.35351402 0.90712756 0.015951499 39
-0.35105383 0.90997362 0.015916595 39
-0.33281004 0.91013926 0.015602452 50
-0.3263939 0.91225874 0.015497737 46
-0.33378291 0.91662627 0.015637357 43
-0.35298145 0.92305207 0.015986403 43
-0.32685298 0.92161644 0.015532642 56
-0.32434916 0.92432868 0.015497737 76
-0.33164954 0.9289515 0.015637357 53
-0.33305603 0.93238974 0.015672261 34
-0.33251268 0.93531716 0.015672261 29
-0.31621653 0.93539631 0.015393022 43
-0.31170815 0.93765515 0.015323213 55
-0.31896383 0.94221705 0.015462833 63
-0.31639725 0.94485366 0.015427927 52
-0.31969917 0.94868177 0.015497737 41
-0.31518698 0.95074695 0.015427927 42
-0.28912282 0.94836104 0.014974165 42
-0.30022228 0.95382452 0.015183593 33
-0.30738765 0.95850885 0.015323213 38
-0.31062746 0.96237302 0.015393022 37
-0.30215073 0.96360385 0.015253403 39
-1.0314722 1.1293017 0.084993593 3
-1.0392735 1.1310741 0.1425868 4
-0.28198528 0.96207893 0.014904355 42
-1.0029633 1.1285298 0.083528183 7
-1.0224729 1.133034 0.1411923 13
-0.29688466 0.96863496 0.015183593 33
-1.0094805 1.1357728 0.083946876 60
-1.013437 1.1367009 0.14049506 52
-0.29622126 0.97144222 0.015183593 39
-0.9868862 1.1358545 0.082795486 100
-1.0238419 1.1446518 0.14154093 100
-0.3032878 0.97627437 0.015323213 33
-0.99336523 1.1430942 0.083214171 100
-1.0070317 1.1463979 0.14014643 86
-0.29094625 0.97624493 0.015113784 34
-0.9843604 1.1463072 0.082795486 100
-0.99609965 1.1491863 0.13927488 94
-0.2785784 0.97628057 0.014904355 36
-0.99272794 1.1540734 0.083318844 67
-0.99476665 1.1545808 0.13927488 89
-0.28944886 0.98225731 0.015113784 40
-0.97775573 1.1562979 0.082586139 38
-1.0010731 1.1621938 0.13997212 68
-0.2848289 0.98419231 0.015043974 41
-0.97059411 1.1601393 0.08227212 36
-0.99390501 1.1661202 0.13944919 85
-0.28794658 0.98811257 0.015113784 34
-0.96922308 1.1654449 0.08227212 84
-0.97323149 1.1664882 0.13770607 92
-0.27557945 0.98797333 0.014904355 36
-0.97555774 1.1727849 0.082690813 91
-0.96991175 1.1712942 0.13753176 98
-0.26322371 0.98775053 0.014694926 52
-0.96063739 1.1744915 0.081958108 94
-0.96657723 1.1760819 0.13735744 100
-0.27210778 0.99320769 0.014869451 43
-0.94957894 1.1771455 0.081434749 98
-0.96899599 1.1824174 0.13770607 99
-0.30414051 1.0049487 0.015462833 47
-0.94436902 1.1810566 0.081225403 100
-0.97338313 1.1890376 0.13822901 94
-0.2879054 1.0036321 0.015183593 50
-0.93330568 1.1835883 0.080702044 94
-0.96231526 1.191677 0.13735744 92
-0.29858887 1.0099665 0.015393022 53
-0.94331127 1.1922829 0.081330076 82
-0.94542187 1.1928799 0.13596296 100
-0.29774606 1.0129272 0.015393022 53
-0.9379881 1.1963927 0.081120729 64
-0.95159787 1.2002926 0.1366602 100
-0.30081987 1.016703 0.015462833 15
-0.93664128 1.2010652 0.081120729 24
-0.95406586 1.2061176 0.13700883 92
-0.38821059 1.0455966 0.017068453 7
-0.91404825 1.20006 0.079969339 26
-0.95253426 1.2113651 0.13700883 84
-0.88940567 1.198285 0.026213514 6
-0.91445249 1.2057374 0.080074012 28
-0.93570727 1.2120616 0.13561434 91
-0.91470701 1.2113844 0.026702182 15
-0.9301334 1.2160331 0.081016064 46
-0.92652458 1.2149456 0.1349171 99
-0.89976901 1.2124089 0.026457848 26
-0.91137475 1.2159505 0.080074012 94
-0.9287737 1.22126 0.13526571 99
-0.90967935 1.2210088 0.026667276 31
-0.91362566 1.2222282 0.080283359 90
-0.92147869 1.2246546 0.13474278 87
-0.92137533 1.2305371 0.026911611 37
-0.90242797 1.2246066 0.07976 74
-0.92930955 1.2330205 0.13561434 57
-0.91975874 1.2356703 0.026911611 50
-0.90273625 1.2302771 0.079864666 72
-0.91248959 1.2333672 0.13421984 43
-0.90297216 1.2356592 0.026632372 71
-0.91071182 1.2381397 0.080388032 78
-0.89956099 1.234566 0.13317397 46
-0.88992494 1.2370266 0.026422944 88
-0.90526909 1.2420033 0.080178685 98
-0.9093017 1.2433112 0.13421984 52
-0.8901034 1.2429249 0.026457848 99
-0.89593917 1.2448413 0.07976 100
-0.91702181 1.2517648 0.13509139 71
-0.88844389 1.2479489 0.026457848 100
-0.8885867 1.2479964 0.07944598 100
-0.91722196 1.257511 0.13526571 80
-0.89072663 1.2537386 0.026527658 99
-0.89086467 1.2537849 0.079655327 100
-0.89301795 1.2545079 0.13317397 86
-0.87388164 1.2536198 0.02624842 99
-0.89484066 1.2607386 0.079969339 100
-0.89697748 1.2614644 0.13369691 82
-0.86462003 1.2559884 0.0261088 93
-0.88367432 1.2625344 0.07944598 100
-0.88960034 1.2645702 0.13317397 100
-0.87424845 1.2648611 0.02631823 85
-0.86685342 1.2622917 0.07860861 100
-0.90292126 1.2748237 0.13456847 84
-0.87242514 1.2700779 0.02631823 77
-0.86127108 1.2661566 0.078399263 76
-0.90670007 1.2821279 0.13509139 43
-0.86690253 1.2737005 0.02624842 81
-0.84823936 1.2670658 0.077771232 34
-0.89176255 1.2825381 0.13387123 35
-0.85769659 1.2756921 0.0261088 99
-0.85786122 1.2757512 0.078399263 17
-0.8788045 1.2832748 0.13282534 31
-0.85216373 1.2792375 0.026038991 93
-0.86359638 1.2833897 0.078817949 61
-0.87513143 1.2875789 0.13265105 18
-0.85037762 1.2841289 0.026038991 100
-0.8486715 1.2835026 0.078085244 100
-0.87331611 1.2925504 0.13265105 13
-0.84857446 1.289014 0.026038991 100
-0.85061544 1.2897714 0.07829459 100
-0.87708706 1.2995951 0.13317397 3
-0.84675413 1.2938929 0.026038991 100
-0.84131235 1.2918516 0.077875905 53
-0.87149876 1.303174 0.13282534 1
-0.83369774 1.2945124 0.025829561 92
-0.83574718 1.2952893 0.077666558 51
-0.8491357 1.3003644 0.13090792 5
-0.82999104 1.2986238 0.025794657 71
-0.84696084 1.3051243 0.078399263 55
-0.85099691 1.3066704 0.13125655 24
-0.83186716 1.3048813 0.025864467 74
-0.83577138 1.3063926 0.077875905 72
-0.84168285 1.3086808 0.1305593 61
-0.83381075 1.3109169 0.025934275 88
-0.82096368 1.3058951 0.0771432 61
-0.85658985 1.319821 0.1321281 100
-0.83377415 1.3164785 0.025969181 100
-0.82094234 1.311411 0.077247873 70
-0.83613092 1.3174093 0.130385 97
-0.81699938 1.3153775 0.025689943 100
-0.82646435 1.3191535 0.077666558 91
-0.83051056 1.3207679 0.13003637 97
-0.81137794 1.318651 0.025620133 100
-0.82639152 1.3247015 0.077771232 97
-0.83412343 1.3278177 0.1305593 100
-0.8094545 1.3233997 0.025620133 100
-0.81889731 1.3272436 0.077457212 100
-0.83401316 1.3333969 0.13073361 100
-0.7793023 1.3111255 0.17622307 15
-0.81491238 1.3311833 0.025759751 100
-0.7910828 1.3213857 0.075991809 100
-0.82651001 1.3359517 0.13021068 100
-0.77556938 1.3150074 0.17597933 16
-0.80925149 1.3344107 0.025689943 100
-0.80021721 1.3306592 0.076619841 100
-0.81164569 1.3354046 0.1289905 100
-0.77365881 1.3196312 0.17597933 16
-0.79989654 1.3360586 0.025550323 100
-0.79825193 1.3353689 0.076619841 100
-0.81333846 1.3416953 0.12933913 100
-0.77539355 1.3257836 0.17646681 18
-0.79054683 1.3376482 0.025410704 100
-0.79259187 1.3385142 0.076410495 96
-0.80949992 1.3456738 0.12916481 100
-0.77161747 1.3296328 0.17622307 20
-0.79775053 1.3462549 0.025585229 67
-0.79059917 1.3431973 0.076410495 45
-0.80015427 1.3472826 0.12846756 71
-0.76235491 1.331121 0.17524812 15
-0.81062311 1.3568217 0.025864467 67
-0.81079942 1.3568976 0.077666558 63
-0.83675331 1.3680913 0.1321281 18
-0.78975028 1.3478193 0.17914793 5
-0.81406671 1.3639625 0.025969181 100
-0.80324894 1.359252 0.077352546 100
-0.80360287 1.3594062 0.12916481 75
-0.76952475 1.3445674 0.17671055 15
-0.79184824 1.3598683 0.025585229 100
-0.81215411 1.3687947 0.077980578 100
-0.81248087 1.3689383 0.13021068 100
-0.78931814 1.3587562 0.17963541 33
-0.78978103 1.3645487 0.025585229 100
-0.81553239 1.3759763 0.07829459 100
-0.81038183 1.3736906 0.13021068 100
-0.76911038 1.3553758 0.17719802 35
-0.79864722 1.3741267 0.025794657 100
-0.80247241 1.3758402 0.077666558 100
-0.80826634 1.3784356 0.13021068 100
-0.75256592 1.3534845 0.17524812 22
-0.80017442 1.3804784 0.025864467 100
-0.80216926 1.3813803 0.077771232 100
-0.80976504 1.3848147 0.1305593 100
-0.76680034 1.3653884 0.17744176 20
-0.80167371 1.3868481 0.025934275 100
-0.80184394 1.3869257 0.077875905 100
-0.80398554 1.3879032 0.13021068 100
-0.78457922 1.3790469 0.18012288 15
-0.79587966 1.3898895 0.025864467 100
-0.81056672 1.3966541 0.078503937 100
-0.79458171 1.3892916 0.12951343 100
-0.77883905 1.3820407 0.17963541 12
-0.79008085 1.3928978 0.025794657 100
-0.80837101 1.4013995 0.078503937 100
-0.79963881 1.3973405 0.13021068 100
-0.77489442 1.3858389 0.17939167 10
-0.78427762 1.3958734 0.025724847 100
-0.80435055 1.4052891 0.078399263 100
-0.8082636 1.4071245 0.13125655 100
-0.76914221 1.3887738 0.17890419 7
-0.80196661 1.4099379 0.0261088 100
-0.80212468 1.4100127 0.078399263 100
-0.80603129 1.4118619 0.13125655 100
-0.76876849 1.3942239 0.17914793 3
-0.7961157 1.4129295 0.026038991 100
-0.80348688 1.4164503 0.07860861 100
-0.80018681 1.4148741 0.13090792 100
-0.79397625 1.41739 0.026038991 100
-0.80493444 1.4226685 0.078817949 100
-0.80163091 1.4210773 0.13125655 100
-0.79170829 1.4220774 0.026038991 100
-0.81522244 1.4335054 0.079550654 100
-0.79934996 1.4257913 0.13125655 100
-0.79121941 1.4276372 0.026073895 100
-0.800345 1.4321117 0.078817949 100
-0.811364 1.4375147 0.13265105 100
-0.79608518 1.4358615 0.026213514 100
-0.79802555 1.4368213 0.078817949 100
-0.80902559 1.4422626 0.13265105 100
-0.80448836 1.4459134 0.026422944 100
-0.80283815 1.4450899 0.079236634 100
-0.80667073 1.4470024 0.13265105 100
-0.79497617 1.4470408 0.026283324 100
-0.80760938 1.4534001 0.079655327 100
-0.79896039 1.4490464 0.1321281 100
-0.78547257 1.4481101 0.026143705 100
-0.80699641 1.4590392 0.07976 100
-0.80901724 1.4600654 0.13334829 100
-0.78665704 1.4545908 0.026213514 100
-0.80636054 1.4646823 0.079864666 100
-0.80837351 1.4657133 0.1335226 100
-0.7913658 1.4629235 0.026353134 100
-0.79682952 1.465746 0.07944598 100
-0.81478757 1.4750228 0.13439415 100
-0.79957944 1.4731455 0.026562562 99
-0.79793519 1.4722888 0.079655327 100
-0.80348343 1.4751794 0.1335226 100
-0.79003602 1.4741315 0.026422944 96
-0.79901165 1.4788477 0.079864666 100
-0.80101365 1.4798996 0.1335226 100
-0.78226918 1.4759958 0.02631823 61
-0.79652911 1.4835523 0.079864666 68
-0.8002879 1.4855442 0.13369691 92
0.11678773 1.3084223 0.13432953 10
0.15541738 1.2604111 0.14531837 7
0.15060335 1.2699575 0.01116954 25
0.16230929 1.2553042 0.032552965 29
0.16076744 1.2572343 0.054559495 50
0.138652 1.2849181 0.080921248 13
0.15052873 1.2700509 0.10136953 11
0.14317721 1.2792535 0.12669717 47
0.19118834 1.2191539 0.13272113 15
0.14486137 1.2771451 0.1739264 14
0.15856421 1.263515 0.010995016 100
0.15904114 1.2629138 0.032971654 100
0.1550419 1.2679559 0.055605363 98
0.15648842 1.2661321 0.077752642 28
0.16700718 1.2528703 0.097615108 24
0.16935748 1.2499071 0.11906482 100
0.18064848 1.2356716 0.13722014 30
0.15623805 1.2664478 0.16978529 44
0.16523799 1.2585943 0.010855397 100
0.16570678 1.2579989 0.032552965 100
0.15801516 1.2677662 0.055431053 99
0.16804779 1.2550262 0.075802729 30
0.16625077 1.2573081 0.098240845 24
0.16131794 1.2635722 0.12211776 100
0.18348187 1.235427 0.13677025 45
0.15199736 1.275408 0.17237349 42
0.17072561 1.2552745 0.010750682 100
0.17856714 1.2452414 0.031610917 100
0.15248072 1.2786185 0.056476921 100
0.17960739 1.2439104 0.073852822 31
0.16803944 1.2587113 0.098240845 24
0.17038339 1.2557123 0.11982805 100
0.19359043 1.2260194 0.13362093 31
0.14909393 1.2829518 0.17444403 42
0.16629231 1.2644947 0.010925206 100
0.1765551 1.2512689 0.031924933 61
0.15059426 1.2847252 0.056999855 94
0.17517915 1.253042 0.075071514 30
0.17459166 1.2537992 0.096989371 25
0.17930254 1.2477281 0.11753834 79
0.19040576 1.2334191 0.13542053 30
0.14614967 1.2904532 0.1765146 41
0.16802076 1.2658311 0.010925206 65
0.17458063 1.257316 0.032238949 60
0.16820043 1.2655978 0.054733805 50
0.18171346 1.2480572 0.07409656 46
0.18592703 1.2425878 0.094486415 39
0.16899097 1.2645717 0.12135452 12
0.197972 1.2269527 0.13317102 15
0.15386373 1.2842078 0.1739264 49
0.17704293 1.2576312 0.010715778 66
0.17264387 1.2633829 0.032552965 29
0.17477435 1.2605973 0.054036561 51
0.17735457 1.2572237 0.075315252 45
0.1911791 1.2391485 0.093547814 52
0.18741757 1.2440667 0.11601187 19
0.191282 1.239014 0.13632034 30
0.16857097 1.268708 0.16823238 60
0.18358451 1.2525597 0.010576159 40
0.16953713 1.2710598 0.032971654 29
0.16564527 1.2761853 0.055605363 49
0.18265894 1.2537786 0.074584037 61
0.18684599 1.2482643 0.095112152 51
0.20450887 1.2250028 0.11105084 14
0.19527829 1.2371593 0.13542053 38
0.17615542 1.2623436 0.16564418 68
0.18045631 1.260223 0.010715778 39
0.14002973 1.3138514 0.035693124 25
0.1758098 1.2663869 0.054385185 51
0.19629923 1.2392063 0.072146654 63
0.19327399 1.2432195 0.093860678 52
0.19546312 1.2403154 0.1144854 13
0.21098778 1.2197211 0.13002171 48
0.17322475 1.2698162 0.16771474 67
0.17960081 1.2645828 0.010785587 39
0.18963 1.251191 0.031506244 31
0.17020515 1.2771285 0.055431053 49
0.19063535 1.2498486 0.073609084 62
0.19949892 1.2380134 0.092609204 53
0.20164984 1.2351413 0.11295892 13
0.21473861 1.2176642 0.1291219 40
0.17248076 1.2740898 0.16875002 66
0.18252257 1.2642679 0.010750682 79
0.1984618 1.2428291 0.030878214 31
0.18505391 1.2608632 0.053513627 52
0.19705009 1.244728 0.072634131 78
0.20467052 1.2344782 0.091670595 54
0.20327562 1.2363545 0.11295892 13
0.21397787 1.2219596 0.13002171 32
0.18346369 1.263002 0.16460891 69
0.19137514 1.2558941 0.010541254 81
0.20248654 1.2408395 0.03066887 64
0.19150221 1.2557219 0.05281638 79
0.19870937 1.2459571 0.072634131 78
0.20160174 1.2420382 0.092922069 79
0.20024216 1.2438803 0.1144854 13
0.21440032 1.2246977 0.13047162 32
0.18518683 1.2642785 0.16460891 69
0.19307339 1.257143 0.010541254 95
0.20531264 1.2404386 0.030564198 64
0.184957 1.2682204 0.054036561 77
0.20271939 1.2439778 0.072146654 63
0.20091656 1.2464384 0.093547814 100
0.21234152 1.2308453 0.11105084 14
0.22520363 1.2132907 0.12687239 16
0.18691441 1.2655489 0.16460891 69
0.19250935 1.2616826 0.010611063 81
0.21408632 1.2320063 0.029936166 66
0.18327054 1.2743895 0.054559495 100
0.20445892 1.2452475 0.072146654 79
0.20382681 1.2461169 0.093234941 100
0.21749642 1.2273161 0.10990598 14
0.24172845 1.1939881 0.12102367 17
0.186461 1.2700014 0.16564418 68
0.19656843 1.2596846 0.010541254 95
0.21102557 1.2396541 0.030354854 65
0.18619943 1.274051 0.054385185 100
0.21425226 1.2351834 0.070440479 65
0.20780301 1.2441189 0.092609204 100
0.21105194 1.2396175 0.1125773 13
0.2500532 1.1855806 0.11832426 8
0.19046974 1.2681344 0.16460891 69
0.19353455 1.2673553 0.010680873 93
0.21374837 1.2391522 0.030250182 98
0.19367626 1.2671576 0.053513627 100
0.19498128 1.2653368 0.074827775 100
0.21743241 1.234012 0.090419121 96
0.2137548 1.2391431 0.11219569 14
0.23099872 1.2150837 0.12642249 16
0.19549978 1.2646133 0.163056 78
0.20454672 1.2555614 0.010401634 83
0.21191457 1.2452053 0.030564198 97
0.20003384 1.2619046 0.05281638 100
0.21052179 1.2471629 0.071902916 48
0.21790898 1.2367797 0.090731993 95
0.20515147 1.2547114 0.11563025 20
0.23594341 1.2114309 0.12507279 16
0.19498864 1.268996 0.16409127 93
0.20162958 1.263298 0.010541254 95
0.21127114 1.2496455 0.030773543 64
0.19830504 1.2680056 0.053339314 78
0.21447968 1.245102 0.071415432 64
0.21954039 1.237936 0.090731993 95
0.21137559 1.2494974 0.11410378 55
0.22961715 1.2236671 0.12822211 24
0.19450381 1.2733881 0.16512655 76
0.21024066 1.2546864 0.010331824 84
0.2198261 1.2410121 0.030145511 98
0.19890192 1.2708616 0.053513627 100
0.22183743 1.2381428 0.07019674 66
0.21777415 1.2439393 0.091670595 100
0.20290917 1.2651451 0.11753834 92
0.22784692 1.2295699 0.12957181 56
0.19848093 1.2714622 0.16409127 77
0.20499539 1.2656578 0.010541254 81
0.22595388 1.2355474 0.029726824 100
0.20056477 1.2720232 0.053513627 100
0.22339165 1.2392285 0.07019674 82
0.21709061 1.248281 0.092296332 100
0.21352568 1.2534026 0.1144854 87
0.23048598 1.2290363 0.1291219 88
0.19904211 1.2742107 0.16460891 69
0.209001 1.2635686 0.010471444 96
0.22076923 1.2465351 0.030354854 97
0.20684934 1.266683 0.05281638 100
0.21374792 1.2566979 0.072634131 63
0.22886771 1.2348132 0.089480512 100
0.21409917 1.2561895 0.11486702 81
0.22876716 1.2349586 0.13047162 96
0.208491 1.2643068 0.16098544 72
0.21298778 1.2614576 0.010401634 97
0.21678698 1.2559173 0.030878214 95
0.20858517 1.2678778 0.05281638 100
0.21769416 1.2545943 0.072146654 79
0.23384365 1.2310439 0.08854191 84
0.22023955 1.2508825 0.11334054 100
0.23149422 1.23447 0.13002171 96
0.2124036 1.2623094 0.15995017 72
0.22370654 1.249406 0.010122396 85
0.22635165 1.2455196 0.030145511 65
0.21032515 1.2690666 0.05281638 100
0.22608936 1.245905 0.070684217 81
0.22989759 1.2403097 0.090106249 100
0.23075733 1.2390466 0.1102876 92
0.22434562 1.248467 0.13362093 93
0.22173297 1.2523056 0.1563267 82
0.21978509 1.2588272 0.010296919 42
0.22130543 1.2565767 0.030773543 32
0.2120693 1.2702491 0.05281638 79
0.22553015 1.2503227 0.071171694 81
0.22822395 1.2463349 0.091044858 100
0.22250578 1.2547997 0.11372216 100
0.23692626 1.2334527 0.1291219 100
0.20936039 1.2742592 0.163056 78
0.21481195 1.2699425 0.010506349 40
0.22745481 1.2510854 0.030354854 32
0.21159852 1.2747355 0.053165004 52
0.22720876 1.2514523 0.071171694 97
0.23978898 1.2326887 0.088229038 98
0.2274799 1.251048 0.1125773 100
0.24180156 1.2296867 0.1277722 97
0.21112266 1.2754452 0.163056 70
0.21425551 1.2743806 0.010576159 40
0.2224116 1.2621279 0.030982886 31
0.21437818 1.2741964 0.05299069 52
0.22660714 1.255825 0.071659178 80
0.24460879 1.2287816 0.087290429 99
0.22690114 1.2553834 0.11334054 89
0.24008814 1.2355729 0.1291219 96
0.22136444 1.263701 0.15891489 73
0.22042719 1.2688756 0.010436539 41
0.22413144 1.2632685 0.030982886 31
0.22602418 1.2604034 0.051421888 55
0.22939914 1.2552947 0.071415432 96
0.23859018 1.2413821 0.089480512 97
0.23941904 1.2401276 0.10952436 85
0.23849267 1.2415297 0.13047162 96
0.21883038 1.2712927 0.16098544 72
0.22655627 1.2633337 0.010296919 42
0.21490443 1.2811058 0.032029606 30
0.23320007 1.2532002 0.05055033 56
0.23109511 1.2564108 0.071415432 48
0.24240369 1.2391623 0.088854775 98
0.23890913 1.2444924 0.1102876 99
0.24014053 1.2426143 0.13047162 88
0.22270066 1.2692144 0.15995017 72
0.23046145 1.2611074 0.01022711 28
0.22758302 1.2655313 0.030982886 31
0.22293618 1.2726731 0.052467756 53
0.24253842 1.242546 0.069221787 67
0.24404323 1.2402332 0.088854775 98
0.24592081 1.2373475 0.10837951 87
0.2513572 1.2289922 0.12642249 99
0.22760597 1.265496 0.15839726 73
0.23226359 1.2622752 0.01022711 42
0.25106347 1.2331483 0.028889447 34
0.22045892 1.2805645 0.053165004 52
0.2302779 1.2653518 0.072390392 100
0.24362633 1.2446709 0.089480512 97
0.24444178 1.2434074 0.10952436 85
0.25515509 1.226809 0.12552269 82
0.22313842 1.2764131 0.16150309 70
0.2339839 1.2633814 0.01022711 56
0.24298683 1.2493255 0.029831495 66
0.23513848 1.2615788 0.051073264 55
0.24378639 1.2480772 0.069709264 66
0.25700489 1.2274398 0.086038955 72
0.24291945 1.2494308 0.11066922 85
0.25149611 1.2360404 0.1277722 97
0.23532772 1.2612833 0.1563267 74
0.23991361 1.2576768 0.010087491 71
0.24779299 1.2452848 0.029517479 67
0.23890844 1.2592576 0.05072464 84
0.24430832 1.2507652 0.069953002 49
0.25428379 1.2350767 0.087290429 71
0.24451098 1.2504464 0.11066922 92
0.25722566 1.2304499 0.12597258 82
0.23799518 1.2606939 0.15580906 67
0.24481899 1.2536826 0.0099827768 87
0.24838811 1.2480259 0.029622151 100
0.23955497 1.2620256 0.050898954 83
0.2481069 1.2484716 0.069465525 49
0.255909 1.236106 0.087290429 57
0.25142801 1.2432079 0.10876112 79
0.25675496 1.2347653 0.12687239 99
0.23352474 1.271583 0.15891489 65
0.25181502 1.2462704 0.0098082526 74
0.25641775 1.2389188 0.028994121 100
0.22752973 1.2850596 0.053165004 79
0.24977893 1.2495224 0.069465525 49
0.2533448 1.243827 0.08854191 70
0.2457889 1.2558955 0.11143246 91
0.26251557 1.2291791 0.12507279 100
0.23322719 1.2759594 0.15995017 64
0.24714792 1.2574999 0.010017681 72
0.25594848 1.2433338 0.029203463 100
0.23563787 1.2760277 0.052119136 81
0.25145459 1.2505676 0.069465525 66
0.26125497 1.2347919 0.086664692 71
0.2568109 1.2419455 0.10799789 79
0.26720518 1.2252139 0.12372308 92
0.24111187 1.2672162 0.15684435 66
0.24658114 1.2618529 0.010087491 71
0.25848556 1.2425554 0.029098792 100
0.24768969 1.2600558 0.05037602 84
0.24983913 1.2565715 0.07019674 82
0.26686507 1.2289718 0.085413218 58
0.24489513 1.264586 0.11295892 82
0.2645441 1.2327342 0.12552269 82
0.2477468 1.2599633 0.15425615 67
0.25665143 1.2492645 0.0098082526 74
0.25492349 1.2520875 0.029622151 100
0.2504423 1.2594087 0.050201707 85
0.25257573 1.2559233 0.069953002 49
0.26950017 1.2282726 0.085100345 58
0.25277293 1.255601 0.11066922 92
0.26310906 1.2387142 0.12687239 99
0.25046745 1.2593677 0.15373851 76
0.25728819 1.2519947 0.0098431576 100
0.25557137 1.2548217 0.029726824 100
0.25422084 1.2570455 0.049853086 85
0.25633454 1.2535651 0.069465525 49
0.26597473 1.2376909 0.086664692 57
0.26466051 1.2398551 0.10685304 73
0.26879308 1.2330501 0.12507279 83
0.24415535 1.2736199 0.15787962 65
0.25278038 1.2632904 0.010052586 86
0.25623477 1.2575572 0.029831495 99
0.24564034 1.2751405 0.051596198 82
0.25904876 1.2528868 0.069221787 33
0.26964793 1.2352955 0.086038955 72
0.26224953 1.2475746 0.10837951 79
0.27745113 1.2223448 0.12192347 85
0.24192718 1.2813033 0.15995017 64
0.25758216 1.2591757 0.0099478718 87
0.26408711 1.2482938 0.029203463 100
0.25353914 1.2659391 0.05055033 84
0.26379174 1.2487879 0.068490572 50
0.27127382 1.2362714 0.086038955 58
0.25585967 1.2620572 0.11143246 77
0.27703202 1.2266387 0.12282328 85
0.24371383 1.2823756 0.15995017 64
0.2562314 1.2653533 0.010052586 86
0.26983356 1.2424173 0.028784776 100
0.25933731 1.2601161 0.049853086 100
0.2634396 1.2531989 0.068978049 50
0.27290311 1.2372415 0.086038955 72
0.26158485 1.2563264 0.10990598 85
0.27663958 1.2309411 0.12372308 83
0.2533876 1.2701485 0.15580906 67
0.26607445 1.2525876 0.0097733475 89
0.26338202 1.2571639 0.029622151 100
0.26206023 1.2594105 0.049678773 86
0.26714125 1.2507744 0.068490572 50
0.27653915 1.2348007 0.085413218 58
0.26427972 1.2556381 0.10952436 99
0.27627385 1.2352517 0.12462288 83
0.26493141 1.2545304 0.15063268 70
0.27481672 1.2414863 0.0095290141 92
0.26810461 1.2529866 0.029308135 100
0.26276603 1.2621334 0.049853086 85
0.27182311 1.2466154 0.067759357 68
0.27418032 1.2425766 0.086664692 57
0.27983147 1.2328943 0.10418171 75
0.28084648 1.2311552 0.12327318 68
0.25883409 1.2688701 0.15477379 67
0.26844847 1.2562885 0.0098082526 74
0.27479598 1.2453253 0.028784776 100
0.26248902 1.2665815 0.050201707 85
0.27846172 1.2389939 0.066540658 52
0.27682137 1.241827 0.086351827 58
0.26767707 1.2576209 0.10952436 85
0.28734002 1.2236595 0.12102367 77
0.26057726 1.2698835 0.15477379 67
0.266164 1.2642045 0.0099478718 73
0.27546212 1.2480149 0.028889447 100
0.25231686 1.2883147 0.052293446 80
0.27416861 1.2502673 0.068003096 51
0.28437287 1.2325 0.084474608 59
0.27720302 1.2449838 0.10647142 73
0.2918368 1.219504 0.11967396 78
0.266164 1.2642045 -0.0099478718 86
0.25558904 1.2826173 0.15839726 73
0.2688807 1.2634548 0.0099129668 87
0.27614373 1.2507058 0.028994121 100
0.27089402 1.2599208 0.049330149 87
0.26700309 1.2667506 0.07019674 82
0.28696671 1.231708 0.084161744 59
0.2740036 1.2544625 0.10837951 87
0.28858426 1.2288687 0.12192347 76
0.26789084 1.2651923 -0.0099478718 86
0.26407412 1.2718918 0.15477379 75
0.27257246 1.2609512 0.0098431576 88
0.27389303 1.2586142 0.029412808 100
0.27162567 1.2626266 0.049504463 86
0.27166861 1.2625506 0.069465525 49
0.28274906 1.2429421 0.086038955 72
0.27762809 1.2520044 0.10761628 87
0.28922889 1.231475 0.12237337 76
0.27343106 1.2594317 0.15063268 70
0.28308719 1.2462171 0.0095290141 76
0.27560031 1.259575 0.029412808 100
0.27139869 1.2670714 0.049853086 85
0.27630129 1.2583243 0.068734311 50
0.28923061 1.2352562 0.084474608 59
0.28315181 1.2461019 0.1060898 81
0.28607738 1.2408822 0.12462288 83
0.269474 1.2705054 0.15373851 68
0.27794987 1.2593803 0.0097733475 89
0.28507429 1.2465646 0.028575432 100
0.27700773 1.2610753 0.049155839 87
0.27897206 1.2575417 0.068490572 50
0.28509751 1.2465228 0.086351827 58
0.28386143 1.2487464 0.10647142 73
0.29529747 1.2281744 0.12102367 86
0.27497736 1.2647276 0.15166797 69
0.28448731 1.2515712 0.0095988233 76
0.28673944 1.2474865 0.028575432 100
0.27872354 1.2620251 0.049155839 87
0.28642625 1.2480545 0.067028143 51
0.29153129 1.2387953 0.084787481 59
0.28458628 1.2513916 0.10685304 88
0.29878014 1.2256477 0.12012386 77
0.27483228 1.2690829 -0.0099478718 86
0.26924402 1.2792187 0.15580906 67
0.28233239 1.2595131 0.0097384425 90
0.28457493 1.2554121 0.028994121 100
0.2842662 1.2559767 0.048458595 88
0.28714418 1.2507133 0.067271881 69
0.29696012 1.2327619 0.083536007 60
0.28155878 1.260928 0.10876112 79
0.29943725 1.2282317 0.12057377 77
0.2765761 1.2700404 -0.0099478718 96
0.28029156 1.2632455 0.15063268 70
0.28491071 1.2586404 0.0097035384 90
0.28618607 1.2562895 0.028994121 100
0.28492916 1.2586064 0.048632905 88
0.28589997 1.2568169 0.068003096 51
0.29567021 1.2388074 0.084474608 59
0.29067767 1.2480102 0.10570818 81
0.28008628 1.2675333 0.15166797 77
0.28851283 1.2560408 0.0096337283 90
0.29356271 1.2466543 0.028366089 100
0.28097257 1.2700562 0.049678773 86
0.28760087 1.2577358 0.068003096 51
0.29918 1.2362131 0.083848871 59
0.29234782 1.2489125 0.10570818 73
0.29886901 1.2367911 0.12237337 76
0.27998605 1.2718899 -0.0099478718 86
0.28182465 1.2684724 0.15166797 69
0.28644595 1.2640078 0.0097733475 89
0.2933479 1.2510707 0.028575432 100
0.28084409 1.274508 0.050027397 85
0.29678011 1.2446374 0.066053182 52
0.29523 1.247543 0.08572609 58
0.29032466 1.2567375 0.10723466 73
0.28720358 1.2625877 0.14959741 70
0.29097727 1.259622 0.0096686333 75
0.29689661 1.2484329 0.028366089 100
0.27888006 1.2824891 0.05072464 84
0.29472536 1.2525371 0.067028143 51
0.29569751 1.2506995 0.10570818 73
0.2835044 1.2737477 0.15270324 76
0.29184496 1.2623391 0.0097035384 90
0.29186291 1.2623048 0.048632905 88
0.29649568 1.2534695 0.067028143 51
0.2956377 1.2551057 0.10647142 81
0.28813049 1.2694231 -0.0098431576 97
0.29073519 1.2644556 0.14959741 78
0.29725483 1.2561402 0.0095639192 91
0.29635346 1.257874 0.067515619 51
0.29914382 1.252507 0.10570818 73
0.28618568 1.2774311 -0.0099827768 96
0.294245 1.2619295 0.14856213 79
0.29065391 1.2729044 0.049504463 57
0.29797271 1.2587124 0.067515619 51
0.28878638 1.2765259 -0.0099478718 96
0.29233593 1.2696428 0.15063268 70
0.29694599 1.2649368 0.048632905 59
0.28968436 1.2791395 0.15322088 76
0.28966713 1.2835884 0.05037602 56
0.29495689 1.2731526 0.15115032 77
0.29859433 1.2702996 0.0097733475 100
0.29500282 1.2774467 -0.0099129668 100
0.29695991 1.2828889 -0.0099827768 100
