# .PCD v0.7 - Point Cloud Data file format
VERSION 0.7
FIELDS x y z intensity
SIZE 4 4 4 4
TYPE F F F F
COUNT 1 1 1 1
WIDTH 729
HEIGHT 1
VIEWPOINT 0 0 0 1 0 0 0
POINTS 729
DATA ascii
-1.1805074 0.16380894 0.020803269 21
-1.1779487 0.16764693 0.020768363 28
-1.0606101 0.15472628 0.01870898 6
-1.042264 0.1557674 0.018394837 6
-1.0298537 0.15758976 0.018185407 2
0.054754078 0.0032932162 0.047835063 58
0.051125079 0.0032656193 0.047939736 44
0.050641865 0.0083522797 0.047730394 29
0.045302808 0.0057479739 0.015986403 8
0.04481703 0.0050124526 0.04804441 100
0.03837657 0.0068989992 0.048149079 62
0.0456478 0.02367276 0.047207031 30
0.037556767 0.017093778 0.047730394 19
0.032540977 0.015683115 0.047939736 9
0.03004247 0.017403185 0.047939736 9
0.018157184 0.0062015653 0.048777111 8
0.015627265 0.007969439 0.048777111 8
0.024364948 0.026243567 0.047730394 9
-1.0299618 1.1269292 0.08488892 3
-1.0572042 1.1330835 0.14415559 4
-1.0520709 1.1378062 0.028691756 7
-1.0131333 1.1288668 0.084051549 7
-1.0190315 1.1302209 0.14084367 8
-1.0118289 1.1343112 0.02799366 10
-1.0079811 1.1334136 0.083842203 39
-1.0158243 1.1352431 0.14066938 43
-0.97947782 1.132117 0.027435184 30
-0.99704975 1.1362773 0.083318844 91
-1.0146046 1.1404335 0.14066938 86
-0.97626024 1.1369861 0.027400278 42
-0.99964553 1.1426091 0.083528183 100
-1.015239 1.1463585 0.14084367 86
-0.98066729 1.1442688 0.027504992 41
-0.98074251 1.1442871 0.082586139 100
-1.0060408 1.1504729 0.14014643 86
-0.98517388 1.1510547 0.027609708 22
-0.98136514 1.1501093 0.082690813 91
-0.99310106 1.1530223 0.13910057 92
-0.97427279 1.1534365 0.027435184 23
-0.98210031 1.1554055 0.082795486 41
-0.98802572 1.1568961 0.13875194 80
-0.96129972 1.1557873 0.027225753 44
-0.9846161 1.1617392 0.083004825 31
-0.98280483 1.1612769 0.13840333 80
-0.96381551 1.1620631 0.027295563 61
-0.98323935 1.1670936 0.083004825 73
-0.98142976 1.166625 0.13840333 92
-0.96630591 1.1683612 0.027365373 67
-0.96445853 1.1678758 0.082062781 98
-0.98388988 1.1729808 0.13875194 92
-0.95717698 1.1715922 0.027225753 81
-0.95727068 1.1716172 0.081748761 90
-0.96707219 1.1742288 0.13735744 100
-0.95576602 1.1768508 0.027225753 89
-0.95393139 1.1763551 0.081644088 98
-0.9598816 1.1779628 0.13683452 100
-0.94662207 1.179991 0.027086135 92
-0.95250386 1.1816022 0.081644088 100
-0.96421319 1.18481 0.13735744 99
-0.94518179 1.1852127 0.027086135 93
-0.94336015 1.1847068 0.081225403 100
-0.96659547 1.1911592 0.13770607 91
-0.94757313 1.1915129 0.027155945 93
-0.94190353 1.1899171 0.081225403 86
-0.96511608 1.1964506 0.13770607 99
-0.96147662 1.2011259 0.027435184 58
-0.93466669 1.1934788 0.08091139 72
-0.95212251 1.1984577 0.1366602 100
-0.95996255 1.2063993 0.027435184 42
-0.93509811 1.1992131 0.081016064 34
-0.94296151 1.2014858 0.13596296 99
-0.9334814 1.2043625 0.026981421 52
-0.92400688 1.2015884 0.080492698 24
-0.95100683 1.2094939 0.13683452 84
-0.9281984 1.208143 0.026911611 71
-0.91682285 1.2047712 0.080178685 26
-0.94190019 1.2122042 0.13613728 87
-0.92666 1.2133001 0.026911611 75
-0.91338342 1.2093145 0.080074012 34
-0.94416398 1.218555 0.13648589 94
-0.9231903 1.2178702 0.026876707 78
-0.91757363 1.2161628 0.080388032 88
-0.92924541 1.2197111 0.13526571 100
-0.91015083 1.21948 0.026667276 89
-0.91791624 1.2218704 0.080492698 96
-0.92004985 1.2225273 0.13456847 99
-0.90093642 1.2221942 0.026527658 85
-0.9125163 1.2258031 0.080283359 84
-0.92036337 1.2282487 0.13474278 71
-0.90316325 1.2284595 0.026597468 88
-0.90329748 1.2285018 0.079864666 72
-0.91495472 1.2321795 0.13439415 47
-0.90536398 1.2347457 0.026667276 81
-0.89598042 1.2317493 0.079550654 82
-0.91902632 1.2391086 0.1349171 43
-0.90753835 1.241053 0.026737086 83
-0.89816076 1.2380223 0.07976 97
-0.90410906 1.2399447 0.13369691 45
-0.88687891 1.239922 0.026388038 96
-0.90031487 1.2443161 0.079969339 100
-0.91571563 1.2493528 0.1349171 64
-0.88143295 1.2436783 0.02631823 100
-0.89865035 1.2493758 0.079969339 100
-0.90646738 1.2519625 0.13421984 80
-0.87597829 1.2474024 0.02624842 99
-0.88560456 1.2506251 0.079341307 100
-0.90477616 1.2570436 0.13421984 84
-0.87809116 1.25366 0.02631823 93
-0.88013464 1.2543521 0.079131968 100
-0.90495425 1.2627579 0.13439415 78
-0.87647945 1.258393 0.02631823 96
-0.87852067 1.2590919 0.079131968 100
-0.89765733 1.2656438 0.13387123 94
-0.87098664 1.2620608 0.02624842 89
-0.88246661 1.266036 0.07944598 100
-0.87897402 1.2648265 0.13230242 93
-0.85793656 1.2630523 0.026038991 79
-0.87507135 1.2690529 0.079131968 91
-0.90168351 1.2783723 0.13456847 52
-0.86374682 1.2706339 0.02617861 81
-0.84884554 1.2653571 0.077771232 51
-0.89990002 1.2834365 0.13456847 40
-0.86575598 1.2769141 0.02624842 89
-0.84522754 1.2695638 0.077666558 17
-0.90185052 1.2898377 0.1349171 38
-0.86397797 1.2818528 0.02624842 99
-0.85662121 1.2791898 0.078399263 53
-0.86817902 1.2833736 0.13195379 22
-0.85091525 1.2826622 0.026038991 96
-0.85671085 1.2847831 0.078503937 93
-0.85702318 1.2848973 0.13108224 15
-0.83411318 1.281999 0.025759751 100
-0.85490543 1.2896903 0.078503937 100
-0.85521728 1.2898057 0.13108224 3
-0.83231753 1.2868273 0.025759751 100
-0.83624572 1.288296 0.077561885 76
-0.87205642 1.3016851 0.13282534 1
-0.84172875 1.2958905 0.025969181 100
-0.82321817 1.2888958 0.076933853 49
-0.87391931 1.3080542 0.13317397 3
-0.84175271 1.3014586 0.026004085 75
-0.83819121 1.3000987 0.077875905 53
-0.83666784 1.2995169 0.12986206 15
-0.83242649 1.303434 0.025864467 71
-0.83446902 1.3042221 0.077771232 68
-0.84224623 1.3072231 0.1305593 56
-0.8212406 1.3046243 0.025689943 78
-0.84003907 1.3119535 0.078189917 65
-0.85335654 1.3171458 0.13177948 100
-0.82308716 1.3108734 0.025759751 100
-0.81583935 1.3080184 0.076933853 69
-0.84216934 1.3183901 0.13090792 100
-0.82128602 1.3154237 0.025759751 99
-0.8121919 1.3118067 0.07682918 96
-0.83478922 1.3207946 0.130385 99
-0.81937379 1.3202071 0.025759751 100
-0.82326514 1.3217707 0.077561885 97
-0.83100933 1.3248823 0.13021068 100
-0.81003326 1.3219757 0.025620133 100
-0.81948012 1.3258097 0.077457212 95
-0.8253718 1.3282009 0.12986206 100
-0.78722578 1.3127192 0.17719802 15
-0.80439764 1.3252028 0.025550323 100
-0.82492369 1.333617 0.077875905 100
-0.81788439 1.3307314 0.12933913 100
-0.76695555 1.3098543 0.17476064 15
-0.79875618 1.3283973 0.025480513 100
-0.8008036 1.329245 0.076619841 100
-0.8196004 1.3370271 0.12968774 100
-0.7723996 1.3174855 0.17573559 20
-0.80417854 1.3361874 0.025620133 100
-0.78778714 1.3293341 0.075991809 100
-0.82128924 1.3433415 0.13003637 100
-0.77597481 1.3243954 0.17646681 16
-0.80587834 1.3424666 0.025689943 100
-0.7876665 1.3347774 0.076096483 96
-0.8009246 1.3403749 0.12829325 100
-0.77403158 1.3290205 0.17646681 18
-0.80387181 1.347196 0.025689943 81
-0.79671055 1.3441429 0.076724514 60
-0.79892534 1.3450872 0.12829325 90
-0.795811 1.3437594 0.17963541 22
-0.80572587 1.3530264 0.025759751 56
-0.82976109 1.3633628 0.078713275 53
-0.81541508 1.3571932 0.13003637 22
-0.79947263 1.3503373 0.18036664 3
-0.80735093 1.3593481 0.025829561 99
-0.80569726 1.3586301 0.077457212 100
-0.82249492 1.3659234 0.13090792 56
-0.76830488 1.3423947 0.17646681 16
-0.79979104 1.3616741 0.025724847 100
-0.80546349 1.3641605 0.077561885 100
-0.82405597 1.3723104 0.13125655 100
-0.78447968 1.3549625 0.17890419 33
-0.80503207 1.3696189 0.025864467 100
-0.80155486 1.3680801 0.077457212 100
-0.81647915 1.3746845 0.13073361 100
-0.79695207 1.3660434 0.18085411 42
-0.79197592 1.3694518 0.025655037 100
-0.81587118 1.3801256 0.078399263 100
-0.79798776 1.3721373 0.12916481 100
-0.78761333 1.367503 0.17987914 33
-0.78622931 1.3724885 0.025585229 100
-0.81737465 1.3865316 0.07860861 100
-0.80677551 1.3817526 0.13021068 100
-0.76018447 1.3607453 0.17646681 22
-0.78936547 1.3801017 0.025689943 100
-0.8095445 1.3892937 0.07829459 100
-0.80804282 1.3886095 0.1305593 100
-0.76151949 1.3674175 0.17695428 16
-0.79994589 1.3906202 0.025934275 100
-0.79830116 1.3898642 0.077771232 100
-0.81311625 1.3966751 0.13125655 100
-0.7774623 1.3802838 0.17939167 15
-0.80502707 1.3986952 0.026073895 100
-0.805188 1.3987699 0.07829459 100
-0.80730575 1.3997524 0.13090792 100
-0.787929 1.3907621 0.18109785 15
-0.79195827 1.3983335 0.025864467 100
-0.8084113 1.4060373 0.07860861 100
-0.79788166 1.4011071 0.13021068 100
-0.78575391 1.3954287 0.18109785 7
-0.78805906 1.4019263 0.025829561 100
-0.81171256 1.4130971 0.078922622 100
-0.79578143 1.4055734 0.13021068 100
-0.77110773 1.3939207 0.17939167 3
-0.79126066 1.409174 0.025934275 100
-0.80044454 1.4135504 0.078399263 100
-0.81333929 1.4196954 0.1321281 100
-0.76892179 1.3985283 0.17939167 1
-0.79093605 1.4144844 0.025969181 100
-0.80010313 1.4188902 0.078503937 100
-0.80219859 1.4198974 0.13125655 100
-0.80307251 1.4261415 0.02624842 100
-0.80322117 1.4262135 0.078817949 100
-0.79992181 1.4246135 0.13125655 100
-0.79347426 1.4275799 0.0261088 100
-0.80439478 1.432925 0.079027295 100
-0.79751343 1.4295568 0.13125655 100
-0.78758472 1.4304947 0.026038991 100
-0.80923575 1.441186 0.07944598 100
-0.80234879 1.4377851 0.13195379 100
-0.78896719 1.4367092 0.0261088 100
-0.8016389 1.4430189 0.079131968 100
-0.80726093 1.4458182 0.13265105 100
-0.79735345 1.4467645 0.02631823 100
-0.79571182 1.4459399 0.078922622 100
-0.81557614 1.4559176 0.13369691 100
-0.80223757 1.4548427 0.026457848 100
-0.79880828 1.4531059 0.079236634 100
-0.80440682 1.4559413 0.13282534 100
-0.78915399 1.4541004 0.02624842 100
-0.80353004 1.4614444 0.079655327 100
-0.80022997 1.4597585 0.13265105 100
-0.78663772 1.4590042 0.02624842 100
-0.80808789 1.4700611 0.080074012 100
-0.80654746 1.4692671 0.1335226 100
-0.78777295 1.4655105 0.02631823 100
-0.79500347 1.4692696 0.07944598 100
-0.81116933 1.4776742 0.13421984 100
-0.79596299 1.4757476 0.026527658 100
-0.79255432 1.4739603 0.07944598 100
-0.81751353 1.4870474 0.13509139 100
-0.79702681 1.4823112 0.026597468 81
-0.79185444 1.4795761 0.079550654 100
-0.80091184 1.4843657 0.13369691 94
-0.80556828 1.4925903 0.13439415 31
0.12115341 1.3018551 0.13280307 5
0.15499291 1.2632258 0.011029921 25
0.15172866 1.2673018 0.033390339 28
0.14398155 1.2769752 0.056825545 23
0.12769133 1.297316 0.10700117 10
0.15605503 1.2618996 0.12249938 37
0.19429436 1.2141521 0.13137141 7
0.14182684 1.2796657 0.17496167 7
0.15448853 1.2679392 0.011099731 88
0.17484611 1.2423096 0.031610917 92
0.14725915 1.2770408 0.056651235 71
0.15737683 1.264303 0.077508904 29
0.17158464 1.2464156 0.096363634 25
0.1592539 1.2619398 0.12211776 93
0.19123197 1.2216802 0.13317102 23
0.14387608 1.2813001 0.17496167 28
0.15985757 1.2645382 0.010995016 100
0.17022923 1.2513912 0.032134276 100
0.15511286 1.2705524 0.055779677 98
0.15410012 1.2718362 0.078483857 28
0.18784839 1.2290574 0.092609204 40
0.15359151 1.272481 0.12440746 100
0.18911079 1.2274573 0.13452072 46
0.15155646 1.2750604 0.17237349 42
0.16643301 1.2595329 0.010855397 100
0.17182764 1.2526479 0.032134276 100
0.15677494 1.2718592 0.055779677 100
0.16188809 1.2653334 0.077265166 29
0.17475265 1.2489148 0.096363634 37
0.16252512 1.2645204 0.12211776 100
0.18462023 1.2363212 0.13677025 37
0.15919095 1.2687757 0.16978529 29
0.17297089 1.2544897 0.010715778 100
0.17956331 1.2460183 0.031610917 92
0.15966493 1.2715881 0.055605363 98
0.18425819 1.2399852 0.073121607 31
0.18119556 1.2439208 0.095112152 38
0.18587026 1.2379137 0.11524864 100
0.18377498 1.2406062 0.13767004 30
0.15135556 1.2822657 0.1739264 35
0.17474917 1.2558682 0.010715778 66
0.18008965 1.2489535 0.031715591 61
0.16272384 1.2714385 0.055431053 49
0.18476984 1.2428937 0.073365346 46
0.1660307 1.2671567 0.099492319 24
0.19622281 1.2280645 0.13362093 15
0.14024648 1.3005418 0.17962041 39
0.17636243 1.25711 0.010715778 66
0.1743865 1.259686 0.032343622 30
0.166814 1.2695582 0.055082429 50
0.18271551 1.2488275 0.07409656 61
0.18090633 1.2511861 0.096050762 51
0.18675599 1.24356 0.11601187 13
0.19892982 1.2276889 0.13317102 31
0.15611732 1.2835035 0.17340876 57
0.17572781 1.2616584 0.010785587 52
0.16408619 1.2769513 0.033390339 28
0.17588842 1.2614474 0.054036561 51
0.18327057 1.25175 0.074340299 61
0.20181653 1.2273872 0.091044858 54
0.18492663 1.2495745 0.11715672 13
0.20297042 1.2258714 0.13227122 39
0.17555419 1.2618865 0.16564418 68
0.17253646 1.2692773 0.010925206 39
0.18263221 1.2559235 0.031924933 30
0.17391554 1.2674532 0.054559495 50
0.18247584 1.2561305 0.074827775 45
0.20095262 1.2316909 0.091670595 54
0.20072669 1.2319896 0.1125773 13
0.20213363 1.2301288 0.13317102 46
0.18068251 1.2585025 0.16409127 69
0.19357052 1.2450647 0.010366729 41
0.17003202 1.2764379 0.033180997 28
0.1817199 1.2608597 0.053687938 52
0.18783405 1.2527106 0.07409656 76
0.18960661 1.2503481 0.095112152 51
0.19770938 1.2395483 0.11410378 13
0.20499194 1.2298418 0.13272113 31
0.18595359 1.255217 0.16253836 70
0.18081039 1.2654862 0.010785587 65
0.20274019 1.2360545 0.030459527 32
0.17739755 1.2700666 0.054559495 50
0.2012974 1.2379909 0.071659178 64
0.2018238 1.2372844 0.092296332 66
0.20396045 1.2344167 0.1125773 13
0.2111761 1.2247328 0.13092151 32
0.18525612 1.2595197 0.16357364 69
0.17897466 1.271595 0.010890301 78
0.20793235 1.2324467 0.030145511 65
0.17796054 1.272966 0.054733805 75
0.19821113 1.245589 0.072634131 78
0.2105054 1.2289681 0.090419121 68
0.2079187 1.2324651 0.11181407 14
0.21392435 1.224346 0.13047162 32
0.18237174 1.2670025 0.16564418 68
0.18537542 1.2663763 0.010750682 79
0.20828533 1.2351881 0.030250182 65
0.18670762 1.2645626 0.053687938 78
0.19508937 1.2531523 0.073609084 77
0.21085981 1.2316835 0.090731993 100
0.20596737 1.2383437 0.11295892 13
0.22581598 1.211323 0.12642249 24
0.18630925 1.265105 0.16460891 69
0.18719721 1.2677093 0.010750682 92
0.20411015 1.2445073 0.030773543 64
0.18734908 1.2675009 0.053862248 100
0.19452393 1.2576581 0.07409656 76
0.20789981 1.2393085 0.091983467 93
0.20768625 1.2396015 0.11295892 13
0.23202735 1.2062092 0.12462288 8
0.19381618 1.2586291 0.16202073 70
0.19823018 1.2559509 0.010471444 82
0.20685673 1.2440338 0.03066887 64
0.18783256 1.2703147 0.054036561 100
0.20894706 1.2411461 0.071415432 48
0.20482475 1.246841 0.093234941 100
0.21154776 1.2375534 0.11219569 14
0.23804638 1.200947 0.12282328 8
0.19090736 1.266067 0.16409127 69
0.20001364 1.257237 0.010471444 96
0.20393565 1.2517769 0.031087559 94
0.19315583 1.2667842 0.053513627 100
0.20835999 1.2456175 0.071902916 64
0.20311746 1.252916 0.094173551 100
0.20982763 1.2435744 0.11334054 13
0.23508039 1.2084185 0.12462288 8
0.19723612 1.2611037 0.16202073 70
0.20395377 1.2551389 0.010401634 83
0.22061276 1.2317839 0.029726824 100
0.18786326 1.277697 0.054559495 100
0.20648083 1.2515961 0.072634131 78
0.21504474 1.2395899 0.09135773 100
0.20113933 1.2590847 0.1167751 19
0.22974613 1.2189794 0.1273223 16
0.19662294 1.2654164 0.163056 70
0.20111319 1.2629329 0.010541254 81
0.22115365 1.2346183 0.029831495 99
0.19663271 1.2692633 0.053513627 100
0.21398234 1.2447504 0.071415432 48
0.21905053 1.2375897 0.090731993 100
0.20180005 1.2619624 0.11715672 33
0.23139387 1.2201501 0.1273223 24
0.20067322 1.2635546 0.16202073 70
0.20734909 1.257543 0.010401634 83
0.21810246 1.2422425 0.030250182 65
0.20287281 1.2639121 0.05281638 100
0.2144171 1.2474861 0.071659178 64
0.22287464 1.2354523 0.090106249 96
0.20004672 1.2679331 0.11830158 84
0.23288837 1.2212042 0.1273223 40
0.20675513 1.258388 0.15995017 72
0.22049418 1.2423356 0.010052586 86
0.20718294 1.2614167 0.031401575 93
0.19547948 1.2781932 0.054210871 100
0.21381435 1.2519108 0.072146654 79
0.21885034 1.2446918 0.091670595 100
0.2074033 1.2611008 0.11639348 100
0.22666055 1.2334962 0.13047162 96
0.20293552 1.2675053 0.16253836 70
0.21295294 1.2565763 0.010331824 98
0.2179127 1.2494161 0.030564198 97
0.20397374 1.2695391 0.053165004 100
0.22445714 1.2399683 0.07019674 33
0.22042632 1.2457874 0.091670595 100
0.22021297 1.2460954 0.1125773 89
0.22819933 1.2345659 0.13047162 96
0.21008742 1.2607131 0.15995017 72
0.20794275 1.2676964 0.010541254 95
0.22419712 1.2440461 0.030145511 98
0.20580697 1.2708039 0.053165004 100
0.22055998 1.2493382 0.071415432 64
0.22664782 1.2404803 0.090419121 100
0.22196016 1.2473009 0.1125773 89
0.23542312 1.2277122 0.12822211 97
0.20422876 1.2731003 0.16357364 69
0.21193588 1.2655835 0.010471444 82
0.22697935 1.2435305 0.03004084 66
0.20531169 1.2752942 0.053513627 100
0.2088114 1.2701638 0.074340299 92
0.23051843 1.2383425 0.089793384 100
0.22584093 1.2451994 0.11181407 100
0.23372826 1.2336371 0.12957181 96
0.21578485 1.2599411 0.15891489 73
0.22608355 1.2486025 0.010087491 43
0.22871709 1.2447113 0.03004084 33
0.21051615 1.2716041 0.05299069 79
0.22733638 1.2467514 0.070684217 98
0.23223713 1.2395103 0.089793384 100
0.23198637 1.2398808 0.1102876 99
0.23652196 1.2331792 0.1291219 100
0.21541724 1.2643626 0.15995017 72
0.21660584 1.2663299 0.010436539 41
0.21701205 1.2657253 0.031296901 31
0.20893627 1.2777478 0.053513627 52
0.22678873 1.2511705 0.071171694 81
0.22726914 1.2504553 0.091670595 100
0.23581794 1.2377286 0.10952436 92
0.23270756 1.242359 0.13137141 94
0.21929932 1.26232 0.15891489 73
0.21825358 1.2674328 0.010436539 41
0.21865776 1.2668267 0.031296901 31
0.21172738 1.2772183 0.053339314 52
0.23499462 1.2423306 0.069709264 99
0.2343443 1.2433057 0.090106249 96
0.23301348 1.2453012 0.11105084 91
0.24076319 1.233681 0.128672 100
0.21771809 1.2682357 0.1604678 72
0.21999195 1.2685878 0.010436539 27
0.22480348 1.2613183 0.030878214 31
0.22119766 1.2667661 0.052119136 54
0.2322627 1.2500486 0.070684217 81
0.24035951 1.2378157 0.088854775 98
0.22708938 1.2578647 0.11372216 100
0.24668595 1.2282575 0.12687239 99
0.22052556 1.2677816 0.15995017 72
0.2195386 1.2730794 0.010506349 27
0.22213432 1.2691278 0.031296901 31
0.23059079 1.2562541 0.050898954 55
0.22304171 1.2677464 0.073121607 78
0.2463325 1.2322896 0.087603301 99
0.23741728 1.2458616 0.11066922 92
0.24186802 1.2390862 0.12957181 96
0.22862893 1.2592406 0.15684435 74
0.23330912 1.2558029 0.010122396 28
0.20642728 1.2970395 0.032971654 29
0.23446617 1.254028 0.05055033 56
0.23562181 1.2522552 0.070684217 81
0.24471176 1.2383112 0.08854191 98
0.24122453 1.2436606 0.10990598 92
0.24669993 1.2352613 0.12822211 97
0.23033866 1.2603595 0.15684435 74
0.2426101 1.2451525 0.0098780617 44
0.23647544 1.2546352 0.030250182 32
0.23832208 1.2517807 0.050201707 56
0.24162009 1.2466828 0.069709264 99
0.24742129 1.2377155 0.088229038 98
0.24714535 1.238142 0.10837951 87
0.25150135 1.2314086 0.12687239 99
0.22785494 1.2679604 0.15891489 73
0.23778868 1.2563192 0.010087491 43
0.24895903 1.2389195 0.029203463 68
0.2227838 1.2796916 0.05299069 79
0.24221349 1.2494267 0.069953002 49
0.24798861 1.2404311 0.08854191 84
0.25196323 1.2342401 0.10723466 88
0.25521937 1.2291681 0.12597258 82
0.22855145 1.2707076 0.15943253 73
0.23948812 1.257406 0.010087491 71
0.24952459 1.2416519 0.029308135 68
0.23419955 1.2657074 0.051421888 82
0.24602205 1.2471498 0.069465525 66
0.25387803 1.2348185 0.087290429 85
0.2472564 1.2452123 0.10952436 78
0.2610122 1.2236199 0.12417299 83
0.22614926 1.2783438 0.16150309 70
0.23691723 1.2652479 0.01022711 84
0.24370211 1.2545154 0.03004084 99
0.23167327 1.2735431 0.052119136 81
0.24768949 1.2482079 0.069465525 66
0.25761345 1.2325099 0.086664692 86
0.24262261 1.256223 0.11181407 84
0.25530818 1.2361563 0.1273223 89
0.23515174 1.2680407 0.15787962 65
0.24387589 1.2578144 0.010052586 86
0.24531052 1.2555285 0.03004084 99
0.24817148 1.2509694 0.049678773 86
0.24294591 1.2592964 0.070927955 48
0.25914878 1.2334769 0.086664692 71
0.24736738 1.2522508 0.11066922 100
0.25789148 1.2354803 0.12687239 90
0.24296623 1.259264 0.15477379 67
0.24875158 1.2537875 0.0099478718 73
0.24911863 1.2531981 0.029831495 99
0.24774593 1.2554026 0.050027397 85
0.25514868 1.2435142 0.068490572 50
0.26076841 1.2344892 0.086664692 57
0.25943008 1.2366385 0.10685304 88
0.26054817 1.234843 0.12642249 90
0.23854905 1.2701724 0.15787962 65
0.24510068 1.2632889 0.010122396 85
0.25702319 1.2439997 0.029203463 100
0.23783433 1.2750449 0.051944822 81
0.25672054 1.2444894 0.068490572 50
0.25815594 1.2421671 0.087916173 70
0.25272137 1.2509595 0.10990598 85
0.26926336 1.2241967 0.12327318 85
0.23919368 1.2728456 0.15839726 56
0.25100616 1.2575315 0.0099827768 87
0.25972369 1.2433169 0.029098792 100
0.23543271 1.2829251 0.05264207 79
0.25630301 1.2488947 0.068978049 50
0.26290405 1.2381312 0.086977564 57
0.24927014 1.2603623 0.11181407 98
0.2718693 1.2235126 0.12282328 85
0.23792094 1.278868 0.15995017 64
0.24855188 1.2654054 0.010122396 85
0.2644923 1.2392087 0.028784776 100
0.24861756 1.2652975 0.05072464 100
0.25591266 1.2533085 0.069465525 49
0.26762038 1.2340679 0.086038955 72
0.26016846 1.2463145 0.10837951 72
0.26838911 1.2328045 0.12507279 92
0.24472016 1.2717025 0.15736198 74
0.25648403 1.2561831 0.0099129668 87
0.26406738 1.2436221 0.028994121 100
0.26476452 1.2424673 0.048284281 88
0.25452363 1.2594304 0.07019674 33
0.26720011 1.2384329 0.086664692 57
0.2598035 1.2506847 0.10914274 85
0.2700063 1.2337848 0.12507279 100
0.24946862 1.2678035 0.15580906 67
0.26545852 1.2452459 0.0096686333 75
0.25964937 1.2549485 0.029622151 100
0.25626341 1.2606038 0.050027397 85
0.25733921 1.2588069 0.069953002 99
0.27297783 1.232687 0.085413218 87
0.26257578 1.2500608 0.10876112 87
0.27070698 1.2364799 0.12552269 90
0.25129518 1.2689017 0.15580906 67
0.26405549 1.251394 0.0097733475 89
0.2695038 1.2422216 0.028784776 100
0.25492522 1.2667651 0.05055033 84
0.26107478 1.2564121 0.069465525 49
0.26854175 1.2438413 0.087290429 57
0.27427945 1.2341818 0.10494494 82
0.2713418 1.2391274 0.12597258 90
0.2530385 1.2699413 0.15580906 67
0.26573762 1.2523892 0.0097733475 89
0.26506996 1.2535222 0.029412808 100
0.252615 1.2746582 0.051247578 82
0.26982909 1.245446 0.067759357 68
0.2772176 1.2329078 0.085100345 58
0.26493749 1.253747 0.10914274 85
0.28287458 1.2233081 0.12147357 77
0.24890077 1.2809612 0.15891489 65
0.26136798 1.2637366 0.0099827768 87
0.26978344 1.2493411 0.029098792 100
0.26242253 1.2619327 0.049853086 85
0.27249226 1.2447073 0.067515619 51
0.27883512 1.2338572 0.085100345 58
0.26365536 1.2598238 0.1102876 85
0.27757415 1.2360142 0.12462288 83
0.26136798 1.2637366 -0.0099827768 96
0.26043582 1.2653313 0.15373851 68
0.26601729 1.2595019 0.0098780617 73
0.27237678 1.2485402 0.028994121 100
0.26605502 1.259437 0.049504463 100
0.27207568 1.2490591 0.068003096 51
0.277401 1.2398798 0.086038955 58
0.2702072 1.2522799 0.10837951 79
0.28009892 1.2352295 0.12417299 92
0.26595768 1.2596047 0.15166797 69
0.26972255 1.2570239 0.0098082526 89
0.27205646 1.2529684 0.029203463 100
0.26180249 1.2707863 0.05055033 84
0.27374962 1.2500263 0.068003096 51
0.27904284 1.2408285 0.086038955 58
0.27483013 1.2481488 0.10723466 88
0.28172451 1.2361687 0.12417299 92
0.26574129 1.263942 0.15270324 68
0.27547374 1.2511007 0.0096686333 75
0.27976766 1.2435757 0.028575432 100
0.26067755 1.2770306 0.051073264 83
0.27551085 1.2510356 0.068003096 51
0.28077036 1.2418184 0.086038955 72
0.27366546 1.2542696 0.10837951 79
0.28440073 1.2354563 0.12372308 92
0.26563871 1.2683363 0.15373851 68
0.27411473 1.2572286 0.0097733475 89
0.28133959 1.2444692 0.028575432 100
0.26530564 1.272786 0.05055033 84
0.27710754 1.2519432 0.068003096 51
0.28720304 1.2341139 0.084474608 59
0.27624023 1.253475 0.10799789 87
0.29266706 1.2244642 0.12057377 86
0.25777406 1.2860873 0.15891489 65
0.27475241 1.2598842 0.0098082526 74
0.28487113 1.2418749 0.028366089 100
0.26795045 1.2719903 0.05037602 84
0.27676246 1.2563068 0.068490572 50
0.29261401 1.2280942 0.083223134 60
0.27399826 1.2612264 0.10952436 85
0.29322097 1.2270139 0.12102367 77
0.27279335 1.263371 -0.0098780617 97
0.26895002 1.2702112 0.15373851 68
0.27735218 1.2590477 0.0097733475 89
0.27865693 1.2567074 0.029203463 100
0.27446759 1.2642218 0.049504463 86
0.27644336 1.2606778 0.068978049 50
0.28740123 1.2410228 0.085413218 73
0.28614473 1.2432766 0.10532656 67
0.28714645 1.2414798 0.12462288 83
0.27343243 1.2660785 0.1521856 77
0.29172182 1.2372917 0.0093195848 78
0.28623956 1.2472105 0.028575432 100
0.27146184 1.2739472 0.05037602 84
0.2820847 1.2547277 0.068003096 51
0.29008493 1.2402532 0.085100345 58
0.28788114 1.2442404 0.10532656 90
0.29641777 1.2287955 0.12102367 69
0.27431801 1.2687796 0.15270324 68
0.28654215 1.250419 0.0095639192 91
0.2859028 1.251585 0.028784776 100
0.27505055 1.2713742 0.050027397 85
0.28655708 1.2503918 0.067271881 51
0.29259562 1.2393805 0.084787481 59
0.28567922 1.2519927 0.10685304 88
0.29794058 1.2296338 0.12102367 77
0.27690244 1.2679973 0.1521856 77
0.2884728 1.2514727 0.0095639192 100
0.29546463 1.2386007 0.0279474 100
0.27516344 1.2759755 0.05037602 84
0.29133016 1.2462124 0.066540658 52
0.29071042 1.2473533 0.086038955 72
0.28667909 1.254775 0.10723466 81
0.27988249 1.2672876 -0.0098780617 87
0.27244905 1.2809726 0.15580906 67
0.27963576 1.2717013 0.0099478718 87
0.28565007 1.2605407 0.029203463 100
0.28629461 1.2593448 0.048632905 88
0.28726044 1.2575525 0.068003096 51
0.29791746 1.2377769 0.084161744 59
0.29201356 1.2487324 0.10570818 81
0.28153303 1.2681806 -0.0098780617 87
0.28422609 1.2631832 0.15011504 78
0.29072899 1.2549602 0.0095988233 91
0.28916153 1.257892 0.028994121 100
0.29167622 1.2531884 0.047935657 89
0.28887868 1.2584212 0.068003096 51
0.29667604 1.2438364 0.085100345 58
0.2936025 1.2495854 0.10570818 73
0.28035814 1.2743585 -0.0099827768 96
0.28677383 1.2623582 0.14959741 78
0.29983419 1.2416844 0.0093195848 93
0.28984508 1.2605188 0.029098792 100
0.28861234 1.2628431 0.048807215 58
0.29142988 1.2575307 0.067759357 100
0.29979366 1.2417608 0.1038001 76
0.28659767 1.2666417 0.15063268 70
0.29319045 1.2585285 0.0096337283 90
0.28393096 1.2761428 0.050027397 85
0.29878387 1.2478881 0.10494494 75
0.28841972 1.2676038 0.15063268 70
0.29388729 1.2611505 0.0096686333 90
0.28376842 1.2805555 0.05037602 84
0.29300407 1.2628442 0.068246834 34
0.28556594 1.2771084 -0.0099827768 96
0.28649837 1.2753203 0.15270324 76
0.29677841 1.2603978 0.0096337283 90
0.29770359 1.2586061 0.048109971 59
0.29589531 1.2621081 0.068003096 51
0.29959145 1.25495 0.1060898 73
0.29127359 1.2710586 -0.0098431576 100
0.29561973 1.2626418 0.14856213 71
0.29300401 1.2717822 0.069221787 100
0.29725477 1.2634826 0.14856213 79
0.29801768 1.2660404 0.14907977 78
0.29988745 1.2664298 0.048632905 59
0.29879478 1.2685986 0.14959741 70
0.29642087 1.2781568 -0.0099129668 100
0.2998485 1.271288 0.15011504 78
0.2989943 1.2772026 -0.0098780617 100
