# .PCD v0.7 - Point Cloud Data file format
VERSION 0.7
FIELDS x y z intensity
SIZE 4 4 4 4
TYPE F F F F
COUNT 1 1 1 1
WIDTH 760
HEIGHT 1
VIEWPOINT 0 0 0 1 0 0 0
POINTS 760
DATA ascii
-1.1899745 0.16829911 0.020977793 26
-1.1529284 0.16305962 0.061023723 31
-1.0904573 0.15791447 0.019232552 5
-1.0325631 0.15302813 0.018220313 6
-1.010275 0.15333085 0.01783636 4
-1.0848508 0.16833156 0.019162742 1
-0.38205504 1.1352537 0.020907983 1
-0.37789157 1.1366463 0.020907983 1
-0.37412024 1.1378932 0.020907983 1
-0.35141891 1.0821989 0.019860838 1
-0.35271865 1.09859 0.020140078 1
-0.351107 1.1075002 0.020279696 1
-0.34384453 1.0972092 0.020070268 1
-0.34336671 1.1099243 0.020279696 1
-0.33734557 1.1034076 0.020140078 1
-0.33098853 1.0969788 0.020000458 1
-0.32049352 1.0750742 0.019581599 1
-0.31918642 1.083804 0.019721219 1
-0.32229346 1.1078976 0.020140078 1
-0.30940622 1.0783174 0.019581599 1
-0.3080093 1.0870333 0.019721219 1
-0.29541352 1.0573399 0.019162742 1
-0.2972227 1.0775908 0.019511791 1
-0.28820968 1.0593262 0.019162742 1
-0.29091808 1.0834515 0.019581599 1
-0.2808072 1.0613124 0.019162742 1
-0.27205345 1.0429367 0.018813694 1
-0.26293349 1.0225763 0.018429741 3
-0.2642746 1.0428722 0.01877879 6
-0.25772598 1.0321475 0.01856936 6
-0.25316623 1.0291573 0.018499551 7
-0.24880955 1.0261043 0.018429741 6
-0.24476182 1.0250216 0.018394837 5
0.053064972 0.00067818165 0.015986403 129
0.049413562 0.0067692995 0.047835063 30
0.041728437 0.00091934204 0.016091119 4
0.055562049 0.02185142 0.046997689 100
0.042016625 0.0068691969 0.04804441 90
0.035750866 0.0038503408 0.048358422 60
0.039924622 0.015487611 0.047730394 28
0.029423475 0.0057176948 0.048463095 17
0.032540977 0.015683115 0.047939736 18
0.037730753 0.029084563 0.047207031 10
0.021581054 0.01111871 0.048463095 8
0.032561719 0.037570536 0.046997689 10
-0.73457652 0.65399855 0.022513604 16
-0.75364298 0.66579831 0.022827748 131
-0.7360366 0.67149639 0.022513604 125
-0.74235576 0.67554885 0.022618318 100
-0.73868781 0.68033814 0.02254851 123
-0.75695103 0.68365061 0.022862652 134
-0.75127131 0.68881494 0.022757938 132
-1.0280137 1.126489 0.084784247 3
-1.041657 1.1295712 0.14276111 4
-1.036479 1.1342266 0.028412517 7
-1.0034003 1.1266322 0.083528183 5
-1.0345664 1.1337874 0.14223817 8
-1.0195546 1.1364021 0.028133279 10
-0.99624783 1.1309612 0.083214171 41
-1.0312822 1.1391398 0.14206386 43
-1.0046461 1.1386489 0.027888946 33
-0.98720497 1.1345131 0.082795486 91
-1.0144751 1.1409796 0.14066938 86
-0.98209304 1.1383886 0.027504992 40
-1.0015874 1.1430761 0.083632857 100
-0.99780446 1.1421664 0.13927488 89
-0.97108465 1.141363 0.027330469 42
-0.98669392 1.1451739 0.082900152 100
-1.0023026 1.1489847 0.13979781 86
-0.9853068 1.1505188 0.027609708 22
-0.97568184 1.1481333 0.082376793 98
-1.0009701 1.1544008 0.13979781 86
-0.97233361 1.1529487 0.027400278 27
-0.9801634 1.1549183 0.082690813 41
-1.0073476 1.1617566 0.14049506 74
-0.97278935 1.1592865 0.027435184 40
-0.97093397 1.1588122 0.08227212 34
-0.98266822 1.1618119 0.13840333 80
-0.95787162 1.1610854 0.027190849 59
-0.97923404 1.166626 0.082795486 69
-0.97357684 1.1651587 0.13770607 92
-0.95843118 1.1668553 0.027225753 68
-0.97977179 1.1724699 0.082900152 95
-0.96833462 1.1694608 0.13735744 92
-0.94937807 1.1697944 0.027086135 81
-0.95527071 1.1713656 0.081644088 94
-0.9785524 1.1775734 0.13840333 99
-0.95190507 1.1758075 0.027155945 89
-0.94043463 1.1727083 0.08091139 100
-0.97719246 1.1826401 0.13840333 100
-0.95826596 1.1828978 0.027295563 92
-0.9506492 1.1808127 0.081539422 100
-0.96620721 1.1850718 0.13753176 98
-0.94518179 1.1852127 0.027086135 96
-0.94528466 1.1852412 0.081330076 98
-0.95507699 1.1879606 0.1366602 92
-0.93994671 1.1890857 0.027016325 92
-0.94197673 1.1896567 0.081225403 86
-0.9498468 1.1918705 0.13631158 100
-0.94609267 1.1967379 0.027155945 66
-0.92698401 1.1912874 0.080492698 70
-0.95212251 1.1984577 0.1366602 100
-0.96003872 1.2061357 0.027435184 45
-0.93133539 1.1978456 0.080806717 38
-0.95452172 1.2045424 0.13700883 99
-0.94507259 1.207473 0.027190849 52
-0.92024845 1.2002093 0.080283359 24
-0.94917125 1.2086724 0.1366602 82
-0.92635745 1.207317 0.026876707 75
-0.92072874 1.2056496 0.080388032 28
-0.93815666 1.2108121 0.13578865 87
-0.9094227 1.2081255 0.026597468 78
-0.93059963 1.2144828 0.081016064 34
-0.93653101 1.2162635 0.13578865 98
-0.91561514 1.2152879 0.026737086 78
-0.91000754 1.2135842 0.079969339 90
-0.93123025 1.2200321 0.13544002 100
-0.92161804 1.2230099 0.026876707 88
-0.90455419 1.2177572 0.07976 100
-0.9314751 1.2260443 0.13561434 91
-0.92392617 1.2290769 0.026946515 85
-0.90687519 1.2237661 0.079969339 80
-0.9242478 1.229177 0.13509139 70
-0.90697736 1.2296628 0.026667276 88
-0.91282111 1.2315063 0.080388032 66
-0.90925449 1.2303811 0.13387123 47
-0.89401478 1.2308439 0.026457848 89
-0.9112826 1.2363548 0.080388032 72
-0.90961784 1.2358234 0.13404553 45
-0.89612168 1.2373633 0.026527658 83
-0.89435977 1.2367939 0.079550654 95
-0.91169244 1.2423955 0.13439415 47
-0.89836532 1.2433988 0.026597468 99
-0.88710862 1.2397195 0.079236634 100
-0.91390544 1.2484781 0.13474278 63
-0.89282364 1.2474476 0.026527658 100
-0.89485806 1.2481209 0.07976 100
-0.90646738 1.2519625 0.13421984 80
-0.87985426 1.2484225 0.02631823 96
-0.89326459 1.2529095 0.07976 100
-0.8973034 1.2542609 0.1335226 90
-0.87051505 1.2510941 0.02617861 92
-0.88959318 1.2575555 0.079655327 100
-0.89929289 1.2608405 0.13387123 78
-0.87269562 1.2570976 0.02624842 96
-0.88418931 1.2610328 0.07944598 100
-0.90142721 1.2669346 0.13421984 94
-0.87098664 1.2620608 0.02624842 89
-0.8617062 1.2588471 0.07829459 100
-0.90156645 1.27265 0.13439415 85
-0.87500948 1.268752 0.026353134 75
-0.87515837 1.2688041 0.079131968 89
-0.89801115 1.2768025 0.13421984 52
-0.86186188 1.2699665 0.026143705 75
-0.8676725 1.2720242 0.078817949 51
-0.88487524 1.278116 0.13317397 41
-0.86010808 1.2748919 0.026143705 90
-0.86027044 1.2749499 0.078503937 17
-0.89059585 1.285808 0.13387123 38
-0.86021739 1.2804916 0.02617861 99
-0.85662121 1.2791898 0.078399263 53
-0.88316637 1.288799 0.13334829 22
-0.85467106 1.2840366 0.0261088 99
-0.84733278 1.2813511 0.077980578 89
-0.87199146 1.290375 0.13247673 15
-0.85286814 1.2889366 0.0261088 100
-0.84928578 1.2876115 0.078189917 100
-0.88511544 1.3008654 0.13387123 3
-0.83980983 1.2896285 0.025899371 100
-0.85121197 1.2938917 0.078399263 76
-0.87205642 1.3016851 0.13282534 1
-0.83424634 1.293063 0.025829561 100
-0.84190148 1.2959557 0.077980578 51
-0.85341781 1.3003074 0.13125655 3
-0.83614832 1.2993186 0.025899371 77
-0.84005708 1.3008112 0.077980578 53
-0.85341948 1.3059138 0.13143086 15
-0.82682973 1.3012743 0.025759751 71
-0.82515222 1.300627 0.077247873 63
-0.8533991 1.3115265 0.13160518 56
-0.83800846 1.3111619 0.026004085 75
-0.82143074 1.3046985 0.0771432 65
-0.84964401 1.3156984 0.13143086 100
-0.83071905 1.313323 0.025899371 93
-0.82717842 1.3119297 0.077561885 61
-0.83494467 1.3149858 0.13021068 100
-0.81394821 1.3122294 0.025620133 100
-0.83455819 1.3204229 0.078085244 91
-0.83673674 1.3212888 0.1305593 100
-0.82318109 1.3214586 0.025829561 100
-0.8178013 1.319298 0.077247873 95
-0.83665282 1.3268687 0.13073361 100
-0.81754166 1.3247452 0.025759751 100
-0.81402475 1.3233185 0.0771432 97
-0.84023935 1.3339524 0.13125655 100
-0.81559688 1.3295153 0.025759751 100
-0.81393319 1.3288336 0.077247873 100
-0.82166952 1.3320034 0.12968774 100
-0.80254906 1.3296912 0.025550323 100
-0.81012863 1.3328276 0.0771432 100
-0.8012895 1.3291699 0.12794463 100
-0.80551165 1.330917 0.18012288 28
-0.79679877 1.333102 0.025480513 100
-0.80989939 1.3385794 0.077247873 99
-0.81209821 1.3394988 0.12916481 100
-0.77780622 1.3251611 0.17671055 15
-0.79482502 1.3377998 0.025480513 100
-0.79318649 1.3371079 0.076410495 100
-0.81927949 1.3481247 0.13003637 100
-0.76488763 1.3251598 0.17524812 18
-0.80397254 1.3469596 0.025689943 83
-0.77476197 1.3345124 0.075468451 60
-0.81185609 1.350319 0.12951343 95
-0.77217048 1.3334081 0.17646681 16
-0.81664544 1.358005 0.025969181 56
-0.81681496 1.358078 0.077980578 53
-0.81165224 1.3558567 0.12968774 22
-0.81213564 1.3560648 0.1820728 7
-0.80368239 1.3577552 0.025759751 99
-0.8130253 1.3618119 0.077875905 100
-0.81518465 1.3627493 0.13021068 56
-0.79197615 1.3526725 0.17963541 15
-0.79063374 1.3576601 0.025550323 100
-0.81643897 1.3689716 0.078189917 100
-0.81675678 1.3691109 0.1305593 100
-0.78084356 1.3533685 0.17841671 33
-0.79406017 1.3647637 0.025655037 100
-0.80338126 1.3688884 0.077561885 100
-0.81465727 1.3738782 0.1305593 100
-0.78242975 1.3596171 0.17890419 42
-0.80475658 1.3751608 0.025899371 100
-0.79945892 1.3727944 0.077457212 100
-0.80890268 1.3770128 0.13021068 100
-0.76223856 1.3561683 0.17646681 24
-0.80081302 1.3790642 0.025864467 100
-0.8028087 1.379964 0.077771232 100
-0.80677551 1.3817526 0.13021068 100
-0.77104241 1.365641 0.17792924 18
-0.79321855 1.3812907 0.025759751 100
-0.81339639 1.3904736 0.078503937 100
-0.80463189 1.3864849 0.13021068 100
-0.77618235 1.3735377 0.17890419 15
-0.79460305 1.3878797 0.025829561 100
-0.81111306 1.3954666 0.078503937 100
-0.80598396 1.3931096 0.1305593 100
-0.76494247 1.3742499 0.1776855 15
-0.79062396 1.3917282 0.025794657 100
-0.80529767 1.3985333 0.07829459 100
-0.80741566 1.3995155 0.13090792 100
-0.75202018 1.3738253 0.17622307 11
-0.80304533 1.4029491 0.026073895 100
-0.80320591 1.4030242 0.07829459 100
-0.8125394 1.4073904 0.13160518 100
-0.76799136 1.3865509 0.17866045 5
-0.80082768 1.4076681 0.026073895 100
-0.8046003 1.4094491 0.078503937 100
-0.80309922 1.4087405 0.13090792 100
-0.77121657 1.3936901 0.17939167 3
-0.78776151 1.4072199 0.025864467 100
-0.80776936 1.4167503 0.078817949 100
-0.80086142 1.4134598 0.13090792 100
-0.78336877 1.4051275 0.18134159 1
-0.78913373 1.4136181 0.025934275 100
-0.80910379 1.4232162 0.079027295 100
-0.80219859 1.4198974 0.13125655 100
-0.79576141 1.4228861 0.0261088 100
-0.80130965 1.4255779 0.078713275 100
-0.81056291 1.4300671 0.13230242 100
-0.79347426 1.4275799 0.0261088 100
-0.7972191 1.4294128 0.07860861 100
-0.81540865 1.4383159 0.13299966 100
-0.80574828 1.4388752 0.026388038 100
-0.79872316 1.4354093 0.078817949 100
-0.8097288 1.4408391 0.13265105 100
-0.79266399 1.4382576 0.02617861 100
-0.80533236 1.4445628 0.079341307 100
-0.80737895 1.4455814 0.13265105 100
-0.78663176 1.4413791 0.0261088 100
-0.80998999 1.4531116 0.07976 100
-0.80845445 1.4523404 0.13299966 100
-0.79141527 1.4496559 0.02624842 100
-0.79690748 1.4524386 0.079131968 100
-0.81317347 1.4606801 0.13369691 100
-0.79615718 1.4579742 0.026388038 100
-0.80163091 1.4607717 0.079550654 100
-0.8143025 1.4672477 0.13404553 100
-0.79730231 1.4645014 0.026457848 100
-0.79566091 1.4636552 0.079341307 100
-0.80123466 1.4665284 0.13299966 100
-0.78789431 1.465277 0.02631823 100
-0.80044216 1.4717978 0.07976 100
-0.80068535 1.4719243 0.13317397 100
-0.77837449 1.4662297 0.02617861 99
-0.80329126 1.4792891 0.080074012 100
-0.80705041 1.4812593 0.13404553 100
-0.7830078 1.4746002 0.02631823 85
-0.78491527 1.4756085 0.079131968 99
-0.80984384 1.4887851 0.13456847 100
-0.81611747 1.4982135 0.13544002 31
0.11622414 1.3079684 0.13432953 5
0.1575785 1.2601726 0.010960111 25
0.15181547 1.2673712 0.033390339 28
0.1465604 1.2739353 0.056476921 24
0.142598 1.2788848 0.10324675 11
0.15982181 1.2573705 0.12135452 31
0.20533302 1.2005225 0.1273223 8
0.1467452 1.2737045 0.17289113 7
0.16924626 1.2490162 0.010680873 93
0.16473904 1.2546866 0.032448292 59
0.15328091 1.2691017 0.055779677 73
0.16832116 1.25018 0.075315252 30
0.17264754 1.2447371 0.096050762 25
0.16274706 1.2571926 0.1209729 95
0.18016103 1.2352846 0.13722014 22
0.15451631 1.2675475 0.17030293 21
0.15977126 1.2644701 0.010995016 100
0.17633176 1.2434858 0.031610917 100
0.14761975 1.2798676 0.056825545 100
0.16754007 1.254626 0.075802729 30
0.16818818 1.2538047 0.097615108 24
0.1583688 1.2662472 0.122881 100
0.18420193 1.2335132 0.13632034 45
0.14787793 1.2795404 0.1739264 28
0.16273302 1.264255 0.010960111 100
0.17921865 1.2432151 0.031506244 100
0.15431729 1.2749958 0.056128297 100
0.17413136 1.2497078 0.074827775 30
0.17718932 1.245805 0.095737889 38
0.16857943 1.2567935 0.12020966 100
0.1978412 1.2194477 0.13182132 31
0.15561649 1.2733376 0.1713382 43
0.16191792 1.268693 0.011029921 100
0.17220363 1.2554755 0.032238949 90
0.15721771 1.2747328 0.055953987 97
0.15743712 1.2744508 0.078483857 28
0.1787692 1.2470387 0.095737889 38
0.17019579 1.2580557 0.12020966 100
0.18975905 1.2329166 0.13542053 30
0.14779624 1.2868395 0.17547931 42
0.1734418 1.2573851 0.010750682 79
0.17634276 1.2536304 0.032029606 60
0.16994506 1.261911 0.054385185 51
0.17497799 1.2553968 0.075315252 45
0.17560574 1.2545843 0.096989371 25
0.18422851 1.2434237 0.13811995 22
0.14842167 1.2897692 0.17599694 34
0.17636243 1.25711 0.010715778 53
0.17195535 1.2628555 0.032552965 29
0.17166448 1.2632346 0.054385185 51
0.17909098 1.2535528 0.074827775 45
0.19533342 1.2323775 0.092296332 53
0.19750991 1.2295401 0.1125773 13
0.18825537 1.2416052 0.13722014 22
0.16082039 1.2773721 0.1713382 58
0.173219 1.2647749 0.010855397 52
0.16883788 1.2705281 0.032971654 29
0.17580265 1.2613821 0.054036561 51
0.19040248 1.2422101 0.072877869 47
0.19216245 1.239899 0.093547814 52
0.19792673 1.2323296 0.11295892 13
0.20525217 1.2227101 0.13137141 47
0.17312753 1.264895 0.16667947 67
0.17736027 1.2628968 0.010785587 39
0.16576943 1.2782283 0.033390339 28
0.16550469 1.2785784 0.055779677 49
0.19085586 1.245046 0.073121607 62
0.1926136 1.242721 0.093860678 52
0.20191064 1.2304237 0.11219569 14
0.19978318 1.2332377 0.13407083 46
0.17485732 1.2662075 0.16667947 67
0.17668232 1.2673932 0.010855397 39
0.18433064 1.2572029 0.031924933 30
0.18043825 1.2623889 0.053862248 51
0.18417498 1.2574103 0.074827775 45
0.20256636 1.2329063 0.091670595 54
0.19527042 1.2426271 0.11486702 13
0.20959082 1.2235472 0.13092151 40
0.18123031 1.2613337 0.16460891 85
0.18319997 1.2622793 0.010715778 53
0.19558018 1.2456639 0.031087559 31
0.19049221 1.2524924 0.05264207 53
0.18113434 1.2650516 0.075802729 90
0.20418432 1.2341163 0.091670595 54
0.21099856 1.2249711 0.1102876 14
0.2088474 1.2278581 0.13182132 31
0.18179339 1.2641671 0.16512655 83
0.1908665 1.2555182 0.010541254 81
0.19486725 1.2501096 0.031296901 62
0.18388474 1.264957 0.053862248 77
0.19821113 1.245589 0.072634131 78
0.20110762 1.2416731 0.092922069 79
0.20558369 1.2356219 0.1125773 13
0.21276546 1.2259127 0.13092151 32
0.18352059 1.2654493 0.16512655 76
0.19729772 1.2503216 0.010401634 83
0.21073079 1.232028 0.03004084 66
0.17382228 1.2822913 0.055605363 73
0.20927277 1.2340137 0.070684217 81
0.19924867 1.2476648 0.093860678 91
0.20721111 1.2368213 0.1125773 13
0.22012597 1.2192334 0.128672 16
0.18410885 1.2682827 0.16564418 68
0.19190893 1.2612455 0.010611063 94
0.20881614 1.2380514 0.030354854 65
0.18500182 1.270721 0.054210871 100
0.2015399 1.2480333 0.072634131 63
0.20091817 1.2488862 0.093860678 91
0.20421684 1.2443609 0.11410378 13
0.23087943 1.2077839 0.12507279 16
0.18585041 1.2695569 0.16564418 68
0.18893674 1.2689726 0.010750682 92
0.21162289 1.2376214 0.030250182 65
0.18441591 1.2752203 0.054559495 100
0.20321068 1.2492467 0.072634131 78
0.21533021 1.2324982 0.090419121 82
0.21047845 1.239203 0.1125773 13
0.24154884 1.1962652 0.12147357 17
0.1966565 1.2583044 0.16150309 78
0.19768041 1.2604852 0.010541254 95
0.20510083 1.2501547 0.030982886 95
0.19780526 1.2603114 0.05281638 100
0.20488569 1.2504543 0.072634131 78
0.2111845 1.2416854 0.091983467 93
0.21784517 1.2324127 0.11066922 14
0.23962796 1.2020875 0.12282328 17
0.19385499 1.2658108 0.16357364 85
0.20859867 1.2486269 0.010262015 84
0.21481371 1.2399139 0.030250182 98
0.19711915 1.2647207 0.053165004 100
0.20071706 1.2596766 0.073852822 100
0.20930922 1.2476308 0.092922069 100
0.21368006 1.2415031 0.1125773 20
0.23653597 1.2094604 0.12462288 16
0.18877012 1.2764256 0.16667947 67
0.20333824 1.2596079 0.010471444 96
0.21761018 1.2394509 0.030145511 98
0.19194031 1.2757058 0.054210871 100
0.20357558 1.2592727 0.073609084 93
0.21326151 1.2455928 0.092296332 100
0.20738658 1.2538903 0.11524864 33
0.22906312 1.2232754 0.12822211 24
0.20170343 1.2619169 0.16150309 70
0.20274973 1.2640872 0.010541254 81
0.22269619 1.2357062 0.029831495 99
0.19829026 1.2704324 0.053513627 100
0.2144171 1.2474861 0.071659178 64
0.21719539 1.2435331 0.091670595 100
0.19553119 1.274358 0.11982805 76
0.23288837 1.2212042 0.1273223 40
0.19786853 1.2710323 0.16409127 85
0.19990006 1.2718565 0.010680873 93
0.21975291 1.2433981 0.030250182 65
0.20003924 1.271657 0.053513627 100
0.21495011 1.2502828 0.071902916 48
0.22789198 1.2317311 0.089167647 100
0.20403349 1.2659314 0.11753834 100
0.22443062 1.2366927 0.13137141 78
0.2007249 1.2706741 0.16357364 69
0.2107611 1.2599232 0.010401634 97
0.2202704 1.2461901 0.030354854 97
0.20406094 1.2695994 0.053165004 100
0.22227901 1.2432892 0.070684217 81
0.22613207 1.2377247 0.090106249 100
0.22253135 1.2429248 0.11181407 84
0.22717106 1.2362242 0.13092151 88
0.20797354 1.2639489 0.16098544 72
0.21926916 1.2512164 0.010192205 99
0.21854085 1.2522761 0.03066887 96
0.21032098 1.264236 0.052467756 100
0.21943563 1.2509742 0.071659178 80
0.22552896 1.2421083 0.090731993 95
0.22529614 1.242447 0.11143246 100
0.22769666 1.2389543 0.13137141 94
0.21079403 1.2635478 0.1604678 72
0.21644339 1.2589757 0.010331824 98
0.22472835 1.2468305 0.030250182 98
0.20531169 1.2752942 0.053513627 100
0.22111654 1.2521251 0.071659178 100
0.22606573 1.2448699 0.091044858 100
0.22584093 1.2451994 0.11181407 98
0.23372826 1.2336371 0.12957181 96
0.21360755 1.2631328 0.15995017 72
0.21478894 1.2651047 0.010436539 41
0.23759219 1.2314245 0.029203463 34
0.20707756 1.2764943 0.053513627 78
0.22502732 1.2499826 0.071171694 81
0.23437014 1.2361834 0.089167647 100
0.22530031 1.2495794 0.1125773 96
0.23753366 1.2315109 0.128672 97
0.21099868 1.2707028 0.16202073 70
0.21205795 1.2729108 0.010576159 40
0.2436606 1.2258811 0.028784776 34
0.21884888 1.2628049 0.051944822 54
0.2244904 1.2544093 0.071659178 80
0.23379585 1.2405615 0.089793384 100
0.22040635 1.2604871 0.11486702 100
0.23805964 1.2342162 0.1291219 96
0.2192134 1.2622623 0.15891489 73
0.22712973 1.2541236 0.0101573 42
0.20757607 1.283443 0.032343622 30
0.21946564 1.2656153 0.052119136 54
0.2261833 1.2555426 0.071659178 80
0.23544034 1.2416623 0.089793384 100
0.23301348 1.2453012 0.11105084 84
0.23643821 1.2401661 0.13047162 100
0.22522125 1.2569852 0.15684435 74
0.21760938 1.2718067 0.010506349 27
0.21360257 1.2778559 0.031924933 30
0.21662328 1.2732955 0.05281638 53
0.23209515 1.2499378 0.070684217 65
0.24019623 1.2377076 0.088854775 98
0.23776075 1.2413845 0.10990598 100
0.23576453 1.2443981 0.13137141 94
0.22675276 1.2580031 0.15684435 74
0.22595379 1.2629381 0.010296919 28
0.25267956 1.222283 0.028366089 35
0.22604325 1.262802 0.051596198 54
0.24031505 1.2410918 0.069221787 83
0.23640519 1.2470394 0.090419121 82
0.23617277 1.2473931 0.11105084 98
0.24491569 1.2340933 0.12822211 97
0.22209102 1.2688142 0.15995017 72
0.22876906 1.2623914 0.010262015 28
0.2455298 1.2367002 0.029203463 34
0.21034735 1.2906287 0.054385185 51
0.23762277 1.2488203 0.07019674 99
0.24346897 1.2398591 0.088854775 100
0.23355025 1.2550628 0.1125773 96
0.24760231 1.2335234 0.1277722 97
0.22277865 1.2715738 0.1604678 72
0.22940302 1.2651883 0.010296919 42
0.24064806 1.2478194 0.029831495 33
0.23598835 1.2550168 0.05055033 56
0.23929608 1.2499077 0.07019674 66
0.24833161 1.2359517 0.087916173 84
0.24271411 1.2446283 0.10990598 85
0.25134033 1.2313044 0.12687239 99
0.22663125 1.2694696 0.15943253 73
0.2377038 1.2562647 0.010087491 71
0.24995649 1.2371864 0.029098792 68
0.22915483 1.2695758 0.051944822 54
0.23140264 1.266076 0.072390392 47
0.25217637 1.23373 0.087290429 85
0.24763852 1.2407956 0.10876112 87
0.25619233 1.2274768 0.12552269 82
0.23472774 1.2608985 0.1563267 74
0.24370199 1.2506064 0.0099478718 73
0.24407518 1.2500209 0.029831495 66
0.23304224 1.2673324 0.051596198 54
0.24060437 1.2554668 0.070684217 65
0.24955025 1.24143 0.08854191 70
0.25350434 1.2352258 0.10723466 73
0.24941224 1.2416465 0.1291219 88
0.23436669 1.2652543 0.15736198 74
0.24217498 1.256743 0.010052586 86
0.25322536 1.2392697 0.029098792 100
0.22306594 1.2869587 0.053513627 78
0.24972808 1.2447997 0.068978049 50
0.24908602 1.245815 0.089167647 70
0.24253777 1.2561693 0.11181407 98
0.25835162 1.2311639 0.12597258 99
0.23299965 1.2712512 0.15891489 65
0.24600178 1.2544268 0.0099827768 87
0.25274196 1.2436862 0.029308135 100
0.22910863 1.2813463 0.05281638 79
0.2471666 1.2525706 0.069953002 49
0.25914878 1.2334769 0.086664692 71
0.25258517 1.2439361 0.10876112 87
0.26203486 1.2288778 0.12507279 92
0.23064381 1.2789001 0.16098544 64
0.24240953 1.2639725 0.0101573 71
0.25228578 1.2481118 0.029517479 100
0.24037388 1.2672417 0.051247578 82
0.24885291 1.2536249 0.069953002 66
0.25868008 1.237843 0.087290429 85
0.24282607 1.2633036 0.11295892 89
0.25848803 1.2381514 0.1273223 97
0.24059135 1.2668924 0.15684435 66
0.25359541 1.2497326 0.0098431576 88
0.25395653 1.2491481 0.029517479 100
0.24525318 1.2632346 0.05072464 84
0.25471655 1.2479181 0.068978049 50
0.25823835 1.242218 0.087916173 84
0.26002881 1.2393202 0.10723466 73
0.26319683 1.2341926 0.12597258 99
0.2413123 1.2696129 0.15736198 74
0.25301254 1.2540704 0.0099129668 87
0.25337437 1.2534807 0.029726824 100
0.24992993 1.2590948 0.050201707 85
0.26140988 1.2403833 0.067759357 68
0.25765726 1.2464998 0.08854191 84
0.2553446 1.2502693 0.10952436 99
0.2615993 1.2400745 0.1273223 97
0.24591416 1.2656403 0.15580906 67
0.25886315 1.2482717 0.0097733475 100
0.26337188 1.2408649 0.028889447 100
0.2485311 1.2652448 0.05072464 84
0.25582832 1.2532573 0.069465525 49
0.25726807 1.250892 0.089167647 56
0.26110616 1.2445869 0.10799789 79
0.27033487 1.2294263 0.12417299 83
0.24362811 1.2732995 0.15787962 65
0.25846681 1.2527084 0.0098431576 88
0.26914746 1.235024 0.02847076 100
0.24923164 1.2679996 0.050898954 83
0.25238571 1.2627773 0.070684217 32
0.26916084 1.2350018 0.086038955 58
0.25464478 1.2590368 0.11105084 84
0.27294776 1.2287315 0.12372308 83
0.24738428 1.2710584 0.15684435 66
0.24884748 1.2725918 0.01022711 70
0.26255983 1.2497073 0.029308135 100
0.25711623 1.2587922 0.049853086 85
0.25920925 1.2552991 0.069465525 49
0.27078569 1.2359792 0.086038955 58
0.26442641 1.2465923 0.10799789 79
0.27655396 1.2263526 0.12282328 93
0.25112107 1.2687974 0.15580906 67
0.26609796 1.2479556 0.0097035384 90
0.26848382 1.2439388 0.028889447 100
0.25696021 1.263339 0.050201707 85
0.25397837 1.2683591 0.071171694 81
0.27257699 1.2370479 0.086038955 58
0.25924015 1.2595007 0.11066922 78
0.27034658 1.2408028 0.12642249 90
0.25698483 1.2632977 0.15373851 68
0.26776806 1.2489436 0.0097035384 90
0.2701399 1.2449186 0.028889447 100
0.25767258 1.2660755 0.05037602 100
0.26680568 1.2505767 0.068490572 50
0.2772176 1.2329078 0.085100345 58
0.26693094 1.2503642 0.10837951 79
0.27693847 1.2333815 0.12417299 75
0.2606701 1.2609887 0.15270324 68
0.2712937 1.2463758 0.0096337283 90
0.26558182 1.2561388 0.029517479 100
0.25420189 1.2755899 0.051247578 82
0.26831686 1.251464 0.068490572 50
0.26969549 1.2491076 0.087916173 56
0.26645863 1.2546402 0.10914274 78
0.27937964 1.232555 0.12372308 92
0.25343412 1.2769022 0.15736198 74
0.26492807 1.261182 0.0099129668 87
0.27530092 1.2433095 0.028680105 100
0.25796875 1.273173 0.050898954 83
0.26501697 1.2610288 0.069709264 33
0.28128526 1.2329984 0.084787481 59
0.26913753 1.253929 0.10876112 79
0.28295231 1.230126 0.12282328 76
0.25035673 1.2862885 0.15995017 64
0.26980755 1.2570729 0.0098082526 74
0.27911213 1.2408983 0.02847076 100
0.26487035 1.2656555 0.050027397 85
0.27185372 1.253516 0.068490572 50
0.27912503 1.2408758 0.086038955 72
0.266103 1.2635127 0.11066922 85
0.28666446 1.2277696 0.12192347 85
0.26390091 1.2673407 0.15373851 68
0.27250054 1.2563112 0.0097733475 89
0.27085891 1.2591881 0.029517479 100
0.2695646 1.2614563 0.049504463 86
0.27157551 1.2579322 0.068978049 50
0.28566542 1.2332399 0.084474608 59
0.27171943 1.2576799 0.10914274 85
0.28633234 1.2320712 0.12282328 85
0.26655412 1.2667321 -0.0099827768 86
0.26946849 1.2616247 0.15166797 69
0.2740297 1.2571805 0.0097733475 89
0.2723971 1.2600626 0.029517479 100
0.26619989 1.2710028 0.05037602 84
0.27310976 1.2588044 0.068978049 50
0.28614843 1.2357869 0.084787481 59
0.27905878 1.2483025 0.10685304 81
0.28970626 1.229506 0.12192347 85
0.27101433 1.2625036 0.15166797 69
0.27181384 1.2651143 0.0099129668 87
0.27997944 1.2505811 0.028889447 100
0.2630707 1.2806753 0.051247578 82
0.27773485 1.2545761 0.068246834 68
0.28003499 1.2504823 0.087290429 57
0.27495995 1.2595148 0.10914274 78
0.29608467 1.2219172 0.11967396 70
0.27084261 1.2668428 0.15270324 68
0.27451724 1.2643356 0.0098780617 73
0.28943664 1.2375636 0.028052073 100
0.26582491 1.2799333 0.051073264 83
0.27846166 1.2572576 0.068490572 50
0.29132983 1.2341665 0.084161744 59
0.28240454 1.2501824 0.10685304 81
0.29861236 1.2210984 0.11922406 87
0.27159694 1.2695758 -0.0099827768 86
0.26693615 1.2779393 0.15580906 67
0.27914646 1.2600437 0.0097733475 89
0.2852734 1.2489585 0.028680105 100
0.28013605 1.2582533 0.048807215 58
0.2820847 1.2547277 0.068003096 51
0.29104051 1.2385243 0.084787481 73
0.28028348 1.2579865 0.10837951 87
0.29641777 1.2287955 0.12102367 86
0.28108114 1.2565434 -0.0097035384 89
0.27805606 1.2620165 0.15063268 70
0.28574896 1.2522647 0.0095988233 76
0.28319168 1.2569318 0.029098792 100
0.28958663 1.2452608 0.047412723 90
0.28481701 1.2539655 0.067759357 34
0.29560715 1.2342732 0.083848871 59
0.28584749 1.2520849 0.10685304 81
0.29622817 1.2331399 0.12192347 85
0.27902257 1.2645406 -0.0098431576 87
0.27986121 1.2630099 0.15063268 70
0.28934357 1.24967 0.0095290141 76
0.28680027 1.2543504 0.028889447 100
0.2845881 1.2584213 0.048632905 88
0.28556016 1.2566324 0.068003096 51
0.29911569 1.2316871 0.083223134 60
0.28940666 1.2495539 0.1060898 81
0.29877684 1.2323105 0.12147357 77
0.28075048 1.2654834 -0.0098431576 87
0.28342858 1.260555 0.14959741 70
0.29093564 1.2505318 0.0095290141 76
0.29599026 1.2411561 0.028052073 100
0.27486339 1.2803438 0.05072464 84
0.2890594 1.254012 0.067515619 51
0.29408616 1.244688 0.085413218 58
0.29099834 1.2504156 0.1060898 81
0.27772272 1.2750401 0.15373851 68
0.28412935 1.2673047 0.0098431576 88
0.29575312 1.2455626 0.028261416 100
0.27946457 1.2760301 0.050201707 85
0.29449418 1.2479174 0.066540658 52
0.29947004 1.2386103 0.084161744 59
0.29267687 1.2513167 0.1060898 73
0.28695777 1.2620142 -0.0097384425 88
0.28586301 1.2640618 0.15011504 78
0.28493023 1.2699964 0.0098780617 88
0.28869835 1.2628887 0.048807215 88
0.29058516 1.2593297 0.068003096 51
0.28976068 1.2608849 0.10799789 79
0.2839936 1.2717632 -0.0099129668 97
0.2830649 1.273515 0.15270324 68
0.2978428 1.2496783 0.009459204 77
0.295362 1.2543975 0.028680105 100
0.29505581 1.25498 0.047935657 89
0.29783687 1.2496896 0.066540658 52
0.28388575 1.2762287 -0.0099827768 96
0.29381314 1.2573439 0.14752686 79
0.29713914 1.2553275 0.028680105 100
0.29315266 1.262979 0.048632905 88
0.2986795 1.2523711 0.066784397 52
0.29203054 1.2651327 0.14959741 70
0.29844344 1.2567564 0.0095639192 100
0.29387408 1.2655979 0.048807215 58
0.29012612 1.2728503 0.15166797 69
0.29287997 1.2718085 0.049330149 58
0.28920147 1.2789876 -0.0099827768 100
0.29012108 1.2771928 0.15270324 68
0.29813859 1.2655882 0.0097035384 100
0.29905877 1.2637775 0.048458595 59
0.29179674 1.278067 -0.0099478718 100
0.29968157 1.262552 0.1480445 79
