# .PCD v0.7 - Point Cloud Data file format
VERSION 0.7
FIELDS x y z intensity
SIZE 4 4 4 4
TYPE F F F F
COUNT 1 1 1 1
WIDTH 749
HEIGHT 1
VIEWPOINT 0 0 0 1 0 0 0
POINTS 749
DATA ascii
-1.146414 0.15174258 0.060605038 22
-1.1882859 0.16594537 0.020942887 21
-1.1877291 0.16988496 0.020942887 30
-1.0644588 0.15604679 0.01877879 7
-1.0402046 0.15601648 0.018359931 6
-1.0732547 0.1648062 0.018953314 1
-0.47711837 1.262657 0.023560749 1
-0.44049379 1.1781541 0.021955127 1
-0.43915364 1.1871866 0.022094747 1
-0.4157649 1.1361309 0.021117412 1
-0.4199644 1.1601388 0.02153627 1
-0.41726038 1.1653631 0.021606078 1
-0.43321532 1.2233623 0.022653224 1
0.059470654 0.013206005 0.015742071 65
0.051377714 0.00072008371 0.04804441 54
0.051971972 0.007481873 0.047730394 36
0.046019316 0.00421983 0.04804441 100
0.04095161 0.0075792074 0.04804441 72
0.044982314 0.019303739 0.047416378 49
0.039003193 0.016111374 0.047730394 28
0.037501097 0.019549012 0.047625721 19
0.028091908 0.011470139 0.048253752 8
0.016344488 0.00016504526 0.049091127 7
0.01594764 0.005307436 0.048881784 7
0.038565993 0.043112338 0.046579 11
-0.94663507 0.64590222 0.026213514 11
-0.95704716 0.65059876 0.026388038 26
-0.947465 0.65635365 0.026213514 24
-0.94188792 0.66227496 0.0261088 22
-0.95420676 0.66639841 0.02631823 22
-0.94857293 0.672041 0.026213514 24
-0.96286052 0.67614424 0.026457848 31
-0.96718699 0.68145674 0.026527658 27
-0.98144895 0.68571925 0.026771991 17
-1.0037291 0.69047582 0.027155945 8
-1.021961 0.69476825 0.027470088 5
-1.0322149 0.70008892 0.027644612 7
-1.0584126 0.70427471 0.028098375 10
-1.0746186 0.70929217 0.028377613 12
-1.1028001 0.71401578 0.02886628 13
-1.1149781 0.71942115 0.029075708 13
-1.1211414 0.72507209 0.029180424 12
-1.0142531 1.1239543 0.084051549 3
-1.0551341 1.1332047 0.14398129 4
-1.0479805 1.137748 0.028621947 7
-0.99348146 1.125206 0.083004825 7
-1.0188427 1.1310425 0.14084367 9
-1.013649 1.1353112 0.028028565 11
-1.0136888 1.1353205 0.084156215 52
-1.007936 1.1339766 0.13997212 48
-0.98117024 1.1336467 0.027470088 33
-1.0084529 1.1401262 0.083946876 100
-1.0143454 1.1415257 0.14066938 95
-0.97995597 1.1387223 0.027470088 37
-0.99362522 1.1420166 0.083214171 100
-1.011168 1.1462444 0.14049506 84
-0.9941327 1.1481326 0.027749326 37
-0.98643154 1.1462467 0.082900152 100
-1.005908 1.1510161 0.14014643 86
-0.98510736 1.1513226 0.027609708 22
-0.97548372 1.1489321 0.082376793 84
-0.99496776 1.153772 0.13927488 87
-0.97601086 1.1547234 0.027470088 25
-0.98383492 1.156696 0.082900152 41
-0.99361879 1.1591625 0.13927488 77
-0.96503979 1.1573054 0.027295563 48
-0.98834926 1.1632643 0.083214171 30
-0.97687727 1.1603315 0.13788038 82
-0.96160597 1.1626172 0.027260659 63
-0.97136301 1.1651514 0.082376793 80
-0.98500925 1.1686958 0.13875194 91
-0.96609706 1.169155 0.027365373 70
-0.96231848 1.1681602 0.081958108 100
-0.98560542 1.1742911 0.13892625 89
-0.96462387 1.1747091 0.027365373 81
-0.95313078 1.1716381 0.081539422 92
-0.96678954 1.1752877 0.13735744 100
-0.9516924 1.1765939 0.027155945 92
-0.95371848 1.1771425 0.081644088 100
-0.95774466 1.1782327 0.1366602 100
-0.94255048 1.1797159 0.027016325 96
-0.9561401 1.1834464 0.081853434 100
-0.96591705 1.1861302 0.13753176 98
-0.94503683 1.1857346 0.027086135 93
-0.93936688 1.1841578 0.081016064 98
-0.9702875 1.1927562 0.1380547 91
-0.94735223 1.192297 0.027155945 92
-0.93014973 1.1874454 0.080597371 86
-0.96105748 1.1961622 0.13735744 99
-0.96132606 1.2016535 0.027435184 58
-0.93067783 1.1928999 0.080702044 72
-0.94622546 1.1973406 0.13613728 100
-0.95589226 1.2060775 0.027365373 46
-0.93871003 1.2011018 0.081225403 32
-0.94464916 1.2028216 0.13613728 98
-0.92565399 1.2026299 0.026841801 57
-0.93343908 1.2049124 0.081016064 24
-0.94894141 1.2094573 0.1366602 82
-0.9242112 1.207521 0.026841801 74
-0.92050046 1.2064197 0.080388032 26
-0.93792564 1.2115912 0.13578865 87
-0.92658263 1.2135578 0.026911611 75
-0.91521949 1.2101445 0.080178685 36
-0.93645304 1.2165229 0.13578865 98
-0.92686003 1.2195492 0.026946515 78
-0.91168576 1.2149302 0.080074012 94
-0.92908841 1.2202275 0.13526571 100
-0.90999383 1.2199897 0.026667276 81
-0.91394109 1.2212062 0.080283359 92
-0.91608375 1.2218666 0.13421984 92
-0.90841419 1.2250832 0.026667276 88
-0.91045052 1.2257187 0.080178685 82
-0.9183014 1.2281685 0.13456847 64
-0.90300316 1.2289667 0.026597468 81
-0.90504187 1.2296107 0.079969339 66
-0.905294 1.2296903 0.1335226 46
-0.90520161 1.2352538 0.026667276 83
-0.89391667 1.2316458 0.07944598 82
-0.91127151 1.2371944 0.13421984 43
-0.89976352 1.2390993 0.026597468 88
-0.89039618 1.2360682 0.079341307 100
-0.9001537 1.2392255 0.13334829 48
-0.89043325 1.2419194 0.026457848 100
-0.89816827 1.2444537 0.079864666 100
-0.90789098 1.2476389 0.13421984 64
-0.87738842 1.2431693 0.02624842 100
-0.8927117 1.2482488 0.079655327 100
-0.90432364 1.2520981 0.13404553 82
-0.87960356 1.2491711 0.02631823 96
-0.89111787 1.2530304 0.079655327 100
-0.91216236 1.2600842 0.1349171 82
-0.88549739 1.256727 0.026457848 96
-0.87807399 1.25421 0.079027295 100
-0.90289527 1.2626259 0.13421984 78
-0.87630886 1.258891 0.02631823 92
-0.87457114 1.2582953 0.078922622 100
-0.89371473 1.2648571 0.1335226 100
-0.87081486 1.2625568 0.02624842 85
-0.86908382 1.2619567 0.078713275 100
-0.89009601 1.269241 0.13334829 93
-0.86153847 1.2648669 0.0261088 79
-0.87866658 1.2708719 0.079341307 80
-0.89398521 1.2762423 0.13387123 49
-0.86734158 1.2724638 0.02624842 78
-0.84490758 1.2645108 0.077561885 44
-0.89596504 1.2826111 0.13421984 36
-0.8618142 1.2760587 0.02617861 92
-0.84693319 1.2707248 0.077771232 17
-0.88666469 1.2849662 0.1335226 39
-0.86755925 1.283709 0.02631823 96
-0.85832113 1.2803612 0.078503937 55
-0.87549239 1.2865839 0.13265105 20
-0.8507362 1.2831511 0.026038991 99
-0.85840648 1.2859612 0.07860861 97
-0.86432654 1.2881298 0.13177948 15
-0.83768493 1.2838709 0.025829561 100
-0.85846978 1.2915678 0.078713275 100
-0.86437768 1.2937555 0.13195379 3
-0.8396284 1.2901137 0.025899371 100
-0.83606476 1.28878 0.077561885 70
-0.8718707 1.3021815 0.13282534 1
-0.84154505 1.2963762 0.025969181 96
-0.82303697 1.2893752 0.076933853 51
-0.8644138 1.3050268 0.13230242 3
-0.84343487 1.3026584 0.026038991 77
-0.83427483 1.2991569 0.077666558 53
-0.84206599 1.3021352 0.130385 18
-0.83597106 1.3053576 0.025934275 72
-0.83428246 1.3047054 0.077771232 68
-0.84020001 1.3069911 0.130385 58
-0.82673615 1.3070438 0.025794657 83
-0.83622307 1.3107445 0.077980578 65
-0.84954864 1.3159426 0.13143086 100
-0.82299274 1.3111131 0.025759751 99
-0.81946176 1.3097215 0.0771432 65
-0.8439272 1.3193636 0.13108224 97
-0.82481128 1.3173819 0.025829561 100
-0.81942505 1.3152373 0.077247873 91
-0.83829898 1.322752 0.13073361 99
-0.82289213 1.3221774 0.025829561 100
-0.81751353 1.3200142 0.077247873 91
-0.82711858 1.3238773 0.12986206 100
-0.81725103 1.325461 0.025759751 100
-0.82113642 1.3270395 0.077561885 97
-0.82702273 1.3294309 0.13003637 100
-0.78703624 1.3131859 0.17719802 15
-0.80790371 1.3271937 0.025620133 100
-0.8173359 1.3310641 0.077457212 100
-0.82137507 1.3327215 0.12968774 100
-0.78513199 1.3178498 0.17719802 15
-0.80595058 1.3319304 0.025620133 100
-0.80429846 1.3312457 0.07682918 100
-0.81756181 1.3367423 0.12951343 100
-0.7777099 1.3202269 0.17646681 18
-0.80398077 1.3366601 0.025620133 100
-0.783907 1.328259 0.075782463 100
-0.82476479 1.3453585 0.130385 100
-0.78127474 1.3271573 0.17719802 18
-0.8019945 1.341383 0.025620133 100
-0.78746933 1.3352442 0.076096483 96
-0.80256063 1.3416221 0.12846756 100
-0.78663582 1.334892 0.17817298 24
-0.80367023 1.3476685 0.025689943 77
-0.79651004 1.344613 0.076724514 49
-0.7950595 1.3439939 0.12794463 88
-0.77552682 1.3356586 0.17695428 16
-0.81082791 1.3563466 0.025864467 60
-0.82200962 1.3611646 0.07829459 55
-0.78995186 1.3473517 0.17914793 5
-0.79960436 1.3571048 0.025689943 96
-0.8071174 1.360373 0.077561885 100
-0.81659752 1.3644972 0.130385 60
-0.75516278 1.3377718 0.17476064 13
-0.79937762 1.3626163 0.025724847 100
-0.80321974 1.3643036 0.077457212 100
-0.8181625 1.3708661 0.13073361 100
-0.78225344 1.3550957 0.17866045 36
-0.80461317 1.3705648 0.025864467 100
-0.80844039 1.3722615 0.077875905 100
-0.81241387 1.3740232 0.130385 100
-0.77294403 1.3565243 0.1776855 31
-0.79896337 1.3734205 0.025794657 100
-0.81008202 1.3783941 0.078085244 100
-0.80130976 1.37447 0.12951343 100
-0.79273647 1.370635 0.18061037 33
-0.78409117 1.3723652 0.025550323 100
-0.81341106 1.3856037 0.078399263 100
-0.80645508 1.382463 0.13021068 100
-0.76530272 1.3638818 0.17719802 22
-0.79107863 1.3811648 0.025724847 100
-0.8003493 1.3853896 0.077771232 100
-0.81518692 1.3921515 0.13125655 100
-0.75599617 1.3651767 0.17622307 15
-0.79802078 1.3900203 0.025899371 100
-0.80908006 1.395107 0.078399263 100
-0.81300682 1.3969131 0.13125655 100
-0.75932103 1.3722204 0.17695428 13
-0.79766208 1.3955638 0.025934275 100
-0.81051296 1.4015291 0.07860861 100
-0.80358142 1.3983116 0.1305593 100
-0.78241891 1.3884883 0.18036664 10
-0.79003769 1.3977195 0.025829561 100
-0.8119176 1.4079688 0.078817949 100
-0.79777151 1.4013423 0.13021068 100
-0.78564471 1.3956617 0.18109785 5
-0.78603047 1.4015387 0.025794657 100
-0.81329376 1.414426 0.079027295 100
-0.79916209 1.407746 0.1305593 100
-0.78704208 1.4020169 0.18158533 3
-0.7910375 1.409642 0.025934275 100
-0.80021983 1.4140217 0.078399263 100
-0.8077175 1.417598 0.13160518 100
-0.79251295 1.4158193 0.026004085 100
-0.79807669 1.4184957 0.078399263 100
-0.81274432 1.4255517 0.13230242 100
-0.79924542 1.4248674 0.02617861 100
-0.80299205 1.4266858 0.078817949 100
-0.80327803 1.4268246 0.13160518 100
-0.79347426 1.4275799 0.0261088 100
-0.80439478 1.432925 0.079027295 100
-0.799303 1.4304328 0.13143086 100
-0.79117066 1.4322654 0.0261088 100
-0.80923575 1.441186 0.07944598 100
-0.80592173 1.4395494 0.13230242 100
-0.79231387 1.4389606 0.02617861 100
-0.79782873 1.4417089 0.078922622 100
-0.81415778 1.4498467 0.13334829 100
-0.79354388 1.4454384 0.02624842 100
-0.80082923 1.449101 0.079236634 100
-0.81355649 1.4554993 0.1335226 100
-0.80187875 1.4555507 0.026457848 100
-0.8020131 1.4556186 0.07944598 100
-0.79693967 1.4530458 0.1321281 100
-0.79591697 1.4584441 0.026388038 100
-0.80316788 1.462153 0.079655327 100
-0.80164236 1.4613726 0.13282534 100
-0.78639716 1.4594706 0.02624842 100
-0.80606836 1.4696194 0.079969339 100
-0.80630332 1.4697406 0.1335226 100
-0.78753012 1.4659774 0.02631823 100
-0.80184633 1.4734268 0.079864666 100
-0.81268972 1.479069 0.13439415 100
-0.79950505 1.4776049 0.026597468 100
-0.79609209 1.4758153 0.079655327 100
-0.81751353 1.4870474 0.13509139 100
-0.79879457 1.483246 0.026632372 75
-0.79715127 1.4823771 0.079864666 95
-0.80091184 1.4843657 0.13369691 98
-0.80192608 1.4909518 0.13404553 26
0.12731501 1.2942135 0.13089497 5
0.15632877 1.2617338 0.010995016 25
0.12560269 1.3001136 0.035588451 25
0.13659891 1.2863781 0.057871412 23
0.14753622 1.2727165 0.10199527 11
0.15245995 1.2665663 0.12364423 24
0.19802561 1.2096503 0.13002171 8
0.1467452 1.2737045 0.17289113 7
0.15680334 1.2646703 0.011029921 89
0.16473904 1.2546866 0.032448292 89
0.15700015 1.2644227 0.055256739 74
0.16461554 1.2548419 0.076046467 14
0.16650173 1.2524691 0.097615108 24
0.16274706 1.2571926 0.1209729 100
0.19228691 1.2200294 0.13272113 31
0.14610177 1.2781336 0.1739264 28
0.15481597 1.2707491 0.011134636 100
0.17385712 1.2466214 0.03182026 100
0.15872839 1.2657914 0.055256739 99
0.16262096 1.2608591 0.076777689 29
0.18532076 1.2320955 0.093234941 26
0.15715256 1.2677883 0.12326261 100
0.18903095 1.2273942 0.13452072 38
0.15386191 1.271958 0.1713382 43
0.16149968 1.2658292 0.010995016 100
0.16813216 1.2573644 0.032448292 100
0.15923259 1.2687225 0.055431053 100
0.16923407 1.2559581 0.075802729 30
0.18449932 1.2364755 0.093860678 39
0.16494685 1.2614297 0.12135452 100
0.19062975 1.2286515 0.13452072 38
0.154425 1.2748584 0.17185585 36
0.16937196 1.2592905 0.010820492 100
0.16370401 1.2665765 0.032971654 87
0.1548591 1.2779465 0.056302611 96
0.17580816 1.2510169 0.074827775 30
0.17642665 1.2502218 0.096363634 37
0.183541 1.2410765 0.11601187 100
0.18505368 1.2391319 0.13722014 30
0.15144497 1.2823353 0.1739264 42
0.17474917 1.2558682 0.010715778 66
0.17520636 1.2552763 0.032134276 60
0.17124876 1.2604005 0.054210871 51
0.18355644 1.2444648 0.073609084 46
0.16120091 1.2734103 0.10074379 23
0.1890758 1.2373184 0.13632034 22
0.14733157 1.2913681 0.1765146 41
0.17279711 1.2619358 0.010820492 78
0.19270149 1.2359772 0.030773543 32
0.17053822 1.2648818 0.054559495 50
0.19125435 1.2378645 0.072390392 47
0.19060621 1.2387098 0.093547814 52
0.19042248 1.2389494 0.11486702 13
0.19545236 1.2323896 0.13452072 23
0.15032944 1.2912375 0.17599694 61
0.17572781 1.2616584 0.010785587 52
0.17497405 1.2626486 0.032448292 29
0.172268 1.2662034 0.054559495 50
0.18808013 1.2454319 0.073365346 62
0.19463751 1.2368178 0.092922069 53
0.19087243 1.2417638 0.11524864 13
0.20060968 1.2289727 0.13317102 46
0.17438406 1.2634237 0.16616182 68
0.17985767 1.2597711 0.010715778 39
0.14056981 1.3117567 0.035588451 25
0.17039856 1.2722874 0.055082429 50
0.18136382 1.2577782 0.075071514 75
0.19269612 1.2427833 0.093860678 52
0.1948888 1.239882 0.1144854 13
0.2080887 1.2224159 0.13092151 40
0.1842621 1.2539432 0.16253836 70
0.17428157 1.270592 0.010925206 65
0.16874474 1.2779689 0.03328567 28
0.1876142 1.2528281 0.05281638 53
0.1877498 1.2526474 0.07409656 61
0.188337 1.251865 0.095425025 63
0.20234144 1.233206 0.1125773 13
0.19789293 1.2391331 0.13542053 38
0.18123031 1.2613337 0.16460891 69
0.19036871 1.2526581 0.010506349 68
0.20870686 1.2280467 0.029936166 33
0.17620713 1.2716644 0.054733805 50
0.20011136 1.2395827 0.071902916 48
0.19238174 1.2499565 0.094799288 51
0.19457632 1.2470112 0.11563025 13
0.21583346 1.2184821 0.1291219 32
0.17833063 1.2688143 0.16667947 67
0.18848813 1.2587336 0.010611063 81
0.20318139 1.2388695 0.030564198 64
0.18033022 1.2697624 0.054385185 76
0.19939163 1.243993 0.072390392 63
0.20815593 1.2321444 0.091044858 68
0.20324865 1.2387786 0.11334054 13
0.217401 1.2196459 0.1291219 32
0.18122292 1.2685556 0.16616182 68
0.1783607 1.2761106 0.010960111 90
0.1965453 1.2513463 0.031296901 62
0.18561471 1.266232 0.053862248 77
0.1845994 1.2676146 0.075802729 100
0.20977122 1.2333348 0.091044858 81
0.20721111 1.2368213 0.1125773 13
0.2270464 1.2098088 0.12597258 24
0.18639567 1.2651684 0.16460891 69
0.19199467 1.261308 0.010611063 94
0.20654541 1.2413393 0.030564198 64
0.19212931 1.2611232 0.053165004 100
0.19928524 1.2513027 0.073121607 78
0.20914504 1.2377717 0.091670595 100
0.20545584 1.2428346 0.11372216 13
0.24013698 1.19524 0.12147357 17
0.19276378 1.2602525 0.16253836 70
0.19839984 1.2560737 0.010471444 82
0.20468107 1.2473902 0.030878214 63
0.19034266 1.2672124 0.053687938 100
0.20445776 1.2476988 0.072390392 95
0.20383346 1.2485619 0.093547814 100
0.21746421 1.229718 0.1102876 14
0.24276537 1.1947401 0.12102367 17
0.19447726 1.2614965 0.16253836 70
0.19768041 1.2604852 0.010541254 95
0.21675286 1.2339333 0.029936166 66
0.19083109 1.2700205 0.053862248 100
0.21183428 1.2407807 0.071171694 65
0.21003208 1.2432897 0.092296332 100
0.21784517 1.2324127 0.11066922 14
0.23962796 1.2020875 0.12282328 17
0.19047385 1.2705178 0.16512655 68
0.20171654 1.2584558 0.010471444 96
0.21837431 1.2350937 0.029936166 66
0.18795189 1.2777601 0.054559495 100
0.20886981 1.2484235 0.072146654 79
0.21168622 1.2444736 0.092296332 100
0.20578384 1.2527515 0.11524864 20
0.24226949 1.2015816 0.12237337 17
0.19334474 1.2701969 0.16460891 69
0.19880268 1.2661973 0.010611063 94
0.21423057 1.2443997 0.030459527 97
0.19663271 1.2692633 0.053513627 100
0.20480782 1.2577128 0.073365346 93
0.21905053 1.2375897 0.090731993 95
0.20293424 1.26036 0.1167751 26
0.23026806 1.2217407 0.1277722 24
0.20625353 1.2556703 0.15943253 73
0.20283598 1.2641478 0.010541254 95
0.21703672 1.2439346 0.030354854 65
0.20066831 1.2672331 0.053165004 100
0.21221814 1.2507933 0.072146654 63
0.21841362 1.2419748 0.09135773 94
0.19787642 1.2712071 0.11906482 78
0.22848609 1.2276378 0.1291219 40
0.20684037 1.2584479 0.15995017 72
0.21591771 1.2488958 0.010192205 99
0.21289656 1.2532264 0.030878214 95
0.20687887 1.2618526 0.052467756 100
0.22517198 1.23563 0.069709264 83
0.21545973 1.2495522 0.092609204 93
0.21301964 1.25305 0.1144854 100
0.22108576 1.2414875 0.13272113 86
0.2051461 1.2643365 0.16150309 70
0.21531463 1.253347 0.010262015 98
0.22368139 1.2412639 0.03004084 99
0.19952402 1.2761517 0.053862248 100
0.22001886 1.2465533 0.071171694 65
0.22163388 1.2442209 0.09135773 94
0.2214137 1.2445389 0.11219569 100
0.22938982 1.2330199 0.13002171 96
0.20687377 1.2655373 0.16150309 78
0.20794275 1.2676964 0.010541254 81
0.22759092 1.2391081 0.029831495 99
0.20580697 1.2708039 0.053165004 100
0.21943563 1.2509742 0.071659178 64
0.22888556 1.2372243 0.089793384 100
0.22418416 1.244065 0.11181407 98
0.23211178 1.2325302 0.12957181 96
0.20860562 1.266732 0.16150309 70
0.20968211 1.2688874 0.010541254 81
0.22923037 1.2402307 0.029831495 66
0.20531169 1.2752942 0.053513627 100
0.22111654 1.2521251 0.071659178 96
0.23385796 1.2334468 0.088854775 100
0.21477747 1.2614179 0.11563025 94
0.23153192 1.2368567 0.13047162 88
0.21360755 1.2631328 0.15995017 72
0.21927339 1.2584811 0.010296919 42
0.21183813 1.2694629 0.031610917 30
0.21154562 1.2698951 0.05281638 79
0.21055937 1.2713517 0.074340299 100
0.23547763 1.2345476 0.088854775 98
0.2308037 1.241451 0.11066922 92
0.22988588 1.2428066 0.13182132 94
0.21966323 1.2579054 0.15787962 73
0.21428859 1.2695913 0.010506349 40
0.20689988 1.2805868 0.032238949 30
0.2144039 1.2694197 0.05264207 53
0.21895453 1.2626476 0.072877869 100
0.22718531 1.2503989 0.091670595 100
0.23573631 1.2376738 0.10952436 92
0.22719064 1.250391 0.13362093 93
0.22029087 1.260659 0.15839726 73
0.2204726 1.2641054 0.010366729 41
0.21754959 1.2684884 0.031401575 31
0.21614924 1.2705882 0.05264207 53
0.23499462 1.2423306 0.069709264 83
0.23105624 1.2482359 0.091044858 100
0.23519209 1.2420346 0.1102876 92
0.23751944 1.2385448 0.13002171 96
0.21878999 1.2666285 0.15995017 72
0.22882161 1.2552476 0.0101573 42
0.24133888 1.236336 0.029308135 34
0.21130061 1.281719 0.053687938 52
0.22021061 1.2682574 0.073365346 100
0.24035951 1.2378157 0.088854775 98
0.23467454 1.2464048 0.11105084 84
0.24130806 1.2363827 0.1291219 96
0.21839303 1.2710035 0.16098544 72
0.22274533 1.2680082 0.010401634 27
0.22095037 1.2707398 0.031401575 31
0.22831759 1.2595284 0.051247578 55
0.23276621 1.2527586 0.070927955 97
0.24625182 1.2322366 0.087603301 99
0.2308653 1.2556515 0.11295892 89
0.24820727 1.2292608 0.12687239 82
0.22854355 1.2591846 0.15684435 74
0.21902403 1.2775224 0.010576159 27
0.21179029 1.2886147 0.032448292 29
0.23438168 1.2539729 0.05055033 56
0.23011586 1.2605141 0.071902916 96
0.24139288 1.2432218 0.089480512 97
0.24650401 1.2353843 0.10799789 87
0.24555424 1.2368407 0.128672 97
0.23130834 1.2586856 0.1563267 82
0.23818126 1.251814 0.010017681 43
0.2331354 1.2596107 0.030564198 32
0.24473304 1.2416904 0.049155839 58
0.23937982 1.249962 0.07019674 99
0.2409001 1.247613 0.090106249 96
0.25239706 1.2298481 0.10647142 88
0.24083292 1.2477167 0.13137141 94
0.22671843 1.269526 0.15943253 73
0.23986501 1.2528994 0.010017681 43
0.2488772 1.2388669 0.029203463 68
0.22484818 1.2762816 0.05264207 53
0.23891166 1.2543839 0.070684217 65
0.24790651 1.2403784 0.08854191 84
0.24869946 1.2391437 0.10837951 87
0.25092694 1.2356753 0.1277722 89
0.23055196 1.2674005 0.15839726 73
0.23931801 1.2572975 0.010087491 71
0.25580224 1.2314425 0.028680105 69
0.22867104 1.2739971 0.052293446 53
0.24798986 1.243696 0.068978049 50
0.25583971 1.2313837 0.086664692 71
0.25131226 1.2384849 0.10799789 87
0.25771096 1.2284486 0.12552269 90
0.2290875 1.2733439 0.15995017 64
0.23567525 1.2668285 0.010262015 84
0.24139735 1.2577841 0.030250182 98
0.24214977 1.2565948 0.05037602 84
0.2496452 1.2447473 0.068978049 50
0.25533977 1.2357464 0.087290429 85
0.23615503 1.2660701 0.11410378 82
0.25931305 1.2294662 0.12552269 82
0.23187932 1.2728285 0.15943253 73
0.24698046 1.2526802 0.0099478718 73
0.24734962 1.2520921 0.029831495 99
0.23537543 1.2711658 0.051770512 81
0.2407496 1.2626053 0.071415432 48
0.25696731 1.2367721 0.087290429 85
0.25667787 1.2372332 0.10723466 88
0.25988251 1.2321285 0.12597258 90
0.23671791 1.2690274 0.15787962 65
0.2518391 1.248643 0.0098431576 88
0.25114632 1.2497551 0.029622151 100
0.2476612 1.2553499 0.050027397 85
0.24981812 1.2518873 0.069709264 83
0.25650954 1.2411455 0.087916173 56
0.25208235 1.2482525 0.10952436 85
0.26561889 1.2265221 0.12417299 75
0.23641887 1.2733974 0.15891489 65
0.24728891 1.2599397 0.010052586 86
0.25290674 1.2508472 0.029622151 100
0.24211144 1.2683195 0.051247578 82
0.25889015 1.241163 0.068003096 51
0.26031494 1.238857 0.087290429 71
0.25486916 1.247671 0.10914274 85
0.27036691 1.2225878 0.12282328 85
0.23826602 1.2745433 0.15891489 65
0.2500461 1.2592885 0.010017681 72
0.25667474 1.2484758 0.029412808 100
0.23760489 1.2795829 0.052293446 80
0.25223657 1.2557154 0.069953002 49
0.26711544 1.2314448 0.08572609 58
0.2503818 1.2587409 0.11143246 91
0.27194846 1.2235612 0.12282328 93
0.23901942 1.2772753 0.15943253 73
0.25071669 1.2620411 0.010052586 86
0.25938463 1.2477905 0.029308135 100
0.24973938 1.2636478 0.05055033 84
0.25599703 1.2533599 0.069465525 49
0.27078098 1.2290541 0.085100345 58
0.25923136 1.2480425 0.10876112 79
0.26948258 1.2311888 0.12462288 92
0.24982736 1.2635032 0.15477379 75
0.25656891 1.2562344 0.0099129668 87
0.26002225 1.250512 0.029412808 100
0.25043494 1.2663988 0.05072464 84
0.26384005 1.2441857 0.068003096 51
0.27136445 1.2317172 0.085413218 58
0.26191619 1.2473736 0.10837951 87
0.27310789 1.2288282 0.12372308 75
0.25155184 1.2645481 0.15477379 67
0.26015353 1.2537231 0.0098431576 88
0.2635864 1.2479942 0.029203463 100
0.25506809 1.2622102 0.050201707 85
0.25920925 1.2552991 0.069465525 49
0.26977038 1.2376738 0.086351827 58
0.26442641 1.2465923 0.10799789 79
0.26753926 1.2413971 0.12687239 90
0.24714926 1.2754259 0.15787962 65
0.26388747 1.2512941 0.0097733475 89
0.2672978 1.2455573 0.028994121 100
0.24864325 1.2769377 0.051596198 82
0.26191938 1.2546048 0.069221787 83
0.27241397 1.236951 0.086038955 58
0.26308215 1.2526489 0.10914274 85
0.27715281 1.2289795 0.12327318 76
0.252864 1.2698376 0.15580906 67
0.26861674 1.2471225 0.0096686333 90
0.27098873 1.2431005 0.028784776 100
0.25243884 1.2745543 0.051247578 82
0.26865476 1.247058 0.068003096 51
0.27605256 1.2345141 0.085413218 58
0.26277402 1.2570297 0.10990598 78
0.28469625 1.2198576 0.12057377 77
0.25068513 1.2775279 0.15787962 65
0.25513682 1.2739918 0.010192205 85
0.26860756 1.2509671 0.029203463 100
0.25218967 1.2790293 0.051596198 82
0.26430714 1.2583176 0.069465525 49
0.27867323 1.2337625 0.085100345 58
0.26051021 1.2648075 0.11143246 84
0.28331593 1.225827 0.12192347 85
0.25636074 1.2718999 0.15580906 67
0.27195451 1.2490754 0.0096686333 90
0.27028814 1.2519464 0.029203463 100
0.26796982 1.255941 0.049155839 100
0.26601341 1.2593119 0.069465525 49
0.2802937 1.2347069 0.085100345 58
0.26716658 1.2573249 0.10952436 85
0.28295231 1.230126 0.12282328 76
0.26199338 1.2662385 0.15373851 68
0.27861714 1.2413779 0.0094941091 92
0.27097565 1.2546508 0.029308135 100
0.26370326 1.2672826 0.050201707 85
0.27564672 1.2465374 0.067515619 51
0.28191748 1.2356454 0.085100345 58
0.27376714 1.2498021 0.10761628 79
0.28261545 1.2344331 0.12372308 83
0.26179957 1.2705892 0.15477379 67
0.27538979 1.2510527 0.0096686333 75
0.28166533 1.2400594 0.028366089 100
0.26947883 1.2614074 0.049504463 86
0.27149037 1.2578835 0.068978049 50
0.27775005 1.2469181 0.086977564 57
0.27844748 1.2456963 0.10647142 88
0.28915003 1.226948 0.12147357 77
0.26172078 1.2749976 0.15580906 67
0.27214411 1.2607088 0.0098431576 88
0.28133959 1.2444692 0.028575432 100
0.27021417 1.2641172 0.049678773 86
0.27319509 1.2588527 0.068978049 50
0.28720304 1.2341139 0.084474608 59
0.27140346 1.2620169 0.10990598 85
0.29362726 1.2227684 0.12012386 86
0.26158154 1.2793629 0.15684435 66
0.26887524 1.2703444 0.010017681 72
0.28291446 1.2453575 0.028575432 100
0.26892641 1.2702534 0.050201707 85
0.28259671 1.245923 0.067028143 51
0.28971118 1.2332608 0.084161744 59
0.27495995 1.2595148 0.10914274 78
0.29322097 1.2270139 0.12102367 77
0.27573195 1.2581408 -0.0097733475 88
0.26895002 1.2702112 0.15373851 68
0.2842516 1.2468679 0.0095290141 76
0.27679738 1.260244 0.029412808 100
0.27455384 1.2642698 0.049504463 86
0.27846166 1.2572576 0.068490572 50
0.28940663 1.2376175 0.084787481 59
0.28240454 1.2501824 0.10685304 81
0.29386917 1.2296097 0.12147357 77
0.27822107 1.2576892 0.14959741 70
0.28591782 1.2477926 0.0095290141 92
0.28237492 1.2542026 0.028994121 100
0.27724466 1.2634846 0.049330149 87
0.2820847 1.2547277 0.068003096 51
0.29104051 1.2385243 0.084787481 59
0.28503203 1.2493953 0.10647142 81
0.29547507 1.2305011 0.12147357 77
0.27618703 1.265398 0.15166797 69
0.28374234 1.2557256 0.0096686333 75
0.28790694 1.2481283 0.028575432 100
0.27609578 1.269675 0.049853086 85
0.29141194 1.2417343 0.066053182 52
0.29172802 1.2411575 0.085100345 58
0.28765073 1.2485957 0.1060898 88
0.29989424 1.2262602 0.12012386 86
0.27513215 1.2714329 0.15322088 76
0.27979571 1.2672404 0.0098780617 73
0.28584665 1.2561052 0.028994121 100
0.27792901 1.2706755 0.049853086 85
0.29124704 1.2461672 0.066540658 52
0.29251346 1.2438368 0.085413218 58
0.28659448 1.254729 0.10723466 73
0.27693135 1.2725115 -0.0099827768 86
0.27789423 1.2707396 0.15270324 68
0.28722492 1.2576184 0.0096686333 75
0.29701999 1.2394422 0.0279474 100
0.27967834 1.2716222 0.049853086 85
0.29196903 1.2488151 0.066784397 52
0.29698035 1.2395158 0.084474608 59
0.28921947 1.2539172 0.10685304 81
0.28437898 1.2628995 -0.0097733475 88
0.28422609 1.2631832 0.15011504 78
0.28798613 1.2602963 0.0097035384 90
0.2854813 1.2649835 0.029412808 100
0.28988245 1.2567478 0.048284281 88
0.281479 1.2724729 0.069953002 49
0.29955184 1.2386539 0.084161744 59
0.29368621 1.2496301 0.10570818 73
0.28044617 1.2744057 -0.0099827768 86
0.28594926 1.2641079 0.15011504 78
0.29999885 1.2417717 0.0093195848 78
0.29562747 1.2500209 0.02847076 70
0.28785145 1.2646948 0.048981529 87
0.29345906 1.2541128 0.067271881 69
0.28595385 1.2682757 -0.0098431576 87
0.2903893 1.2599057 0.14856213 71
0.28760764 1.2691486 0.0098431576 100
0.29443267 1.2561654 0.028784776 100
0.29505581 1.25498 0.047935657 89
0.29598951 1.2532037 0.067028143 51
0.2996974 1.2461503 0.10456333 82
0.29021752 1.2641838 0.14959741 70
0.29212445 1.2647417 0.0097384425 75
0.2921457 1.2647009 0.048807215 58
0.29773122 1.2539849 0.1060898 66
0.28565446 1.2771546 -0.0099827768 86
0.28837243 1.27194 0.15166797 69
0.29284808 1.2673705 0.0097733475 89
0.2891745 1.2744758 -0.0099129668 97
0.29181284 1.2693727 0.15063268 78
0.2937344 1.269926 0.068978049 50
0.29458579 1.268265 -0.0097733475 99
0.29708254 1.2633944 0.14856213 71
0.29460242 1.2727635 -0.0098431576 100
0.29976755 1.2625957 0.1480445 79
0.29975072 1.266917 0.14907977 78
0.29967353 1.2712007 0.15011504 78
0.29979303 1.2753668 -0.0098431576 100
