# .PCD v0.7 - Point Cloud Data file format
VERSION 0.7
FIELDS x y z intensity
SIZE 4 4 4 4
TYPE F F F F
COUNT 1 1 1 1
WIDTH 731
HEIGHT 1
VIEWPOINT 0 0 0 1 0 0 0
POINTS 731
DATA ascii
-1.1803064 0.16525109 0.020803269 22
-1.1096395 0.15535723 0.058720943 29
-1.1797224 0.16937011 0.020803269 33
-1.0604203 0.15602194 0.01870898 6
-1.010435 0.15227281 0.01783636 6
-1.1027842 0.17012879 0.019476885 48
0.057693452 0.0095920563 0.015811881 110
0.051780581 0.00045913458 0.04804441 48
0.053595424 0.0088073015 0.047625721 37
0.039805651 0.010750651 0.047939736 36
0.033666193 0.0076647401 0.048253752 26
0.031141043 0.009381175 0.048253752 17
0.027225196 0.0096421838 0.048358422 17
0.029254615 0.017948091 0.047939736 9
0.017357647 0.0067589283 0.048777111 8
-1.008039 1.1242638 0.08373753 3
-1.0469818 1.1331184 0.14328404 6
-1.0438266 1.1379639 0.028552137 7
-1.0049095 1.1289791 0.083632857 9
-1.0185902 1.1321375 0.14084367 13
-1.0133295 1.1366756 0.028028565 12
-1.0094805 1.1357728 0.083946876 65
-1.0114973 1.1362458 0.14032075 53
-0.99647802 1.138423 0.027749326 42
-1.0101371 1.141677 0.084051549 100
-1.0160239 1.1430795 0.14084367 100
-0.98352081 1.1409976 0.027539898 38
-0.97971123 1.140076 0.082481466 100
-1.0166485 1.1490121 0.14101799 87
-0.99775225 1.1501644 0.027819136 32
-0.97647053 1.144937 0.082376793 100
-1.0095115 1.1530527 0.14049506 86
-0.9867143 1.1531459 0.027644612 22
-0.97515243 1.1502632 0.082376793 66
-0.99849874 1.1560841 0.13962349 79
-0.97179741 1.1550739 0.027400278 30
-0.98349696 1.1580343 0.082900152 37
-0.98941559 1.1595321 0.13892625 77
-0.95882267 1.1573998 0.027190849 50
-0.98406762 1.1638815 0.083004825 33
-0.97839743 1.1624258 0.1380547 85
-0.96326667 1.1641765 0.027295563 61
-0.9672212 1.1652066 0.082167454 88
-0.98858672 1.1707718 0.13910057 91
-0.9638148 1.1699672 0.027330469 71
-0.95810848 1.1684594 0.081748761 98
-0.98139948 1.1746132 0.13857763 94
-0.96047789 1.1747313 0.027295563 78
-0.95477921 1.1732044 0.081644088 92
-0.96843082 1.1768622 0.13753176 100
-0.95133692 1.1779042 0.027155945 89
-0.9475804 1.1768836 0.081330076 98
-0.9612332 1.180593 0.13700883 100
-0.94612008 1.1818192 0.027086135 92
-0.95199984 1.1834376 0.081644088 100
-0.95986336 1.1856022 0.13700883 92
-0.94082123 1.1859642 0.027016325 92
-0.93515724 1.184384 0.080806717 94
-0.96416074 1.1924764 0.13753176 94
-0.95097965 1.1941686 0.027225753 85
-0.92993098 1.1882204 0.080597371 82
-0.96083409 1.1969534 0.13735744 99
-0.96871406 1.2049105 0.027574802 55
-0.92846209 1.1933837 0.080597371 66
-0.95167297 1.2000306 0.1366602 100
-0.95950466 1.2079803 0.027435184 40
-0.92889339 1.1990985 0.080702044 24
-0.94633573 1.2041594 0.13631158 91
-0.92918867 1.2047879 0.026911611 63
-0.93313509 1.2059479 0.081016064 24
-0.94672269 1.2099417 0.13648589 84
-0.91999573 1.2076662 0.026771991 75
-0.92203325 1.2082727 0.080492698 26
-0.94326836 1.2145951 0.13631158 91
-0.92228824 1.2139493 0.026841801 75
-0.91284555 1.211102 0.080074012 50
-0.94170731 1.2198049 0.13631158 99
-0.9188953 1.2182455 0.026806897 78
-0.90946454 1.2153676 0.079969339 98
-0.9287737 1.22126 0.13526571 100
-0.90776879 1.2204185 0.026632372 83
-0.91362566 1.2222282 0.080283359 90
-0.91386431 1.222302 0.13404553 87
-0.90427917 1.2249074 0.026597468 88
-0.91775674 1.2291232 0.080597371 76
-0.91037506 1.2268142 0.13387123 61
-0.90649515 1.2311883 0.026667276 83
-0.90662473 1.2312293 0.080074012 66
-0.92776603 1.2379235 0.13561434 43
-0.90106791 1.235049 0.026597468 79
-0.9012019 1.2350919 0.079864666 85
-0.90715033 1.2369983 0.13387123 43
-0.90324003 1.2413452 0.026667276 92
-0.89387017 1.2383062 0.079550654 100
-0.91309208 1.2445407 0.13456847 52
-0.88638598 1.2414265 0.026388038 100
-0.89602202 1.244589 0.07976 100
-0.90196151 1.2465384 0.13369691 73
-0.87714046 1.2439166 0.02624842 100
-0.89814752 1.2508925 0.079969339 100
-0.90974361 1.2547433 0.13456847 85
-0.8791849 1.2504185 0.02631823 99
-0.8831231 1.2517424 0.079236634 100
-0.90795702 1.2600902 0.13456847 78
-0.87749916 1.2554044 0.02631823 99
-0.88332373 1.2573849 0.079341307 100
-0.90435117 1.2645351 0.13439415 82
-0.88335997 1.2629858 0.026457848 99
-0.87594765 1.2604364 0.079027295 100
-0.8894276 1.2650727 0.13317397 100
-0.87407571 1.2653583 0.02631823 81
-0.87611347 1.2660671 0.079131968 100
-0.8876906 1.2700942 0.13317397 88
-0.85544664 1.2641089 0.026004085 75
-0.86880797 1.2688062 0.078817949 76
-0.90670007 1.2821279 0.13509139 43
-0.86878675 1.2743703 0.026283324 83
-0.8501212 1.2677348 0.077875905 38
-0.88988525 1.2818707 0.13369691 33
-0.86137205 1.2772906 0.02617861 93
-0.85401386 1.2746458 0.078189917 19
-0.88996464 1.2875676 0.13387123 29
-0.85583371 1.2808481 0.0261088 99
-0.8559981 1.2809079 0.078399263 63
-0.87878627 1.2891886 0.13299966 18
-0.85037762 1.2841289 0.026038991 99
-0.85617107 1.2862558 0.078503937 100
-0.85835356 1.2870572 0.13125655 13
-0.83732587 1.2848396 0.025829561 100
-0.8543604 1.2911612 0.078503937 100
-0.88455874 1.3023679 0.13387123 3
-0.83542949 1.289921 0.025829561 100
-0.83561152 1.2899892 0.077561885 51
-0.87140578 1.303422 0.13282534 1
-0.83360618 1.2947538 0.025829561 93
-0.83378798 1.2948228 0.077561885 51
-0.85090607 1.3013151 0.13108224 5
-0.83363336 1.3002961 0.025864467 75
-0.83567756 1.3010795 0.077771232 55
-0.85462409 1.308341 0.13160518 24
-0.83177382 1.3051226 0.025864467 74
-0.83567768 1.3066344 0.077875905 68
-0.82672542 1.3031675 0.12916481 61
-0.81695527 1.3046033 0.025620133 81
-0.83575064 1.311954 0.077980578 57
-0.85278279 1.3186152 0.13177948 100
-0.82251996 1.3123109 0.025759751 99
-0.82642037 1.3138521 0.077561885 72
-0.84715325 1.3220441 0.13143086 99
-0.82423729 1.3188212 0.025829561 100
-0.82070822 1.3174118 0.077352546 91
-0.84327024 1.3264222 0.13125655 100
-0.82602209 1.3251112 0.025899371 100
-0.82249337 1.3236876 0.077561885 95
-0.83392864 1.3283007 0.1305593 100
-0.80935782 1.3236369 0.025620133 100
-0.82249945 1.3289893 0.077666558 97
-0.82099837 1.3283778 0.12951343 100
-0.78656167 1.3143525 0.17719802 15
-0.80371827 1.3268571 0.025550323 100
-0.81684572 1.332257 0.077457212 100
-0.81719834 1.3324022 0.12933913 100
-0.7791459 1.3167491 0.17646681 16
-0.79817063 1.3298094 0.025480513 100
-0.80206174 1.3314252 0.076724514 100
-0.8153258 1.3369329 0.12933913 100
-0.76999217 1.3181087 0.17549185 18
-0.79989654 1.3360586 0.025550323 100
-0.79272634 1.3330519 0.076305822 100
-0.81333846 1.3416953 0.12933913 100
-0.79186946 1.3326925 0.17866045 28
-0.80149537 1.3425626 0.025620133 100
-0.79065365 1.3379694 0.076305822 96
-0.80389577 1.3435795 0.12864187 100
-0.77334756 1.3306377 0.17646681 16
-0.79581147 1.3457036 0.025550323 67
-0.79968065 1.3473588 0.076933853 42
-0.79455811 1.3451675 0.12794463 63
-0.7732076 1.3360343 0.17671055 13
-0.80491048 1.3549188 0.025759751 67
-0.81976289 1.3613307 0.078189917 63
-0.82922763 1.3654166 0.13143086 18
-0.78772599 1.3475002 0.17890419 7
-0.79919416 1.3580468 0.025689943 100
-0.804874 1.3605224 0.077457212 100
-0.81983513 1.3670433 0.13073361 82
-0.77660316 1.3482006 0.1776855 20
-0.80262429 1.3651689 0.025794657 100
-0.8046326 1.3660526 0.077561885 100
-0.82321364 1.3742285 0.13125655 100
-0.78911263 1.3592236 0.17963541 36
-0.80419356 1.3715103 0.025864467 100
-0.8025437 1.3707775 0.077561885 100
-0.81563359 1.3765918 0.13073361 100
-0.76890594 1.3558362 0.17719802 31
-0.79478699 1.3729612 0.025724847 100
-0.815018 1.3820322 0.078399263 100
-0.80441779 1.3772793 0.12986206 100
-0.77047569 1.3620608 0.1776855 22
-0.78356498 1.3735292 0.025550323 100
-0.81105369 1.3859698 0.07829459 100
-0.80592006 1.3836465 0.13021068 100
-0.77744347 1.3707588 0.17890419 19
-0.7923637 1.3831656 0.025759751 100
-0.80526191 1.3890573 0.078085244 100
-0.80739433 1.3900313 0.1305593 100
-0.77353269 1.3745639 0.17866045 19
-0.79929525 1.3920336 0.025934275 100
-0.80127889 1.3929482 0.077980578 100
-0.81245929 1.3981023 0.13125655 100
-0.77501982 1.3808424 0.17914793 12
-0.80255491 1.3992703 0.026038991 100
-0.80633968 1.4010311 0.078399263 100
-0.80664557 1.4011735 0.13090792 100
-0.75848073 1.378765 0.17719802 11
-0.79853994 1.4031379 0.026004085 100
-0.81497616 1.4108547 0.079027295 100
-0.79722005 1.4025183 0.13021068 100
-0.78150445 1.3951397 0.18061037 5
-0.78558928 1.4024713 0.025794657 100
-0.8128435 1.4153776 0.079027295 100
-0.80231792 1.4103932 0.13090792 100
-0.77224773 1.3961533 0.17963541 3
-0.79059058 1.410578 0.025934275 100
-0.79976982 1.4149642 0.078399263 100
-0.8072651 1.4185457 0.13160518 100
-0.7974661 1.4193608 0.0261088 100
-0.80122215 1.4211708 0.07860861 100
-0.81228632 1.4265028 0.13230242 100
-0.80238467 1.4275579 0.02624842 100
-0.80073708 1.4267569 0.078713275 100
-0.80640274 1.4295117 0.13195379 100
-0.79289991 1.4287519 0.0261088 100
-0.80202252 1.4332271 0.078922622 100
-0.80051488 1.4324875 0.13160518 100
-0.79059225 1.4334356 0.0261088 100
-0.80864948 1.4423718 0.07944598 100
-0.80533689 1.4407325 0.13230242 100
-0.79542476 1.4416838 0.02624842 100
-0.80450732 1.4462181 0.079341307 100
-0.80298728 1.4454594 0.13230242 100
-0.8002159 1.4499738 0.026388038 100
-0.78965181 1.4446537 0.07860861 100
-0.8077392 1.4537627 0.13299966 100
-0.80139989 1.4564942 0.026457848 100
-0.80153412 1.4565624 0.07944598 100
-0.80001515 1.4557908 0.13247673 100
-0.79187661 1.4575598 0.02631823 100
-0.80979437 1.4667406 0.080074012 100
-0.79761308 1.460499 0.13247673 100
-0.78248268 1.4583347 0.02617861 100
-0.80747634 1.471246 0.080074012 100
-0.81301743 1.4741083 0.13421984 100
-0.7907123 1.4685256 0.026388038 100
-0.79616398 1.4713659 0.079550654 100
-0.81408519 1.4807031 0.13456847 100
-0.79180628 1.4750617 0.026457848 96
-0.79193956 1.4751316 0.07944598 100
-0.8151235 1.4873137 0.1349171 100
-0.79640466 1.4834864 0.026597468 61
-0.78417557 1.477006 0.079131968 59
-0.80556935 1.488343 0.13421984 89
0.16290188 1.2516251 0.010785587 13
0.13834915 1.2821734 0.03443706 27
0.13428855 1.2872256 0.12898688 17
0.20450714 1.1998601 0.1273223 8
0.11552283 1.3105738 0.18583207 6
0.15701574 1.2622828 0.010995016 25
0.16372478 1.2538786 0.032448292 29
0.1572085 1.2620413 0.055082429 25
0.13883176 1.2850616 0.080921248 13
0.12852016 1.2979786 0.10700117 10
0.14702952 1.2747924 0.12555231 48
0.1998556 1.2086183 0.12957181 16
0.15347514 1.2667181 0.17030293 14
0.15137169 1.2731242 0.011204445 100
0.18534598 1.2302439 0.030773543 96
0.14911619 1.2759709 0.056476921 96
0.15798101 1.2647822 0.077508904 14
0.17462045 1.243781 0.095737889 25
0.16838962 1.2516451 0.11944643 100
0.18573311 1.2297553 0.13542053 30
0.15169924 1.2727107 0.17185585 36
0.15798882 1.2681574 0.011064826 100
0.17575812 1.2455766 0.031715591 100
0.1557247 1.2710345 0.055779677 100
0.15716875 1.2691995 0.077996381 28
0.18596634 1.2326043 0.093234941 26
0.1554198 1.2714219 0.12402584 100
0.1920802 1.2248349 0.13362093 38
0.15456316 1.2725105 0.1713382 43
0.16465461 1.2632196 0.010925206 100
0.18356866 1.2390108 0.03119223 100
0.15747604 1.2724078 0.055779677 100
0.1711351 1.254925 0.07555899 30
0.17542171 1.2494383 0.096363634 25
0.1728856 1.2526845 0.11906482 100
0.18407193 1.2383666 0.13722014 37
0.15394092 1.2769325 0.17237349 42
0.17732546 1.2502761 0.010611063 94
0.18512595 1.2402233 0.03119223 63
0.15914425 1.2737067 0.055779677 73
0.17274526 1.2561786 0.07555899 30
0.16974768 1.2600417 0.098240845 24
0.19013461 1.2337685 0.11410378 75
0.19160041 1.2318795 0.13497064 30
0.14614967 1.2904532 0.1765146 41
0.17542794 1.2563918 0.010715778 53
0.17222846 1.2605463 0.032448292 59
0.16463998 1.2704002 0.055256739 49
0.18785286 1.2402576 0.072877869 47
0.17877793 1.2520417 0.096363634 37
0.17386878 1.2584163 0.11982805 12
0.18972865 1.2378218 0.13632034 22
0.1445238 1.2965217 0.17806751 47
0.17218354 1.2639847 0.010855397 65
0.18356416 1.2491049 0.031610917 30
0.16388068 1.2748405 0.055605363 49
0.18217847 1.2509166 0.074340299 46
0.19357923 1.2360104 0.092922069 53
0.18741757 1.2440667 0.11601187 19
0.20548865 1.2204392 0.13092151 32
0.16387644 1.2748461 0.17030293 58
0.16432452 1.2781086 0.011134636 63
0.17807737 1.25999 0.032238949 30
0.16452903 1.2778392 0.055779677 49
0.18394357 1.2522615 0.074340299 46
0.20364982 1.2262995 0.090731993 54
0.19390544 1.2391372 0.1144854 13
0.20714191 1.2216989 0.13092151 40
0.17507336 1.2639476 0.16616182 68
0.17564139 1.2666103 0.010855397 39
0.18932235 1.2484616 0.031401575 31
0.18540442 1.253659 0.05299069 52
0.1879347 1.2503024 0.073852822 62
0.19089583 1.2463744 0.094486415 52
0.19309956 1.2434509 0.11524864 13
0.20160335 1.2321701 0.13362093 38
0.18020207 1.2605603 0.16460891 69
0.18935862 1.2519039 0.010506349 54
0.1742411 1.2721045 0.032866981 29
0.17635104 1.2692852 0.054559495 50
0.19912863 1.2388488 0.071902916 48
0.18901014 1.2523695 0.095425025 76
0.19710699 1.2415502 0.1144854 13
0.20555398 1.230263 0.13272113 31
0.1796017 1.2649415 0.16564418 68
0.18976581 1.2547022 0.010541254 81
0.19735298 1.2444935 0.030982886 31
0.17563185 1.2737198 0.054908119 50
0.19713295 1.2447896 0.072634131 78
0.19768167 1.2440512 0.093547814 52
0.20452812 1.2348392 0.1125773 13
0.21173191 1.2251464 0.13092151 32
0.18124503 1.266167 0.16564418 68
0.1891709 1.2592379 0.010611063 81
0.20739287 1.2345312 0.030250182 65
0.17866319 1.2734849 0.054733805 75
0.19651899 1.2492748 0.073121607 78
0.20411155 1.2389803 0.092296332 80
0.20623416 1.2361023 0.1125773 13
0.2249693 1.2106998 0.12642249 33
0.17847937 1.2737342 0.16771474 67
0.18370569 1.2701113 0.010820492 91
0.21365583 1.2292197 0.029831495 66
0.18151212 1.2731063 0.054559495 100
0.19576433 1.2536473 0.073609084 93
0.2138392 1.2289692 0.090106249 100
0.20662162 1.2388237 0.11295892 13
0.225281 1.2133474 0.12687239 16
0.1870009 1.2656122 0.16460891 69
0.19486126 1.2584479 0.010541254 81
0.20351562 1.246545 0.030878214 63
0.19147214 1.2631092 0.053339314 100
0.19511998 1.258092 0.07409656 61
0.20266515 1.2477146 0.093547814 100
0.21634191 1.228904 0.1102876 14
0.22797656 1.2129021 0.12642249 8
0.19895765 1.2528138 0.15995017 72
0.20116532 1.2531378 0.010401634 97
0.19808283 1.2574071 0.031506244 93
0.18727779 1.2723721 0.054210871 100
0.20371273 1.2496096 0.072634131 78
0.21003297 1.2408561 0.091983467 93
0.21556702 1.2331914 0.11105084 14
0.24313614 1.195008 0.12102367 8
0.19603717 1.2602403 0.16202073 78
0.19362137 1.2674174 0.010680873 93
0.21499348 1.2375872 0.030145511 98
0.18912151 1.2736982 0.054210871 100
0.2124097 1.2411935 0.071171694 81
0.21176103 1.2420989 0.091983467 100
0.21040645 1.2439896 0.11334054 13
0.24469593 1.1961299 0.12102367 17
0.19558612 1.2646751 0.163056 70
0.19990978 1.262079 0.010541254 95
0.2177037 1.2370682 0.03004084 66
0.19541383 1.2683983 0.053513627 100
0.20131558 1.260103 0.073852822 100
0.21790898 1.2367797 0.090731993 95
0.20742768 1.2515119 0.11486702 20
0.24272162 1.2019036 0.12237337 17
0.19498864 1.268996 0.16409127 69
0.1970154 1.2698318 0.010680873 93
0.21472755 1.2447511 0.030459527 65
0.1994544 1.2663782 0.053165004 100
0.21104434 1.2499666 0.072146654 79
0.21612182 1.2427768 0.091670595 100
0.19891787 1.2671379 0.11830158 52
0.23411375 1.2172999 0.12642249 24
0.19896147 1.2670761 0.163056 70
0.21015605 1.254627 0.010331824 84
0.21401027 1.2491307 0.03066887 96
0.20339021 1.2642753 0.05281638 100
0.2057994 1.2608397 0.073609084 46
0.22336224 1.2357945 0.090106249 96
0.20507714 1.2618697 0.1167751 99
0.22888559 1.2279181 0.1291219 48
0.20948511 1.2555838 0.15891489 81
0.20736614 1.2624352 0.010471444 96
0.22033152 1.2438012 0.030250182 65
0.20065239 1.2720842 0.053513627 100
0.21440336 1.2523212 0.072146654 63
0.21717411 1.2483391 0.092296332 100
0.22033787 1.2437921 0.11219569 100
0.22054902 1.2434887 0.13317102 85
0.20133686 1.2711005 0.16357364 69
0.21127433 1.2602782 0.010401634 97
0.22190452 1.2448919 0.030250182 98
0.20231929 1.2732399 0.053513627 100
0.22051811 1.2468985 0.071171694 81
0.2142708 1.255941 0.093547814 100
0.21856296 1.2497284 0.11334054 96
0.22655177 1.2381654 0.13137141 94
0.208491 1.2643068 0.16098544 72
0.21315935 1.2615752 0.010401634 83
0.23050416 1.2362627 0.029622151 100
0.20650655 1.2712841 0.053165004 100
0.22122958 1.2497977 0.071415432 48
0.22618848 1.2425609 0.090731993 100
0.22595614 1.2428999 0.11143246 91
0.23496097 1.2297585 0.128672 97
0.20602354 1.2719889 0.163056 70
0.21479133 1.2626895 0.010401634 83
0.2309286 1.238971 0.029726824 67
0.21265379 1.2658312 0.052467756 100
0.22393912 1.2492441 0.071171694 65
0.22997969 1.2403656 0.090106249 96
0.22089994 1.253711 0.11372216 100
0.23319873 1.2356343 0.13002171 96
0.21203688 1.2667379 0.16098544 72
0.21315593 1.2688283 0.010506349 40
0.21580175 1.2649101 0.031296901 31
0.22219157 1.2554475 0.051247578 55
0.21339396 1.2684758 0.073852822 93
0.2316235 1.2414799 0.090106249 100
0.23137993 1.2418406 0.11066922 92
0.23046377 1.2431973 0.13182132 94
0.21809736 1.2615106 0.15891489 73
0.22372061 1.256655 0.01022711 42
0.21744478 1.2660156 0.031296901 31
0.21603659 1.268116 0.052467756 53
0.21615428 1.2679405 0.073609084 93
0.22878858 1.249096 0.09135773 94
0.23294634 1.2428946 0.11066922 92
0.23529032 1.2393985 0.13047162 96
0.21757749 1.2658176 0.15995017 72
0.21673405 1.2712259 0.010506349 40
0.22598687 1.2573099 0.03066887 32
0.22015795 1.2660764 0.052119136 54
0.22356424 1.2609534 0.072390392 100
0.23500547 1.243746 0.090106249 96
0.2358515 1.2424736 0.1102876 92
0.23925295 1.2373579 0.12957181 96
0.21627483 1.2719166 0.16150309 70
0.211788 1.2823415 0.010715778 26
0.21440071 1.2783836 0.031924933 30
0.21192604 1.2821324 0.053687938 52
0.23284945 1.2504365 0.070684217 81
0.23984301 1.2398423 0.089167647 84
0.23093045 1.2533435 0.1125773 96
0.24295166 1.2351332 0.128672 97
0.22006968 1.269796 0.1604678 72
0.22462353 1.2668488 0.010366729 27
0.19000527 1.3197107 0.03443706 27
0.22908694 1.2600331 0.051247578 55
0.23243737 1.254917 0.071171694 81
0.24156716 1.2409759 0.089167647 100
0.23915762 1.2446553 0.1102876 85
0.24359089 1.2378857 0.1291219 96
0.22719559 1.2629212 0.15787962 73
0.22845292 1.2645719 0.010296919 28
0.231022 1.2606205 0.03066887 32
0.23071373 1.2610946 0.051247578 55
0.23837528 1.2493104 0.07019674 82
0.2474376 1.2353716 0.087916173 84
0.24501383 1.2390996 0.10876112 87
0.24939302 1.2323639 0.1273223 97
0.233044 1.2575104 0.15580906 75
0.23877016 1.2521945 0.010017681 43
0.24781415 1.2381825 0.029203463 34
0.22910261 1.2671727 0.051770512 54
0.24319595 1.2453376 0.069465525 49
0.24684003 1.2396917 0.08854191 84
0.2412478 1.2483559 0.11066922 100
0.24564397 1.2415448 0.12957181 96
0.23571002 1.2569357 0.15529142 75
0.24037087 1.253224 0.010017681 72
0.2504459 1.2375003 0.029098792 68
0.23612759 1.2598462 0.050898954 83
0.242632 1.2496952 0.069953002 49
0.24413633 1.2473474 0.089793384 83
0.24813169 1.241112 0.10876112 87
0.25141475 1.2359883 0.1277722 89
0.22690403 1.2742411 0.1604678 72
0.2422286 1.2544093 0.010017681 72
0.24902996 1.2437044 0.029412808 67
0.23160005 1.271138 0.051944822 54
0.24660522 1.2475208 0.069465525 49
0.25232747 1.2385144 0.087916173 70
0.24573153 1.2488959 0.1102876 71
0.26052156 1.2256175 0.12462288 83
0.22573459 1.2803696 0.16202073 63
0.23636925 1.267267 0.010262015 84
0.25273344 1.2413212 0.029203463 68
0.23751512 1.2654501 0.051247578 55
0.2481904 1.2485243 0.069465525 66
0.26020554 1.2294741 0.086038955 72
0.23998997 1.2615262 0.11295892 100
0.25579649 1.2364647 0.1273223 97
0.23567346 1.2683702 0.15787962 65
0.24128953 1.2632734 0.0101573 85
0.2533209 1.2440491 0.029308135 100
0.23818949 1.2682269 0.051421888 82
0.24986261 1.2495749 0.069465525 49
0.25761932 1.2371808 0.087290429 71
0.2594136 1.2343138 0.10647142 81
0.2584604 1.235837 0.12687239 90
0.23946473 1.2661891 0.15684435 66
0.25242409 1.249007 0.0098431576 88
0.24857083 1.2552094 0.029936166 99
0.2429975 1.2641809 0.050898954 83
0.24726447 1.2573123 0.070440479 49
0.25708535 1.2415037 0.087916173 70
0.25163087 1.2502837 0.10990598 92
0.25795007 1.2401118 0.1277722 89
0.24315074 1.2639343 0.15580906 67
0.25208372 1.2534993 0.0099129668 87
0.25663757 1.2461088 0.029308135 100
0.24167532 1.2703915 0.051421888 82
0.24488723 1.2651788 0.071415432 96
0.25259802 1.2526647 0.089793384 55
0.25854263 1.243017 0.10799789 72
0.26478645 1.2328837 0.12552269 90
0.23888269 1.2749238 0.15891489 65
0.25160199 1.2578964 0.0099827768 87
0.26655465 1.233448 0.02847076 100
0.24229684 1.2731109 0.051596198 100
0.25999549 1.2441727 0.068246834 34
0.26656815 1.233426 0.086038955 72
0.25294244 1.2557048 0.11066922 92
0.2714068 1.2255147 0.12327318 85
0.23652697 1.282545 0.16098544 64
0.25555119 1.2556188 0.0099129668 87
0.26005203 1.2481958 0.029308135 100
0.25042894 1.2640666 0.05055033 84
0.2566722 1.2537699 0.069465525 49
0.26834968 1.2345109 0.086038955 58
0.25989911 1.248448 0.10876112 72
0.2691164 1.2332463 0.12507279 100
0.25658795 1.2539089 -0.0098780617 76
0.24851346 1.2672257 0.15580906 67
0.25716317 1.2565925 0.0099129668 87
0.26163939 1.2491546 0.029308135 100
0.25309631 1.2633502 0.05037602 84
0.25827807 1.25474 0.069465525 49
0.26887304 1.2371348 0.086351827 58
0.26047495 1.2510895 0.10914274 85
0.27165899 1.2325056 0.12462288 92
0.25215626 1.2649122 0.15477379 67
0.26091373 1.2541778 0.0098431576 88
0.25307491 1.2673068 0.030354854 97
0.24971333 1.2729369 0.051247578 82
0.26404247 1.2489377 0.068490572 50
0.27151799 1.2364173 0.086038955 58
0.26416895 1.2487259 0.10837951 94
0.2722761 1.2351475 0.12507279 83
0.25586635 1.2626315 0.15373851 68
0.25640434 1.2654558 0.010052586 86
0.26898029 1.2442334 0.028889447 100
0.25138277 1.27393 0.051247578 82
0.26765624 1.2464678 0.068003096 51
0.2720592 1.2390375 0.086351827 58
0.26876059 1.2446041 0.10723466 73
0.27978083 1.226007 0.12237337 93
0.25356221 1.270252 0.15580906 67
0.26430094 1.2561842 0.0098431576 88
0.27274409 1.2418163 0.028680105 100
0.24919412 1.2818921 0.051944822 81
0.2653816 1.2543453 0.068978049 50
0.27478096 1.23835 0.086038955 58
0.2635394 1.2574803 0.10990598 78
0.28639051 1.2185936 0.12012386 86
0.25735521 1.2680041 0.15477379 67
0.26591477 1.257129 0.0098431576 88
0.27028555 1.2496343 0.029098792 100
0.26695269 1.2553493 0.049155839 87
0.26698929 1.2552865 0.068978049 50
0.27932101 1.2341409 0.085100345 58
0.26317945 1.2618194 0.11066922 78
0.28886127 1.217782 0.11967396 70
0.26389998 1.2605839 -0.0099129668 87
0.26290113 1.2622966 0.15270324 68
0.26961961 1.2546558 0.0097733475 89
0.26796094 1.2575229 0.029517479 100
0.27363709 1.2477114 0.048284281 88
0.2627207 1.2665811 0.070440479 49
0.281932 1.233373 0.084787481 59
0.2678473 1.2577194 0.10952436 85
0.27969167 1.2372457 0.12462288 92
0.26849085 1.2566071 0.15063268 70
0.27023271 1.2573172 0.0098082526 74
0.27355677 1.2515271 0.029098792 100
0.26827893 1.2607204 0.049504463 86
0.26931074 1.2589232 0.069221787 83
0.28543708 1.2308332 0.084161744 59
0.27728593 1.2450314 0.10647142 73
0.2860938 1.2296894 0.12237337 68
0.26525465 1.2659883 -0.0099827768 86
0.26529688 1.2659148 0.15322088 76
0.27696696 1.24965 0.0096337283 90
0.27334741 1.2560086 0.029308135 100
0.26416558 1.2721388 0.05055033 84
0.27601475 1.2513227 0.068003096 51
0.27833292 1.2472503 0.086977564 57
0.27417272 1.2545588 0.10837951 87
0.28681639 1.232347 0.12282328 85
0.26233795 1.2753494 0.15580906 67
0.27265814 1.2609996 0.0098431576 88
0.27692518 1.2534454 0.029098792 100
0.26681221 1.2713491 0.05037602 84
0.27761236 1.2522287 0.068003096 51
0.28477463 1.2395488 0.085413218 58
0.27288443 1.2605989 0.10952436 85
0.29410154 1.2230366 0.12012386 86
0.2687242 1.2679641 -0.0099827768 86
0.26401535 1.2763007 0.15580906 67
0.27063832 1.2690405 0.0099827768 87
0.28658828 1.2405481 0.028261416 100
0.26679289 1.2759098 0.05072464 84
0.27558738 1.2601997 0.068978049 50
0.29043916 1.233669 0.084161744 74
0.28052416 1.2513808 0.10723466 81
0.29393917 1.2274168 0.12102367 86
0.27552226 1.2603159 -0.0098082526 88
0.2716234 1.2672808 0.15270324 68
0.28491771 1.2472384 0.0095290141 76
0.28427085 1.2484031 0.028680105 100
0.28685364 1.2437531 0.047412723 90
0.27914226 1.2576363 0.068490572 50
0.2900598 1.237981 0.084787481 59
0.28688848 1.2436905 0.10532656 90
0.29356492 1.2316705 0.12192347 85
0.27326575 1.268216 -0.0099478718 86
0.28077841 1.2546906 0.14856213 79
0.2856203 1.2499124 0.0095639192 91
0.28208756 1.2563251 0.029098792 100
0.27312714 1.2725904 0.050201707 85
0.28084609 1.2585788 0.068490572 50
0.29169494 1.2388854 0.084787481 59
0.29043818 1.2411668 0.10456333 82
0.29141679 1.2393904 0.12372308 75
0.27687901 1.26578 0.15166797 69
0.2833769 1.2578052 0.0097035384 90
0.28753337 1.2502007 0.028680105 100
0.28148431 1.2612679 0.048981529 87
0.28818017 1.2490172 0.067028143 51
0.29230383 1.2414727 0.085100345 58
0.28541085 1.254084 0.10723466 81
0.27296534 1.2768538 0.15477379 67
0.28525189 1.2588254 0.0097035384 90
0.29128149 1.2476925 0.02847076 100
0.27862835 1.271055 0.049853086 85
0.2852945 1.2587467 0.068246834 68
0.29599756 1.2389848 0.084474608 59
0.28633657 1.2568227 0.10761628 79
0.27858558 1.2711339 -0.0099478718 86
0.27859366 1.2711191 0.15270324 68
0.28214189 1.2685082 0.0098780617 73
0.29664835 1.2415104 0.028052073 100
0.29160786 1.2508912 0.047761347 90
0.28409797 1.2648678 0.068978049 50
0.28888163 1.2559649 0.10723466 81
0.28687435 1.2597007 -0.0097035384 89
0.28574321 1.2618058 0.14959741 70
0.29243109 1.2536019 0.0095639192 91
0.29837823 1.2424357 0.028052073 100
0.28775254 1.2623861 0.048807215 88
0.29151252 1.2553265 0.067515619 68
0.29343325 1.2517203 0.1060898 73
0.28303078 1.2712516 -0.0099129668 87
0.28573126 1.2661812 0.15063268 70
0.29777288 1.247381 0.0094242999 93
0.29061592 1.2609268 0.029098792 100
0.29404062 1.254445 0.047935657 89
0.29312336 1.256181 0.067515619 51
0.29807183 1.2468152 0.085413218 58
0.29594925 1.2508326 0.10570818 73
0.2828261 1.2756703 -0.0099827768 86
0.28918308 1.2636386 0.14959741 70
0.29612321 1.2547969 0.028680105 100
0.29212072 1.26244 0.048632905 88
0.29674885 1.2536021 0.067028143 51
0.28468126 1.2766461 -0.0099827768 86
0.28561682 1.2748597 0.15270324 68
0.29465911 1.2615521 0.0096686333 75
0.29467356 1.2615243 0.048458595 59
0.29652378 1.2579625 0.067515619 51
0.29840726 1.2543367 0.1060898 73
0.28729245 1.2757336 0.15270324 68
0.2982077 1.2588849 0.0095988233 76
0.29639086 1.2624125 0.048458595 59
0.28905162 1.2766626 -0.0099478718 100
0.29613575 1.262908 0.14856213 71
0.29164293 1.2757443 -0.0099129668 100
0.29952937 1.2603064 0.14752686 71
0.29169196 1.280256 -0.0099827768 100
0.29689074 1.2741282 0.15115032 77
0.29796606 1.2766085 0.049504463 57
0.29882327 1.2748854 -0.0098431576 100
0.29960063 1.2733228 0.15063268 78
