# .PCD v0.7 - Point Cloud Data file format
VERSION 0.7
FIELDS x y z intensity
SIZE 4 4 4 4
TYPE F F F F
COUNT 1 1 1 1
WIDTH 773
HEIGHT 1
VIEWPOINT 0 0 0 1 0 0 0
POINTS 773
DATA ascii
-1.1106972 0.14760676 0.058720943 23
-1.12738 0.15383053 0.019860838 25
-1.1704046 0.16386475 0.020628745 22
-1.1215074 0.15701881 0.059348974 29
-1.1698254 0.16794923 0.020628745 32
-1.0445931 0.15369326 0.018429741 6
-1.0302087 0.1552527 0.018185407 5
-1.001992 0.15457939 0.01769674 1
-0.41923714 1.0146315 0.019162742 1
-0.44011036 1.0752375 0.020279696 1
-0.4363544 1.0767672 0.020279696 1
-0.43259311 1.0782838 0.020279696 1
-0.4052079 1.0203153 0.019162742 1
-0.41627568 1.0589448 0.019860838 1
-0.41692731 1.071573 0.020070268 1
-0.39432234 1.0245714 0.019162742 1
-0.39074352 1.0259416 0.019162742 1
-0.40427208 1.0721381 0.020000458 1
-0.39773116 1.0660485 0.019860838 1
-0.38015839 1.0299108 0.019162742 1
-0.37656102 1.0312316 0.019162742 1
-0.37313926 1.0324746 0.019162742 1
-0.369533 1.0337708 0.019162742 1
-0.35490701 1.0050129 0.018604266 1
-0.35403383 1.0137972 0.018743884 1
-0.35476723 1.0262442 0.018953314 1
-0.34859583 1.0199074 0.018813694 1
-0.34759411 1.0286958 0.018953314 2
-0.34780228 1.041283 0.019162742 1
-0.34398344 1.0425508 0.019162742 1
0.091348916 0.0063745379 0.046683673 21
0.051588893 0.0016336441 0.015986403 100
0.053283036 0.0042454004 0.047835063 50
0.051838875 0.0075687766 0.047730394 32
0.045270741 0.0033738017 0.016021309 8
0.043689072 0.00097149611 0.048253752 100
0.044187069 0.0078247786 0.047939736 100
0.044860244 0.014575839 0.047625721 77
0.040126562 0.012941957 0.047835063 37
0.036365569 0.013073683 0.047939736 27
0.031472027 0.011573732 0.048149079 17
0.034492731 0.021612346 0.047625721 9
0.031883478 0.0234164 0.047625721 9
0.024702847 0.018682063 0.04804441 9
0.019783139 0.017254531 0.048253752 8
-0.8874734 0.56669688 0.025340894 4
-0.82874554 0.57990944 0.024293751 43
-0.84196764 0.58822668 0.024503179 100
-0.83661169 0.59360069 0.024398465 91
-0.81538862 0.60114169 0.024014512 73
-0.81197029 0.60614812 0.023944702 69
-0.8224929 0.60998327 0.024119226 60
-0.82701725 0.61432582 0.024189034 33
-1.0253789 1.1290741 0.084679574 5
-1.0331933 1.1308552 0.14206386 6
-0.36370933 0.98145038 0.016370358 3
-1.0086129 1.1306938 0.083842203 11
-1.0222826 1.1338573 0.1411923 19
-0.30262035 0.97045135 0.015288308 11
-1.0015116 1.1347609 0.083528183 78
-1.0287609 1.1411673 0.14188954 68
-0.2961157 0.97188532 0.015183593 16
-1.0002935 1.1399039 0.083528183 100
-1.0217075 1.1450133 0.14136662 100
-0.30505073 0.97749054 0.015358117 96
-0.99303895 1.1444409 0.083214171 100
-0.99895781 1.1458771 0.13944919 91
-0.29076594 0.97697878 0.015113784 46
-0.98791009 1.1486008 0.083004825 99
-0.9938336 1.1500591 0.13910057 91
-0.28421819 0.97845793 0.01500907 90
-0.99045449 1.1549352 0.083214171 61
-0.99056453 1.1549628 0.13892625 85
-0.31066024 0.98810017 0.015497737 61
-0.98142534 1.158079 0.082795486 35
-1.0008676 1.1630058 0.13997212 66
-0.29823542 0.98826331 0.015288308 66
-0.9780584 1.1631917 0.082690813 43
-0.99362808 1.1671979 0.13944919 89
-0.28783226 0.98855126 0.015113784 51
-0.9709484 1.1667444 0.082376793 90
-0.98073512 1.1692972 0.13840333 92
-0.27156091 0.987526 0.014834546 50
-0.96369177 1.1707826 0.082062781 92
-0.97155732 1.1728652 0.13770607 99
-0.27083504 0.99024922 0.014834546 50
-0.96235448 1.1758 0.082062781 96
-0.970213 1.1779087 0.13770607 100
-0.27584994 0.99468803 0.01493926 49
-0.94936556 1.1779306 0.081434749 100
-0.96493489 1.1821666 0.13735744 100
-0.27895588 0.99848813 0.01500907 48
-0.94415361 1.181839 0.081225403 100
-0.96740121 1.1882468 0.13770607 92
-0.28003871 1.0020633 0.015043974 47
-0.9407106 1.1867748 0.081120729 92
-0.95626408 1.1911232 0.13683452 94
-0.27926463 1.0048145 0.015043974 47
-0.94124204 1.19226 0.081225403 84
-0.94335717 1.1928589 0.13578865 100
-0.2706691 1.0057882 0.014904355 55
-0.93385094 1.1963284 0.08091139 52
-0.94363743 1.1991401 0.13596296 100
-0.2775631 1.0107425 0.015043974 52
-0.91325134 1.1956677 0.079864666 23
-0.9555977 1.2079866 0.13718314 87
-0.28051126 1.0149053 0.015113784 51
-0.91168135 1.201028 0.079864666 27
-0.95780438 1.2146289 0.13753176 84
-0.27969456 1.017658 0.015113784 51
-0.92364079 1.2098715 0.080597371 28
-0.93341178 1.2127881 0.13544002 98
-0.2730391 1.0189605 0.01500907 60
-0.93157715 1.2181611 0.081120729 64
-0.92987186 1.2176453 0.13526571 99
-0.26264846 1.0187618 0.014834546 56
-0.91862422 1.2195641 0.080492698 100
-0.92456907 1.2213838 0.1349171 100
-0.26941538 1.0239649 0.014974165 54
-0.91323048 1.2235053 0.080283359 86
-0.92298442 1.2265284 0.1349171 84
-0.26852387 1.0268236 0.014974165 60
-0.89829892 1.2244246 0.079550654 76
-0.92138189 1.2316673 0.1349171 52
-0.27143419 1.0308899 0.015043974 58
-0.91193241 1.234314 0.080388032 66
-0.90457004 1.2319757 0.1335226 46
-0.26290351 1.0313078 0.014904355 55
-0.89889413 1.235747 0.07976 85
-0.89725822 1.2352211 0.13299966 48
-0.25818318 1.0329065 0.014834546 68
-0.89915878 1.2414196 0.079864666 100
-0.90888816 1.2445846 0.13421984 57
-0.25726056 1.0357261 0.014834546 62
-0.8937102 1.2452263 0.079655327 100
-0.91668504 1.2527889 0.13509139 78
-0.26771152 1.0423335 0.015043974 64
-0.88256782 1.2471074 0.079131968 100
-0.91121024 1.2566465 0.13474278 82
-0.27433604 1.0477401 0.015183593 61
-0.88846463 1.2546558 0.079550654 100
-0.89439791 1.256655 0.13334829 84
-0.26200479 1.0467453 0.014974165 54
-0.89054495 1.2609627 0.07976 100
-0.89834791 1.263622 0.13387123 89
-0.24969071 1.0456679 0.014764735 63
-0.88315779 1.2640355 0.07944598 100
-0.88343078 1.2641295 0.13265105 100
-0.25250006 1.0497742 0.014834546 62
-0.86256522 1.2624602 0.078399263 100
-0.90427321 1.2770008 0.13474278 71
-0.26849186 1.0585576 0.015148689 86
-0.85141951 1.2640676 0.077875905 65
-0.90625268 1.2833989 0.13509139 40
-0.26941419 1.0619414 0.015183593 95
-0.84977335 1.2687122 0.077875905 29
-0.89140433 1.2835445 0.13387123 36
-0.25522065 1.060056 0.01493926 100
-0.8611775 1.2783334 0.07860861 25
-0.86710912 1.2804701 0.13177948 28
-0.2429294 1.0587595 0.014729831 100
-0.86127108 1.2839396 0.078713275 72
-0.87655133 1.2895042 0.13282534 16
-0.25505263 1.0663612 0.014974165 96
-0.84634846 1.2840329 0.077980578 100
-0.87285954 1.2937922 0.13265105 13
-0.26525819 1.0733538 0.015183593 100
-0.83705825 1.2861179 0.077561885 100
-0.89529747 1.3077885 0.1349171 1
-0.26606601 1.0769017 0.015218498 37
-0.82963985 1.2888473 0.077247873 42
-0.88968176 1.3114276 0.13456847 1
-0.25377434 1.0754857 0.01500907 77
-0.8390221 1.2979174 0.077875905 51
-0.83749789 1.2973381 0.12986206 7
-0.23963583 1.0732709 0.014764735 58
-0.84276432 1.304911 0.078189917 57
-0.86354762 1.3128932 0.13247673 41
-0.24602932 1.0789193 0.014904355 51
-0.82785493 1.3047113 0.077457212 72
-0.85049945 1.3134992 0.13143086 90
-0.25239295 1.0846159 0.015043974 50
-0.82412058 1.3087887 0.077352546 61
-0.85972315 1.3227483 0.13247673 100
-0.25692308 1.0894835 0.015148689 58
-0.82604033 1.3148129 0.077561885 74
-0.83565265 1.3186187 0.130385 97
-0.24466282 1.0878425 0.01493926 57
-0.82783908 1.3210963 0.077771232 97
-0.82262975 1.3190126 0.12933913 99
-0.24169439 1.0898653 0.014904355 60
-0.82405514 1.3251543 0.077666558 95
-0.83363611 1.3290253 0.1305593 100
-0.24618411 1.0947546 0.01500907 76
-0.82035726 1.3289535 0.077561885 100
-0.83177477 1.3336105 0.1305593 100
-0.79362875 1.3180511 0.17817298 22
-0.24695188 1.0981544 0.015043974 126
-0.79633433 1.3243692 0.076305822 100
-0.8280558 1.337431 0.130385 100
-0.76977712 1.3134339 0.17524812 16
-0.25139892 1.1030979 0.015148689 141
-0.79448861 1.3288307 0.076305822 100
-0.81512779 1.3374094 0.12933913 100
-0.77529997 1.3208551 0.17622307 16
-0.24464154 1.1037102 0.015043974 149
-0.79611427 1.3353014 0.076515168 100
-0.80201715 1.3377804 0.12829325 100
-0.80804688 1.3403126 0.18085411 28
-0.23248369 1.1016612 0.014834546 154
-0.79423231 1.3397622 0.076515168 85
-0.80929893 1.3461484 0.12916481 100
-0.76776665 1.3285446 0.17573559 22
-0.22574806 1.1021656 0.014729831 155
-0.80682319 1.3509746 0.077352546 40
-0.81084114 1.352695 0.12951343 48
-0.77300996 1.3364962 0.17671055 11
-0.24483436 1.1134615 0.015113784 157
-0.8085559 1.3570553 0.077561885 72
-0.83084863 1.3666884 0.13160518 33
-0.79663545 1.3519043 0.18012288 12
-0.24173748 1.1155725 0.015078879 156
-0.80090362 1.3596338 0.077247873 100
-0.80491406 1.3613842 0.12933913 93
-0.79267436 1.3560419 0.17987914 26
-0.22960681 1.11336 0.014869451 145
-0.8062523 1.3673304 0.077666558 100
-0.81935591 1.3731016 0.13090792 100
-0.78709012 1.3588909 0.17939167 31
-0.22286177 1.113777 0.014764735 140
-0.8150031 1.3771677 0.07829459 100
-0.80257279 1.3716385 0.12951343 100
-0.78855032 1.3654013 0.17987914 38
-0.23813707 1.1237069 0.015078879 130
-0.80751556 1.3792375 0.077980578 100
-0.80784124 1.3793836 0.13021068 100
-0.75034708 1.353581 0.17500438 20
-0.23143303 1.1239805 0.014974165 97
-0.79446489 1.3790276 0.077352546 100
-0.80933553 1.3857639 0.1305593 100
-0.78085011 1.3728604 0.17939167 17
-0.23752999 1.1298945 0.015113784 73
-0.8069703 1.390124 0.078189917 100
-0.80003756 1.3869557 0.12986206 100
-0.77523261 1.3756201 0.17890419 15
-0.23257416 1.1311029 0.015043974 113
-0.8119424 1.3984406 0.07860861 100
-0.79957634 1.3927345 0.13003637 100
-0.77841145 1.3829684 0.17963541 12
-0.22412068 1.1303207 0.014904355 60
-0.81166166 1.4037963 0.078713275 100
-0.80472904 1.4005694 0.13073361 100
-0.77097231 1.3848572 0.17890419 8
-0.2264145 1.1348565 0.014974165 58
-0.79848379 1.403686 0.078085244 100
-0.80781847 1.4080727 0.13125655 100
-0.75613362 1.3837848 0.17719802 7
-0.23423529 1.1417116 0.015148689 56
-0.80178934 1.4107206 0.078399263 100
-0.80929583 1.4142785 0.13160518 100
-0.78817326 1.4042668 0.18182907 3
-0.22739118 1.1421299 0.015043974 54
-0.79751772 1.4150441 0.07829459 100
-0.79962355 1.4160521 0.13090792 100
-0.22435206 1.1438363 0.01500907 41
-0.80796164 1.4255874 0.079027295 100
-0.79747373 1.4205241 0.13090792 100
-0.21944684 1.1447856 0.01493926 100
-0.80925614 1.4320726 0.079236634 100
-0.80952448 1.4322034 0.13230242 100
-0.21640491 1.1464536 0.014904355 100
-0.79988247 1.4330543 0.078817949 100
-0.80732101 1.4367081 0.13230242 100
-0.22935295 1.1563656 0.015183593 78
-0.79744321 1.4379975 0.078817949 100
-0.80665332 1.4425634 0.13247673 100
-0.35506231 1.2224314 0.017661836 57
-0.80236655 1.4460342 0.079236634 100
-0.8061977 1.4479494 0.13265105 100
-0.55157429 1.3257215 0.02153627 32
-0.8070125 1.4545847 0.079655327 100
-0.80014616 1.4511209 0.13230242 100
-0.31972176 1.2125719 0.017033549 55
-0.81173474 1.4629407 0.080074012 100
-0.80486315 1.4594439 0.13299966 100
-0.22921956 1.1699488 0.015288308 99
-0.80220014 1.4640417 0.079655327 100
-0.80953842 1.4678082 0.13369691 100
-0.26866311 1.1938109 0.016091119 100
-0.79622191 1.4669211 0.07944598 100
-0.81417173 1.4762135 0.13439415 100
-0.22647917 1.1752435 0.015288308 71
-0.79921526 1.4741538 0.07976 100
-0.80299085 1.4761243 0.1335226 100
-0.24806398 1.1900597 0.015742071 100
-0.79144686 1.4760683 0.07944598 100
-0.80404395 1.4826987 0.13387123 100
-0.22893 1.1834671 0.015393022 80
-0.78897411 1.4807465 0.07944598 40
-0.79802829 1.4855525 0.1335226 90
-0.23277098 1.1890148 0.015497737 113
-0.22602451 1.188895 0.015393022 130
0.15063483 1.2674208 0.011134636 12
0.13861737 1.2823889 0.03443706 27
0.13088891 1.2920148 0.05856866 22
0.099839956 1.3306873 0.11388429 9
0.13455942 1.2874432 0.12898688 17
0.20473224 1.2000409 0.1273223 8
0.1061303 1.3228525 0.18997318 5
0.15985245 1.2594298 0.010925206 39
0.1665526 1.2510246 0.032238949 60
0.16003597 1.2591996 0.054733805 50
0.15403995 1.2667215 0.077996381 14
0.16582844 1.2519331 0.097615108 12
0.14615825 1.2766087 0.12593393 66
0.19773248 1.2119102 0.13047162 16
0.15623036 1.2639736 0.16926765 14
0.16032225 1.2623566 0.010960111 100
0.17319202 1.2460958 0.03182026 91
0.1605095 1.2621201 0.054908119 100
0.16686377 1.2540915 0.075802729 30
0.17732039 1.2408795 0.095112152 25
0.16133147 1.2610815 0.12173614 100
0.18597388 1.2299459 0.13542053 38
0.15915596 1.2638303 0.16875002 36
0.170692 1.2527075 0.010715778 100
0.17362216 1.2489786 0.031924933 100
0.15115052 1.277576 0.056476921 100
0.16855592 1.2554259 0.075802729 30
0.17408434 1.2483904 0.096363634 25
0.17153916 1.2516295 0.11906482 100
0.18517351 1.2342783 0.13632034 45
0.15491408 1.2727866 0.1713382 43
0.17237926 1.2540287 0.010715778 100
0.17652494 1.2487148 0.03182026 91
0.1578269 1.2726817 0.055779677 100
0.17513689 1.250494 0.074827775 30
0.18061683 1.2434698 0.095112152 25
0.16839218 1.2591393 0.12059128 100
0.19159114 1.2294031 0.13452072 31
0.1447885 1.2893941 0.1765146 41
0.17031205 1.2600204 0.010820492 91
0.16832802 1.2625809 0.032657638 59
0.15461469 1.2802792 0.056476921 72
0.16822135 1.2627186 0.076533951 29
0.16525027 1.266553 0.099492319 24
0.18805352 1.2371235 0.11486702 47
0.18953577 1.2352104 0.13587044 30
0.14414659 1.2937891 0.17754987 40
0.17812121 1.2534178 0.010645968 66
0.17370313 1.259161 0.032343622 60
0.17097616 1.2627059 0.054385185 51
0.18083692 1.2498876 0.074340299 46
0.19107485 1.2365789 0.093234941 39
0.17771575 1.2539449 0.1186832 13
0.18522084 1.2441888 0.13811995 22
0.15304488 1.2860154 0.17444403 56
0.18466586 1.2483561 0.010506349 54
0.16571486 1.2731699 0.033180997 28
0.15939602 1.2814436 0.056302611 48
0.17167044 1.2653718 0.076533951 88
0.18910876 1.2425387 0.094173551 52
0.18894023 1.2427595 0.11563025 20
0.20107198 1.2268745 0.13272113 31
0.17360944 1.262833 0.16616182 68
0.17425606 1.265563 0.010855397 39
0.16264677 1.2808743 0.033599682 28
0.17803639 1.2605771 0.053862248 51
0.193791 1.2397987 0.072390392 47
0.19314742 1.2406474 0.093547814 52
0.20126814 1.2299371 0.11219569 14
0.20266888 1.2280897 0.13272113 39
0.1788336 1.2595257 0.16460891 69
0.17117774 1.2732621 0.010995016 38
0.17163929 1.272649 0.032971654 29
0.17495823 1.2682397 0.054559495 50
0.19543305 1.2410392 0.072390392 47
0.1995444 1.2355773 0.092296332 66
0.19815296 1.2374258 0.11372216 13
0.21364576 1.2168437 0.1291219 48
0.18054464 1.2608182 0.16460891 69
0.18011892 1.2649703 0.010785587 52
0.18535185 1.2579677 0.031924933 30
0.17908499 1.266354 0.054210871 51
0.19113803 1.2502247 0.073609084 77
0.20353663 1.233633 0.091670595 54
0.2091884 1.2260699 0.11066922 14
0.21287453 1.2211372 0.13002171 40
0.1695396 1.2791275 0.17030293 65
0.17827466 1.2710764 0.010890301 78
0.19419724 1.2496133 0.031296901 31
0.18675524 1.2596449 0.053339314 52
0.19281653 1.2514744 0.073609084 77
0.20044938 1.2411855 0.092922069 79
0.19440645 1.2493312 0.11601187 13
0.21677348 1.2191811 0.1291219 32
0.18628219 1.2602825 0.16357364 69
0.18476927 1.2659304 0.010750682 79
0.20179543 1.2428113 0.030773543 64
0.18019626 1.2721398 0.054559495 76
0.19214505 1.2559152 0.07409656 76
0.2067818 1.2360405 0.091670595 81
0.21238065 1.2284381 0.11066922 14
0.21603227 1.2234797 0.13002171 24
0.19028696 1.2584381 0.16253836 70
0.19813657 1.2509365 0.010401634 83
0.19856527 1.2503505 0.03119223 63
0.18530491 1.2684752 0.054036561 77
0.20070612 1.2474244 0.072634131 78
0.20241567 1.2450877 0.093234941 92
0.21730024 1.2247431 0.10952436 14
0.23011583 1.2072264 0.12507279 16
0.18726045 1.2658023 0.16460891 69
0.1974673 1.2553978 0.010471444 82
0.20728621 1.2418783 0.030564198 64
0.1847055 1.2729692 0.054385185 76
0.20004171 1.2518531 0.073121607 62
0.20291534 1.2478964 0.093547814 100
0.20158419 1.2497293 0.11524864 13
0.23622465 1.2020333 0.12327318 17
0.19012856 1.2655023 0.16409127 69
0.19924873 1.2566867 0.010471444 82
0.22303098 1.2236874 0.029308135 68
0.19004613 1.2694557 0.053862248 100
0.20181015 1.2531326 0.073121607 78
0.210444 1.2411525 0.091983467 100
0.21597135 1.2334831 0.11105084 14
0.24578589 1.1921138 0.12012386 8
0.19420612 1.2636836 0.163056 70
0.19629571 1.2644135 0.010611063 81
0.21531999 1.237821 0.030145511 65
0.18947324 1.27395 0.054210871 100
0.20811874 1.247887 0.072146654 79
0.21324006 1.2407284 0.091670595 100
0.20502597 1.2522101 0.11524864 20
0.23138726 1.215362 0.12642249 16
0.1981796 1.2617801 0.16202073 70
0.20265496 1.2591234 0.010471444 96
0.21695504 1.2389865 0.030145511 65
0.20046324 1.2622098 0.05281638 100
0.19944468 1.2636441 0.074340299 61
0.21259779 1.2451222 0.092296332 100
0.20557457 1.255012 0.11563025 20
0.22278899 1.2307712 0.13047162 16
0.20325398 1.2582799 0.1604678 80
0.21358138 1.2472574 0.010192205 85
0.2185941 1.2401462 0.030145511 65
0.19759187 1.2699407 0.053513627 100
0.20917591 1.2535071 0.072634131 63
0.21425831 1.2462971 0.092296332 100
0.20613855 1.2578161 0.11601187 53
0.22327662 1.2335033 0.13092151 32
0.1971693 1.2705402 0.16409127 69
0.20599234 1.2614764 0.010471444 82
0.21786442 1.2445151 0.030354854 65
0.19696668 1.2743711 0.053862248 100
0.21533442 1.2481296 0.071659178 64
0.22037062 1.2409345 0.091044858 100
0.20663232 1.2605621 0.11639348 100
0.23263773 1.2234087 0.1277722 56
0.20658562 1.2606288 0.1604678 72
0.20999193 1.2593898 0.010401634 97
0.21382493 1.2538728 0.030878214 95
0.20100299 1.2723279 0.053513627 100
0.21360755 1.2541857 0.072390392 100
0.22990611 1.2307262 0.088854775 98
0.21842834 1.2472467 0.11295892 89
0.23533425 1.2229133 0.1273223 89
0.19948226 1.2745168 0.16460891 69
0.20489094 1.2704508 0.010611063 81
0.2234529 1.2435337 0.030145511 65
0.20502073 1.2702627 0.053165004 100
0.22093439 1.2471859 0.071171694 65
0.2259092 1.2399719 0.090419121 100
0.21563813 1.2548661 0.1144854 87
0.23138565 1.2320303 0.12957181 96
0.20672905 1.2677854 0.16202073 70
0.21341679 1.2617514 0.010401634 97
0.22510785 1.2446707 0.030145511 65
0.21127048 1.2648873 0.052467756 100
0.20242003 1.2778178 0.07555899 90
0.22866744 1.2394701 0.090106249 100
0.22287712 1.2479298 0.1125773 100
0.23740312 1.2267072 0.1277722 81
0.21065104 1.2657923 0.16098544 72
0.21401167 1.2645775 0.010436539 55
0.2233997 1.2507582 0.030459527 65
0.21411961 1.2644186 0.052293446 80
0.22650477 1.2461874 0.070684217 98
0.23141819 1.238955 0.089793384 100
0.22675386 1.2458209 0.11181407 100
0.22366822 1.2503629 0.13407083 93
0.21672609 1.2605819 0.15891489 73
0.21350425 1.2690634 0.010506349 40
0.21726391 1.2634873 0.03119223 31
0.21807519 1.262284 0.051944822 81
0.23149824 1.2423761 0.069953002 99
0.23305708 1.2400641 0.089793384 100
0.23061186 1.2436907 0.11105084 98
0.23515195 1.2369572 0.13002171 96
0.21520057 1.2665474 0.1604678 72
0.21524835 1.2702348 0.010506349 40
0.20788077 1.2812446 0.032238949 30
0.20982298 1.2783422 0.053513627 52
0.22210899 1.2599827 0.072390392 95
0.23799565 1.2362425 0.088854775 98
0.23226729 1.2448027 0.11105084 91
0.24111903 1.2315751 0.12822211 97
0.2158615 1.2693186 0.16098544 72
0.22142184 1.2647371 0.010366729 41
0.22292712 1.2624707 0.030982886 31
0.21380407 1.2762072 0.053165004 52
0.23260731 1.2478954 0.070440479 98
0.23962504 1.2373288 0.088854775 98
0.2306681 1.2508152 0.11219569 100
0.24057585 1.2358972 0.1291219 96
0.21867526 1.2688727 0.1604678 72
0.22746742 1.2591463 0.01022711 42
0.20257297 1.2969007 0.033076324 29
0.22535551 1.2623492 0.051596198 54
0.23528656 1.247288 0.07019674 66
0.23900166 1.2416537 0.089480512 97
0.24091017 1.2387593 0.10914274 85
0.24104977 1.2385476 0.12957181 96
0.22352174 1.2651303 0.15891489 73
0.23246172 1.2552494 0.010122396 28
0.21535057 1.2813979 0.032029606 30
0.23362187 1.2534765 0.05055033 56
0.22934577 1.260011 0.071902916 100
0.24064994 1.2427365 0.089480512 97
0.24792334 1.2316215 0.10723466 95
0.24695542 1.2331007 0.1277722 81
0.22736767 1.2630339 0.15787962 73
0.23089015 1.2613862 0.01022711 42
0.23019114 1.2624624 0.030773543 32
0.21903443 1.2796423 0.053165004 52
0.2386263 1.2494735 0.07019674 82
0.24015024 1.2471268 0.090106249 96
0.23777464 1.2507849 0.11143246 100
0.24857378 1.2341557 0.1277722 97
0.22172552 1.2754984 0.16150309 70
0.23260733 1.2624969 0.01022711 42
0.25138688 1.2333568 0.028889447 34
0.22405332 1.2757702 0.05264207 53
0.24567857 1.2422144 0.068978049 50
0.247168 1.2399032 0.08854191 98
0.2405183 1.2502216 0.11105084 84
0.25441843 1.2286528 0.12597258 99
0.22349206 1.2766411 0.16150309 70
0.23648319 1.2602326 0.0101573 42
0.24116939 1.2529049 0.03004084 66
0.23870206 1.256763 0.05055033 84
0.24625924 1.2449462 0.069221787 67
0.25093865 1.2376292 0.087916173 56
0.24642745 1.2446831 0.10952436 85
0.2549713 1.2313235 0.12642249 82
0.23775244 1.2582479 0.15529142 75
0.23498183 1.2663891 0.010262015 84
0.24499732 1.2506074 0.029831495 99
0.23826793 1.2612112 0.050898954 55
0.25217363 1.2392993 0.068246834 68
0.25680667 1.2319988 0.086664692 71
0.24177447 1.2556857 0.11181407 98
0.25553924 1.2339959 0.12687239 90
0.23738837 1.2625971 0.1563267 74
0.24613848 1.2521505 0.0099478718 73
0.24437892 1.2549425 0.03004084 99
0.23025209 1.2773583 0.052467756 80
0.24412391 1.2553473 0.070440479 49
0.25194022 1.2429447 0.08854191 84
0.25795633 1.2333987 0.10647142 88
0.25284231 1.2415133 0.128672 97
0.23584741 1.2684798 0.15787962 65
0.242522 1.2616856 0.010122396 85
0.26089922 1.2322989 0.028575432 100
0.24047619 1.2649571 0.051073264 83
0.2447674 1.258095 0.070684217 49
0.25778243 1.2372829 0.087290429 71
0.24604335 1.2560546 0.11143246 91
0.25862303 1.2359387 0.12687239 90
0.24168655 1.2630216 0.15580906 67
0.24845755 1.2559593 0.0099827768 87
0.24987799 1.2536702 0.029831495 99
0.23590285 1.2761922 0.052119136 81
0.24542639 1.2608442 0.070927955 97
0.25941533 1.2383001 0.087290429 57
0.2591283 1.2387626 0.10723466 81
0.26949853 1.2220502 0.12282328 76
0.23729795 1.2739439 0.15891489 65
0.24386525 1.267226 0.010192205 85
0.2494739 1.2581164 0.03004084 99
0.24602833 1.2637126 0.05072464 84
0.25650838 1.246691 0.068734311 67
0.26933703 1.2258545 0.084787481 59
0.24944404 1.2581649 0.11143246 91
0.27005649 1.2246859 0.12327318 85
0.24716166 1.2618719 0.15477379 67
0.25611132 1.251278 0.0098431576 88
0.26167384 1.2421688 0.028994121 100
0.25199333 1.2580218 0.050027397 100
0.24584293 1.2680938 0.071659178 48
0.26895073 1.230252 0.085413218 73
0.26249012 1.240832 0.10723466 81
0.26766247 1.2323617 0.12507279 92
0.24896649 1.2629786 0.15477379 67
0.26193789 1.2454598 0.0097035384 90
0.26125389 1.2465887 0.029203463 100
0.24440697 1.2743955 0.051596198 82
0.25478384 1.2572678 0.069953002 49
0.26339388 1.2430567 0.087603301 57
0.26311806 1.2435119 0.10761628 87
0.26624876 1.2383444 0.12642249 90
0.24668497 1.2706354 0.15684435 66
0.25733304 1.2566948 0.0099129668 87
0.26489443 1.2441204 0.028994121 100
0.24813479 1.271991 0.051247578 82
0.2564013 1.2582442 0.069953002 49
0.26394618 1.2456973 0.087916173 56
0.25963119 1.2528729 0.10952436 85
0.27382895 1.2292626 0.12372308 83
0.25232902 1.2650162 0.15477379 67
0.25903371 1.2577133 0.0099129668 87
0.26655117 1.2451127 0.028994121 100
0.2498889 1.2730417 0.051247578 82
0.25912443 1.2575612 0.069709264 83
0.27168083 1.2365144 0.086038955 58
0.26031262 1.2555697 0.10990598 92
0.28242272 1.218509 0.12057377 86
0.25009969 1.2726884 0.15684435 66
0.25870085 1.2621678 0.0099827768 87
0.26922864 1.2443805 0.028889447 100
0.26280954 1.2552259 0.049330149 87
0.26386139 1.2534487 0.068978049 50
0.28035396 1.2255836 0.083848871 59
0.26500925 1.2515094 0.10876112 79
0.28001964 1.2261484 0.12237337 85
0.25579211 1.2670822 0.15477379 67
0.2664957 1.2528352 0.0097733475 89
0.25976214 1.2643031 0.03004084 99
0.25340807 1.2751245 0.051247578 82
0.26354045 1.2578683 0.069465525 49
0.27694488 1.2350392 0.085413218 58
0.27066803 1.2457292 0.10723466 73
0.27865341 1.2321295 0.12372308 83
0.26046354 1.2631085 0.15322088 76
0.26608482 1.2572281 0.0098431576 88
0.27145857 1.2480062 0.028994121 100
0.26511589 1.2588909 0.049504463 86
0.26715872 1.2553852 0.068978049 50
0.27451032 1.2427691 0.086664692 57
0.27125868 1.2483492 0.10761628 87
0.27528167 1.2414453 0.12597258 82
0.25918245 1.2690734 0.15477379 67
0.2697888 1.2547537 0.0097733475 89
0.27712694 1.242059 0.028575432 100
0.26283577 1.2667822 0.050201707 85
0.27282855 1.249495 0.068003096 51
0.27813944 1.2403075 0.086038955 58
0.27489516 1.2459199 0.10685304 88
0.28473103 1.2289042 0.12237337 76
0.2589927 1.2734305 0.15580906 67
0.2704879 1.2574636 0.0098082526 74
0.27380893 1.2516718 0.029098792 100
0.25763413 1.2798803 0.051421888 82
0.26956677 1.25907 0.069221787 100
0.28273058 1.2361126 0.085100345 58
0.27069864 1.2570961 0.10914274 85
0.28827325 1.2264464 0.12147357 86
0.25882986 1.2777951 0.15684435 66
0.26733473 1.2671766 0.0099827768 87
0.27755049 1.2492083 0.028889447 100
0.27033693 1.2618961 0.049504463 86
0.27430454 1.2549176 0.068490572 50
0.28736973 1.2319374 0.084161744 59
0.27248582 1.2581165 0.10914274 78
0.28802165 1.2307907 0.12237337 85
0.27029976 1.2619616 -0.0098780617 87
0.2626026 1.2755001 0.15580906 67
0.27406868 1.2594994 0.0098082526 74
0.27930868 1.2502037 0.028889447 100
0.27703357 1.2542398 0.048632905 88
0.27510893 1.2576541 0.068734311 33
0.28615451 1.2380593 0.085100345 58
0.27909705 1.2505791 0.10723466 81
0.29066923 1.2300502 0.12192347 68
0.27014917 1.2664526 0.15270324 68
0.27976692 1.2535251 0.0096686333 75
0.27717301 1.2581664 0.029308135 100
0.27297819 1.2656722 0.049678773 86
0.28561413 1.2430629 0.066540658 69
0.28498068 1.2441962 0.086038955 72
0.28373367 1.2464275 0.1060898 81
0.28855428 1.237802 0.12372308 83
0.27196234 1.2674898 -0.0099478718 86
0.2757405 1.2607296 0.15063268 70
0.28428116 1.2491722 0.0095639192 91
0.28460491 1.2485884 0.028680105 100
0.27558964 1.2648456 0.049504463 86
0.28140816 1.2543532 0.068003096 51
0.29134455 1.2364347 0.084474608 59
0.2805545 1.2558925 0.10799789 79
0.29672247 1.2267368 0.12057377 86
0.2717481 1.2717731 0.15373851 68
0.28700256 1.2483906 0.0095290141 92
0.28828517 1.2460575 0.02847076 100
0.2678068 1.2833076 0.051247578 82
0.28222886 1.2570739 0.068246834 51
0.29591081 1.2321866 0.083536007 60
0.2842288 1.253436 0.10723466 81
0.27736896 1.265914 -0.0098780617 87
0.26986635 1.2795613 0.15580906 67
0.27614233 1.272082 0.0099827768 87
0.28412703 1.2574431 0.029098792 100
0.27809694 1.2684984 0.049678773 86
0.28574663 1.2544737 0.067759357 85
0.29271537 1.2416975 0.085100345 58
0.28771359 1.2508676 0.10647142 81
0.29805097 1.2319154 0.12147357 86
0.28188759 1.2615488 -0.0097733475 99
0.28173327 1.2618318 0.15011504 78
0.28654432 1.257251 0.0096686333 60
0.28401548 1.2619281 0.029308135 100
0.28561163 1.2589761 0.048632905 88
0.2828033 1.2641699 0.068978049 50
0.29914364 1.2339492 0.083536007 60
0.28947783 1.2518257 0.10647142 81
0.27893549 1.2713233 -0.0099478718 86
0.28261891 1.264511 0.15063268 70
0.29099736 1.2528355 0.0095639192 91
0.29320115 1.2487272 0.02847076 100
0.2815837 1.2703846 0.049678773 86
0.29007369 1.2545575 0.067515619 51
0.29694846 1.2417414 0.084787481 59
0.2947892 1.2457668 0.10494494 82
0.28248999 1.2686951 -0.0098780617 97
0.28426024 1.2653949 0.15063268 70
0.28995237 1.2590785 0.0096686333 90
0.29870811 1.2426113 0.028052073 100
0.28903174 1.2608099 0.048632905 88
0.2937153 1.2520014 0.067028143 51
0.29867917 1.2426658 0.084787481 59
0.29469129 1.2501658 0.10570818 73
0.28244993 1.2731885 0.15270324 68
0.2953074 1.2528632 0.0095290141 61
0.28415403 1.2740085 0.049853086 57
0.29531509 1.2528486 0.067028143 51
0.296285 1.2510098 0.10570818 73
0.28784388 1.2670131 -0.0098082526 88
0.28412005 1.2740729 0.15270324 68
0.29152021 1.2644262 0.0097384425 90
0.29646173 1.254974 0.028680105 100
0.29800296 1.2520258 0.047587037 90
0.29708654 1.2537788 0.067028143 51
0.29623055 1.2554162 0.10647142 73
0.29152021 1.2644262 -0.0097384425 88
0.28775939 1.27162 0.15166797 69
0.29759428 1.2563167 0.0095639192 91
0.29759863 1.2563082 0.047935657 89
0.29669413 1.2580509 0.067515619 51
0.29814821 1.2552493 0.14649157 81
0.29756007 1.2607735 0.048284281 59
0.28840229 1.2785773 -0.0099827768 100
0.29727751 1.2613229 0.1480445 79
0.29917797 1.2616293 0.0096337283 100
0.29539642 1.2690415 0.15011504 78
0.29917708 1.2661146 0.0097035384 100
0.29469982 1.2749704 0.049504463 57
0.2928614 1.2786067 -0.0099478718 100
0.29635558 1.2716954 0.15063268 78
0.29903102 1.2705188 0.0097733475 100
0.29723838 1.2740939 -0.0098431576 100
0.29997742 1.273226 -0.0098082526 100
0.29722849 1.2830213 -0.0099827768 100
