# .PCD v0.7 - Point Cloud Data file format
VERSION 0.7
FIELDS x y z intensity
SIZE 4 4 4 4
TYPE F F F F
COUNT 1 1 1 1
WIDTH 783
HEIGHT 1
VIEWPOINT 0 0 0 1 0 0 0
POINTS 783
DATA ascii
0.27865297 0.98935062 0.017941074 6
0.28649548 1.0037551 0.018220313 6
0.29110858 1.006591 0.018290121 6
0.29085785 0.99208468 0.018045789 4
0.29414612 0.99111474 0.018045789 3
-1.1384941 0.15069427 0.060186349 22
-1.176403 0.16428591 0.020733459 21
-1.169884 0.16754086 0.020628745 31
-1.0327756 0.15158625 0.018220313 6
-1.0085106 0.15162279 0.017801454 4
-1.0297434 0.1583087 0.018185407 1
-0.46964633 1.0714082 0.020419316 1
-0.48407882 1.126182 0.02139665 1
-0.43001544 1.0101106 0.019162742 1
-0.50417119 1.1958688 0.022653224 1
-0.45087618 1.0794414 0.020419316 1
-0.44710547 1.0810087 0.020419316 1
-0.45374545 1.1085495 0.020907983 1
-0.40876698 1.0188947 0.019162742 1
-0.41711432 1.0715003 0.020070268 1
-0.40348953 1.0467553 0.019581599 1
-0.40838581 1.0705779 0.020000458 1
-0.40728265 1.0795515 0.020140078 1
-0.40071452 1.0734729 0.020000458 1
-0.40546989 1.0973046 0.020419316 1
-0.39477152 1.0799317 0.020070268 1
0.056186616 0.0058035851 0.015881689 128
0.052452326 2.4616718e-05 0.04804441 61
0.055216789 0.010134637 0.047521047 45
0.04708904 0.0035169125 0.04804441 27
0.045651257 0.0068550706 0.047939736 100
0.038243413 0.006988287 0.048149079 62
0.037819684 0.012088954 0.047939736 27
0.041791379 0.023875594 0.047311705 20
0.03240937 0.015773416 0.047939736 18
0.03318733 0.022513211 0.047625721 9
0.026014924 0.017766416 0.04804441 9
0.016641259 0.0096977949 0.048672438 8
0.05548808 0.070281804 0.044904251 13
-1.0327981 0.5376839 0.02792385 10
-0.99202985 0.54916352 0.027190849 15
-0.95912319 0.55924934 0.026597468 23
-0.89248103 0.57368696 0.025410704 37
-0.85945731 0.58318996 0.024817321 61
-0.86406738 0.5875994 0.024887132 66
-0.86866373 0.59203869 0.024956942 57
-0.8712613 0.5967499 0.024991846 57
-0.86589998 0.60241717 0.024887132 42
-0.86250299 0.60781682 0.024817321 40
-0.86504799 0.61252719 0.024852227 30
-0.88547081 0.61532527 0.025201274 5
-0.35462976 0.92528129 0.016021309 4
-0.34223688 0.92652273 0.015811881 9
-0.33187062 0.92772031 0.015637357 9
-0.30964786 0.92699957 0.015253403 16
-0.32091826 0.93204415 0.015462833 47
-0.32424766 0.93598109 0.015532642 56
-0.32366294 0.93903178 0.015532642 30
-0.31325787 0.94014692 0.015358117 53
-0.30481631 0.94158506 0.015218498 45
-0.31211042 0.94586849 0.015358117 43
-0.31149125 0.94887674 0.015358117 37
-0.31079811 0.95218331 0.015358117 37
-0.30233729 0.95350337 0.015218498 39
-0.29784948 0.95532614 0.015148689 40
-0.2971974 0.95828456 0.015148689 34
-0.30238664 0.96256262 0.015253403 45
-1.0182729 1.1242886 0.084260888 3
-1.0533173 1.1322054 0.14380698 4
-0.30170923 0.96553683 0.015253403 45
-1.0053468 1.1270792 0.083632857 5
-1.0229154 1.1311126 0.1411923 8
-0.29131866 0.96609056 0.015078879 41
-1.0099895 1.133595 0.083946876 37
-1.0197687 1.1358743 0.14101799 43
-0.28673726 0.96810472 0.01500907 42
-1.0048239 1.1381179 0.08373753 91
-1.0165431 1.1408925 0.14084367 91
-0.30159485 0.97476423 0.015288308 44
-0.99964553 1.1426091 0.083528183 100
-1.0016787 1.143098 0.13962349 87
-0.28921914 0.97488993 0.015078879 41
-0.9828133 1.1442266 0.082690813 100
-1.0119803 1.1513474 0.14066938 87
-0.29618943 0.98003775 0.015218498 39
-0.97748822 1.149147 0.082481466 96
-0.99503475 1.1535023 0.13927488 89
-0.28769463 0.98103619 0.015078879 41
-0.98196572 1.1559403 0.082795486 41
-0.98789066 1.157433 0.13875194 80
-0.28702754 0.98366684 0.015078879 47
-0.98848647 1.1627272 0.083214171 30
-0.98859638 1.1627553 0.13892625 84
-0.30176318 0.99059814 0.015358117 48
-0.97357196 1.1645899 0.082481466 74
-0.98335844 1.1671245 0.13857763 89
-0.29317433 0.9918319 0.015218498 45
-0.96045643 1.1673881 0.081853434 98
-0.98760277 1.17453 0.13910057 91
-0.30012327 0.99683595 0.015358117 43
-0.95906013 1.1726582 0.081853434 88
-0.96693093 1.1747583 0.13735744 100
-0.2781713 0.99376792 0.014974165 48
-0.95007521 1.1753131 0.081434749 98
-0.95795828 1.177443 0.1366602 100
-0.27545649 0.99612904 0.01493926 49
-0.95443016 1.18213 0.081748761 100
-0.96421319 1.18481 0.13735744 99
-0.27466214 0.99900907 0.01493926 42
-0.94336015 1.1847068 0.081225403 96
-0.96659547 1.1911592 0.13770607 91
-0.28348225 1.0045953 0.015113784 46
-0.93805832 1.1888349 0.081016064 88
-0.96319824 1.1959108 0.13753176 98
-0.29227322 1.0102457 0.015288308 44
-0.93274599 1.1929309 0.080806717 70
-0.95403844 1.1990043 0.13683452 100
-0.27221876 1.0076323 0.01493926 67
-0.93893558 1.2003223 0.081225403 34
-0.94296151 1.2014858 0.13596296 99
-0.27142626 1.0103575 0.01493926 61
-0.93366665 1.2041355 0.081016064 24
-0.94534689 1.2075534 0.13631158 84
-0.26866502 1.012655 0.014904355 55
-0.92065269 1.2059064 0.080388032 26
-0.94190019 1.2122042 0.13613728 87
-0.27738923 1.0183861 0.015078879 47
-0.91529626 1.2098887 0.080178685 36
-0.94034749 1.2174091 0.13613728 98
-0.2784304 1.0218544 0.015113784 51
-0.91184098 1.21442 0.080074012 90
-0.92543298 1.2185521 0.1349171 100
-0.27372384 1.0235679 0.015043974 70
-0.91600734 1.2212828 0.080388032 92
-0.92004985 1.2225273 0.13456847 99
-0.26328808 1.0234667 0.014869451 100
-0.9125163 1.2258031 0.080283359 84
-0.91655904 1.2270631 0.13439415 66
-0.26430541 1.0269058 0.014904355 100
-0.90329748 1.2285018 0.079864666 68
-0.91495472 1.2321795 0.13439415 49
-0.27673817 1.0340048 0.015148689 100
-0.89407772 1.2311417 0.07944598 76
-0.91523045 1.2378964 0.13456847 43
-0.27200598 1.0356591 0.015078879 70
-0.89816076 1.2380223 0.07976 97
-0.90410906 1.2399447 0.13369691 45
-0.26347113 1.0360405 0.01493926 49
-0.90221316 1.2449369 0.080074012 100
-0.90435344 1.2456369 0.13387123 64
-0.25684214 1.0369937 0.014834546 50
-0.89485806 1.2481209 0.07976 100
-0.90835887 1.2525885 0.13439415 82
-0.26349026 1.0423479 0.014974165 54
-0.88939244 1.2518933 0.079550654 100
-0.90855473 1.2583086 0.13456847 82
-0.26064056 1.0445445 0.01493926 73
-0.87824291 1.2537115 0.079027295 100
-0.90872842 1.2640361 0.13474278 78
-0.26913613 1.0506127 0.015113784 86
-0.88032466 1.2599885 0.079236634 100
-0.89757079 1.2658966 0.13387123 94
-0.25875306 1.0500559 0.01493926 98
-0.87869197 1.2647289 0.079236634 100
-0.88650483 1.2674344 0.13299966 93
-0.24833399 1.0495726 0.014764735 89
-0.87318629 1.2683928 0.079027295 85
-0.89792258 1.2770553 0.13421984 50
-0.2529586 1.0545002 0.014869451 81
-0.858172 1.2689364 0.07829459 48
-0.89981049 1.2836895 0.13456847 36
-0.25949073 1.059999 0.01500907 60
-0.85266131 1.2725017 0.078085244 19
-0.89800853 1.2887473 0.13456847 36
-0.25664431 1.0620012 0.014974165 54
-0.86037725 1.2805494 0.07860861 51
-0.86817902 1.2833736 0.13195379 22
-0.24810851 1.0620662 0.014834546 56
-0.86046213 1.2861558 0.078713275 93
-0.85140997 1.2828432 0.1305593 15
-0.25083512 1.0662379 0.014904355 55
-0.86052495 1.291769 0.078817949 100
-0.88698417 1.3015566 0.13404553 5
-0.2366848 1.0641294 0.014660021 53
-0.83437496 1.2875966 0.077457212 70
-0.87205642 1.3016851 0.13282534 1
-0.25248873 1.0732353 0.014974165 60
-0.83255976 1.2924259 0.077457212 48
-0.86832803 1.3059415 0.13265105 3
-0.25516158 1.0774612 0.015043974 52
-0.83819121 1.3000987 0.077875905 53
-0.83852905 1.3002276 0.13003637 15
-0.2428897 1.0759506 0.014834546 56
-0.83819562 1.3056601 0.077980578 63
-0.84410506 1.3079404 0.13073361 58
-0.23436451 1.0758109 0.014694926 58
-0.83445662 1.309777 0.077875905 65
-0.84593135 1.3142509 0.13108224 100
-0.24084318 1.0812025 0.014834546 62
-0.82531983 1.3111984 0.077457212 61
-0.84050661 1.3171744 0.13073361 99
-0.24346852 1.0854387 0.014904355 61
-0.81599838 1.3130445 0.077038527 94
-0.8348853 1.3205528 0.130385 97
-0.24978518 1.0911874 0.015043974 52
-0.82336146 1.3215309 0.077561885 95
-0.82555956 1.3224137 0.12968774 100
-0.23754096 1.089467 0.014834546 62
-0.82327873 1.3270724 0.077666558 97
-0.8254692 1.327961 0.12986206 100
-0.79467851 1.3154706 0.17817298 14
-0.22346818 1.086907 0.014590212 67
-0.82687014 1.3341342 0.077980578 100
-0.82166952 1.3320034 0.12968774 100
-0.7817449 1.3156455 0.17671055 15
-0.22790051 1.0918988 0.014694926 58
-0.80274671 1.3297729 0.076724514 100
-0.81601745 1.3352644 0.12933913 100
-0.77616364 1.3187727 0.17622307 18
-0.23962992 1.1001475 0.01493926 67
-0.79147249 1.330875 0.076201156 100
-0.81761283 1.3418044 0.12968774 100
-0.76681751 1.3205667 0.17524812 18
-0.24584162 1.1060129 0.015078879 64
-0.7876665 1.3347774 0.076096483 100
-0.79725355 1.3388251 0.12794463 100
-0.80512065 1.3421466 0.18061037 24
-0.23552477 1.1047306 0.014904355 85
-0.79129857 1.3415589 0.076410495 58
-0.79535991 1.3432896 0.12794463 90
-0.76851803 1.3318517 0.17597933 16
-0.22700405 1.1043093 0.014764735 82
-0.82598823 1.3620248 0.078503937 53
-0.818973 1.3590064 0.130385 22
-0.78296012 1.3435118 0.17817298 5
-0.23139393 1.1092733 0.014869451 100
-0.80752927 1.3594255 0.077561885 100
-0.82249492 1.3659234 0.13090792 56
-0.77376741 1.3447665 0.17719802 15
-0.2356993 1.1144073 0.014974165 78
-0.80729276 1.3649623 0.077666558 100
-0.82040638 1.3707107 0.13090792 100
-0.78447968 1.3549625 0.17890419 31
-0.25277883 1.1252398 0.015323213 100
-0.80155486 1.3680801 0.077457212 100
-0.80736929 1.3706532 0.12986206 100
-0.79332155 1.3644369 0.18036664 42
-0.2387532 1.1223308 0.015078879 36
-0.80675322 1.3760526 0.077875905 100
-0.79798776 1.3721373 0.12916481 100
-0.77130097 1.3602164 0.1776855 24
-0.22111189 1.1176844 0.014764735 48
-0.81009167 1.3832479 0.078189917 100
-0.80314296 1.3801148 0.12986206 100
-0.77104241 1.365641 0.17792924 18
-0.22899395 1.1245155 0.01493926 100
-0.80067128 1.3846824 0.077771232 100
-0.81188554 1.389786 0.13090792 100
-0.76353484 1.3677819 0.17719802 15
-0.23489451 1.1308452 0.015078879 100
-0.80193049 1.3915327 0.077980578 100
-0.80949575 1.3950107 0.13090792 100
-0.76844424 1.3761377 0.17817298 14
-0.24088597 1.1369493 0.015218498 54
-0.80881149 1.4004509 0.078503937 100
-0.80369109 1.3980753 0.1305593 100
-0.7771247 1.3857492 0.17963541 10
-0.8084113 1.4060373 0.07860861 100
-0.80509919 1.4044864 0.13090792 100
-0.78575391 1.3954287 0.18109785 5
-0.80990666 1.4122443 0.078817949 100
-0.80298775 1.4089767 0.13090792 100
-0.76931268 1.3930728 0.17914793 3
-0.79667622 1.4117546 0.026038991 57
-0.80044454 1.4135504 0.078399263 100
-0.80794352 1.417124 0.13160518 100
-0.80175 1.4196818 0.02617861 86
-0.80010313 1.4188902 0.078503937 100
-0.80938154 1.4233497 0.13195379 100
-0.8066712 1.4278865 0.02631823 100
-0.80142409 1.4253421 0.078713275 100
-0.79812902 1.4237442 0.13108224 100
-0.79370373 1.4271108 0.0261088 100
-0.80462605 1.4324522 0.079027295 100
-0.80490285 1.4325876 0.13195379 100
-0.78781515 1.4300277 0.026038991 100
-0.80947 1.4407114 0.07944598 100
-0.80615526 1.4390761 0.13230242 100
-0.78919977 1.4362419 0.0261088 100
-0.80008548 1.4416574 0.079027295 100
-0.80749685 1.4453444 0.13265105 100
-0.79735345 1.4467645 0.02631823 100
-0.79571182 1.4459399 0.078922622 100
-0.81023484 1.4532347 0.13317397 100
-0.8058055 1.4566497 0.026527658 100
-0.79524475 1.4513011 0.079027295 100
-0.80440682 1.4559413 0.13282534 100
-0.78915399 1.4541004 0.02624842 100
-0.80708736 1.4632616 0.079864666 100
-0.80555278 1.4624777 0.13317397 100
-0.7904337 1.4603686 0.02631823 100
-0.81188327 1.471416 0.080283359 100
-0.80679148 1.4687935 0.1335226 100
-0.79132146 1.4673553 0.026388038 99
-0.79854757 1.4711123 0.079655327 100
-0.81116933 1.4776742 0.13421984 100
-0.79962856 1.4773693 0.026597468 96
-0.79090816 1.4727988 0.079341307 100
-0.81234449 1.4840341 0.13456847 100
-0.78995579 1.478572 0.026457848 79
-0.79185444 1.4795761 0.079550654 100
-0.80091184 1.4843657 0.13369691 100
-0.79501909 1.4869671 0.13334829 31
0.12247831 1.3004014 0.13242145 5
0.16149724 1.2556251 0.010855397 26
0.1382646 1.2846657 0.03454173 27
0.13428992 1.289634 0.058220036 22
0.13043553 1.294452 0.10637543 10
0.15263331 1.2667049 0.12364423 36
0.18965748 1.220425 0.13317102 15
0.15416199 1.2647941 0.16978529 7
0.16195101 1.2585441 0.010890301 91
0.16118157 1.2595129 0.032762308 88
0.14973754 1.2739205 0.056302611 72
0.15614215 1.2658573 0.077752642 28
0.16789877 1.2510561 0.097302236 25
0.16169605 1.2588651 0.12135452 93
0.19123197 1.2216802 0.13317102 23
0.14387608 1.2813001 0.17496167 35
0.16233468 1.2613982 0.010925206 100
0.16899216 1.2529593 0.032238949 100
0.15758091 1.267424 0.055431053 100
0.16024765 1.2640437 0.077265166 29
0.17316657 1.2476679 0.096363634 37
0.15723944 1.2678568 0.12326261 100
0.19031778 1.2259274 0.13407083 38
0.1575391 1.267477 0.16978529 44
0.16651845 1.2595999 0.010855397 100
0.17560658 1.2479968 0.03182026 100
0.15686253 1.2719278 0.055779677 100
0.16442266 1.2622756 0.076777689 29
0.17483625 1.2489803 0.096363634 25
0.1674538 1.2584057 0.12059128 100
0.18710491 1.2333167 0.13587044 38
0.14617452 1.2855735 0.17547931 42
0.16937196 1.2592905 0.010820492 100
0.17106205 1.257118 0.032343622 90
0.15975249 1.2716562 0.055605363 98
0.17458931 1.2525837 0.075071514 30
0.18127826 1.2439852 0.095112152 25
0.18233556 1.2426261 0.11639348 100
0.18385711 1.2406701 0.13767004 30
0.15025881 1.2838602 0.17444403 42
0.17230454 1.2590336 0.010785587 65
0.16299811 1.2710834 0.033180997 57
0.16150597 1.2730153 0.055605363 49
0.17748949 1.2523202 0.074827775 45
0.16844562 1.26403 0.098866582 24
0.17438725 1.2563369 0.11944643 12
0.18788463 1.2388607 0.13677025 22
0.14733157 1.2913681 0.1765146 41
0.16914675 1.2666965 0.010925206 52
0.16839546 1.2676764 0.032866981 29
0.16568887 1.2712061 0.055256739 49
0.17917538 1.2536175 0.074827775 91
0.19301018 1.2355746 0.092922069 53
0.19161707 1.2373915 0.1144854 13
0.20138127 1.2246573 0.13227122 31
0.15620694 1.2835722 0.17340876 57
0.17572781 1.2616584 0.010785587 52
0.17013499 1.2690053 0.032866981 29
0.16744074 1.2725446 0.055256739 49
0.18206817 1.2533295 0.074584037 61
0.19703051 1.2336743 0.092296332 53
0.18730494 1.2464502 0.11639348 13
0.20297042 1.2258714 0.13227122 39
0.17555419 1.2618865 0.16564418 68
0.18235394 1.2566446 0.010645968 40
0.1671508 1.2767687 0.03328567 28
0.1752902 1.2659948 0.054385185 51
0.17187619 1.2705138 0.077021427 87
0.19992307 1.2333888 0.091983467 53
0.19378737 1.2415104 0.11486702 13
0.20111957 1.231805 0.13362093 46
0.18201756 1.2570899 0.16357364 69
0.18885416 1.251526 0.010506349 54
0.15454176 1.2972757 0.03454173 27
0.1889782 1.2513607 0.05264207 53
0.18553621 1.25595 0.074584037 61
0.19206092 1.2472503 0.094486415 52
0.20368111 1.2317568 0.11219569 14
0.20156446 1.234579 0.13407083 31
0.18603829 1.2552805 0.16253836 70
0.19045293 1.252721 0.010506349 68
0.19685626 1.2441239 0.030982886 31
0.17986512 1.2669359 0.054210871 51
0.19900751 1.2412357 0.072146654 79
0.19246551 1.250019 0.094799288 64
0.20404151 1.2344772 0.1125773 13
0.21358359 1.2216662 0.13002171 32
0.17957166 1.2673299 0.16616182 68
0.18619564 1.2620125 0.010680873 80
0.20801306 1.2325064 0.030145511 65
0.18752483 1.2602148 0.053339314 78
0.20301503 1.2392658 0.071659178 80
0.19531772 1.2496758 0.094486415 91
0.20333049 1.2388391 0.11334054 13
0.21747947 1.2197039 0.1291219 32
0.18130994 1.26862 0.16616182 76
0.18072781 1.2728871 0.010890301 78
0.2012738 1.2449069 0.030878214 63
0.18207696 1.2710497 0.054385185 76
0.18577433 1.2660146 0.07555899 90
0.20743287 1.2365193 0.091670595 100
0.20140111 1.2447335 0.1144854 13
0.2235862 1.2145212 0.1273223 16
0.19668636 1.2511542 0.15995017 72
0.19190893 1.2612455 0.010611063 94
0.20411015 1.2445073 0.030773543 64
0.18852273 1.2658908 0.053687938 100
0.2015399 1.2480333 0.072634131 78
0.20440897 1.2440974 0.092922069 100
0.20306039 1.2459475 0.1144854 13
0.22513986 1.2156578 0.1273223 16
0.19381618 1.2586291 0.16202073 70
0.19597045 1.2592524 0.010541254 95
0.20225605 1.250566 0.031087559 94
0.1949279 1.2606931 0.05299069 79
0.20321068 1.2492467 0.072634131 63
0.20954007 1.2404997 0.091983467 93
0.21623307 1.2312504 0.11066922 14
0.23697919 1.2025802 0.12327318 8
0.19325897 1.2629995 0.163056 70
0.19768041 1.2604852 0.010541254 95
0.22141364 1.2274448 0.029517479 67
0.19083109 1.2700205 0.053862248 100
0.21415049 1.2375562 0.070684217 81
0.21348938 1.2384766 0.09135773 94
0.21899053 1.2308182 0.1102876 14
0.24986002 1.1878428 0.11877415 8
0.19610906 1.2626728 0.16253836 70
0.19939467 1.2617121 0.010541254 95
0.21605524 1.2383461 0.030145511 98
0.18563849 1.2810047 0.054908119 100
0.21117476 1.2451909 0.071659178 64
0.21627355 1.23804 0.091044858 100
0.20578384 1.2527515 0.11524864 20
0.22869313 1.2206219 0.1277722 16
0.19670942 1.265478 0.163056 70
0.20573422 1.2564039 0.010401634 83
0.22115365 1.2346183 0.029831495 99
0.19433063 1.2725158 0.053862248 100
0.2105419 1.2496114 0.072146654 79
0.21905053 1.2375897 0.090731993 100
0.20293424 1.26036 0.1167751 33
0.22351316 1.2312846 0.13047162 24
0.20513746 1.2572471 0.15995017 72
0.20513508 1.2608752 0.010471444 96
0.22277749 1.2357633 0.029831495 99
0.19837761 1.2704937 0.053513627 100
0.20080659 1.2670363 0.074584037 100
0.21727803 1.2435911 0.091670595 100
0.20013362 1.2679942 0.11830158 91
0.22960636 1.2260432 0.128672 40
0.20461929 1.2616094 0.16098544 72
0.21142599 1.2555151 0.010331824 98
0.21526578 1.2500088 0.03066887 96
0.20240611 1.2684495 0.053165004 100
0.22071132 1.2421999 0.070684217 81
0.22232297 1.2398888 0.090731993 95
0.22433382 1.2370052 0.11066922 85
0.22228274 1.2399465 0.13227122 86
0.20412737 1.2659812 0.16202073 70
0.21531463 1.253347 0.010262015 98
0.22822937 1.2346958 0.029622151 100
0.20519516 1.2679614 0.05299069 100
0.22001886 1.2465533 0.071171694 65
0.22500753 1.2393488 0.090419121 100
0.2158255 1.2526093 0.11410378 100
0.22606167 1.2378263 0.13137141 94
0.20467424 1.2687137 0.16253836 70
0.20794275 1.2676964 0.010541254 81
0.23098469 1.2341702 0.029517479 67
0.19903597 1.2806559 0.054210871 100
0.22168437 1.2477022 0.071171694 65
0.2311233 1.2339685 0.089167647 84
0.21751216 1.2537729 0.11410378 100
0.23100799 1.2341362 0.13002171 96
0.20860562 1.266732 0.16150309 70
0.21193588 1.2655835 0.010471444 82
0.22360283 1.2484803 0.030354854 65
0.21204826 1.2654188 0.052467756 100
0.22335386 1.2488453 0.071171694 81
0.23163161 1.2367105 0.089480512 97
0.2203092 1.2533087 0.11372216 96
0.23372826 1.2336371 0.12957181 88
0.21143025 1.2663246 0.16098544 72
0.2215156 1.2551694 0.01022711 42
0.21855658 1.2595398 0.030982886 63
0.21377966 1.2665954 0.052467756 80
0.22725317 1.246695 0.070684217 81
0.2277253 1.2459977 0.091044858 100
0.22860235 1.2447023 0.11143246 98
0.22879335 1.2444203 0.13227122 94
0.21966323 1.2579054 0.15787962 73
0.22321117 1.2563131 0.01022711 42
0.21581158 1.2673249 0.031401575 31
0.21551514 1.267766 0.052467756 53
0.22891912 1.2478187 0.070684217 81
0.23379585 1.2405615 0.089793384 100
0.23135632 1.2441919 0.11105084 91
0.23479894 1.2390687 0.13047162 96
0.21705845 1.2654693 0.15995017 72
0.21825358 1.2674328 0.010436539 41
0.22641495 1.2551954 0.030564198 32
0.21283284 1.2755609 0.053165004 52
0.2394003 1.2357246 0.068734311 84
0.23653635 1.2400188 0.089480512 100
0.23628139 1.2404013 0.10990598 85
0.2386007 1.2369236 0.12957181 96
0.21557435 1.27145 0.16150309 70
0.22219938 1.2652527 0.010366729 27
0.22370112 1.2629838 0.030982886 31
0.21459964 1.2767347 0.053165004 52
0.2322627 1.2500486 0.070684217 81
0.23817894 1.2411102 0.089480512 97
0.23575813 1.2447677 0.11066922 85
0.24238363 1.2347577 0.128672 100
0.22265807 1.2645597 0.15891489 73
0.22063649 1.2714081 0.010471444 27
0.21007237 1.2874904 0.032448292 29
0.22512144 1.2645804 0.051770512 54
0.23176062 1.2544732 0.071171694 97
0.2463325 1.2322896 0.087603301 99
0.23202795 1.2540662 0.1125773 89
0.23972821 1.2423437 0.13047162 96
0.22650766 1.26247 0.15787962 73
0.22238874 1.2725546 0.010471444 27
0.23369494 1.255211 0.030354854 32
0.22793788 1.2640423 0.051596198 54
0.23562181 1.2522552 0.070684217 81
0.24471176 1.2383112 0.08854191 98
0.24229667 1.242016 0.10952436 85
0.2435073 1.2401588 0.12957181 96
0.23033866 1.2603595 0.15684435 74
0.23392063 1.2585843 0.0101573 42
0.22888142 1.2663738 0.030982886 31
0.23182881 1.2618178 0.051247578 55
0.24377662 1.2433493 0.069221787 67
0.24849427 1.2360569 0.087916173 84
0.24287981 1.2447355 0.10990598 85
0.2419748 1.2461345 0.13092151 96
0.23205227 1.2614723 0.15684435 74
0.23778868 1.2563192 0.010087491 71
0.24895903 1.2389195 0.029203463 68
0.22924203 1.2696319 0.051944822 54
0.24435833 1.2460858 0.069465525 49
0.24585426 1.2437557 0.089167647 98
0.24347818 1.2474568 0.1102876 85
0.24784985 1.2406472 0.1291219 96
0.22646412 1.2739589 0.1604678 72
0.23304152 1.2675252 0.010296919 42
0.24952459 1.2416519 0.029308135 68
0.2277765 1.2757896 0.052467756 80
0.24815524 1.2438014 0.068978049 67
0.25600076 1.2314863 0.086664692 71
0.24831125 1.2435565 0.10914274 71
0.25787103 1.2285507 0.12552269 82
0.22095937 1.2864903 0.16409127 62
0.23691723 1.2652479 0.01022711 70
0.24797106 1.2477626 0.029622151 100
0.2380611 1.2634386 0.051073264 83
0.24556801 1.2515638 0.069953002 49
0.25761345 1.2325099 0.086664692 71
0.23632821 1.2661797 0.11410378 100
0.26051477 1.2279204 0.12507279 92
0.23308715 1.2713065 0.15891489 65
0.24714896 1.2527859 0.0099478718 73
0.24751794 1.2521977 0.029831495 99
0.24084416 1.2628367 0.050898954 83
0.24936056 1.2492603 0.069465525 49
0.25922969 1.2335277 0.086664692 57
0.25579771 1.2389987 0.10761628 79
0.25693718 1.2371821 0.1273223 97
0.24305162 1.2593176 0.15477379 67
0.25094947 1.2504448 0.0098780617 73
0.24498126 1.2600331 0.030250182 98
0.23624924 1.2740617 0.051944822 81
0.25103533 1.2503068 0.069465525 49
0.25458628 1.244602 0.08854191 70
0.2501744 1.2516899 0.1102876 92
0.25342077 1.2464745 0.12957181 96
0.23863634 1.2702266 0.15787962 65
0.24106973 1.2702007 0.010262015 84
0.25718868 1.244102 0.029203463 100
0.23801064 1.2751539 0.051944822 81
0.25897241 1.2412138 0.068003096 51
0.25832075 1.2422689 0.087916173 56
0.25907907 1.2410412 0.10761628 79
0.26430187 1.2325847 0.12552269 82
0.23632383 1.277885 0.15995017 64
0.2551879 1.2507129 0.0098431576 88
0.26285619 1.2382092 0.028784776 100
0.24168241 1.2727346 0.051596198 100
0.25215182 1.2556634 0.069953002 49
0.27013308 1.2263436 0.084787481 73
0.25234929 1.2553415 0.11066922 85
0.2677941 1.2301575 0.12462288 100
0.23994088 1.2755742 0.15891489 65
0.24439397 1.2722386 0.010262015 84
0.25826302 1.2494459 0.029412808 100
0.24965322 1.2635955 0.05055033 84
0.25591266 1.2533085 0.069465525 49
0.26967403 1.2306929 0.085413218 73
0.25404525 1.2563775 0.11066922 85
0.2673761 1.2344693 0.12552269 99
0.24974123 1.2634509 0.15477379 67
0.26276815 1.2459619 0.0097035384 90
0.26105419 1.2488019 0.029308135 100
0.25146437 1.264693 0.05055033 84
0.25460908 1.2594819 0.07019674 33
0.26728189 1.2384822 0.086664692 71
0.26293054 1.2456927 0.10799789 87
0.26505286 1.2421759 0.1273223 89
0.25754076 1.254624 0.15166797 69
0.27059466 1.2366674 0.0094941091 92
0.25964937 1.2549485 0.029622151 100
0.25728688 1.2588943 0.049853086 85
0.2614181 1.2519943 0.068978049 50
0.27094838 1.2360767 0.086038955 72
0.26862681 1.2399542 0.10647142 81
0.27170804 1.2348078 0.12507279 92
0.25923419 1.2556419 0.15166797 69
0.26099181 1.2565517 0.0098780617 73
0.26134393 1.255959 0.029622151 100
0.25390771 1.268478 0.05072464 100
0.26715744 1.2461718 0.068003096 51
0.27257699 1.2370479 0.086038955 72
0.26425326 1.2510611 0.10876112 79
0.27532262 1.2324256 0.12417299 92
0.25106534 1.2732632 0.15684435 66
0.26370716 1.2558348 0.0098431576 88
0.27520981 1.236315 0.028366089 100
0.25969559 1.2626424 0.050027397 85
0.26680568 1.2505767 0.068490572 50
0.27420896 1.2380135 0.086038955 72
0.26294404 1.2571299 0.10990598 85
0.28584266 1.2182713 0.12012386 77
0.25282389 1.2743037 0.15684435 66
0.26632935 1.2550554 0.0098082526 74
0.26969978 1.2492921 0.029098792 100
0.26535413 1.2567229 0.049330149 100
0.27040514 1.2480861 0.068003096 51
0.28174585 1.2286943 0.084161744 59
0.264561 1.2580791 0.10990598 78
0.28241172 1.2275558 0.12237337 85
0.26229131 1.26196 -0.0099478718 86
0.25839886 1.268616 0.15477379 67
0.26501381 1.2612317 0.0099129668 87
0.27037227 1.2519953 0.029203463 100
0.27005425 1.2525434 0.048807215 88
0.26111808 1.2679467 0.070684217 32
0.27442721 1.2450058 0.086977564 57
0.27217758 1.2488835 0.10761628 87
0.28401053 1.228487 0.12237337 85
0.26692712 1.2579337 0.15115032 77
0.27080467 1.2553395 0.0097733475 89
0.26815709 1.2599419 0.029622151 100
0.26785082 1.2604744 0.049504463 86
0.27383339 1.2500745 0.068003096 51
0.28306502 1.2340267 0.084787481 59
0.27295569 1.2516003 0.10799789 100
0.28180587 1.2362156 0.12417299 92
0.26004773 1.2740388 0.15580906 67
0.27448267 1.2528374 0.0097035384 90
0.27580822 1.2505145 0.028994121 100
0.26758969 1.2649173 0.049853086 85
0.27649468 1.2493114 0.067759357 51
0.27489623 1.2521126 0.087916173 56
0.27755749 1.2474489 0.10685304 73
0.28922981 1.2269936 0.12147357 86
0.2675536 1.2649806 0.15270324 68
0.27312943 1.2589688 0.0098082526 89
0.27543494 1.2548971 0.029203463 100
0.26530564 1.272786 0.05055033 84
0.27221698 1.2605802 0.069221787 83
0.28622973 1.2358329 0.084787481 59
0.27237082 1.2603085 0.10952436 85
0.29074669 1.2278557 0.12147357 86
0.2672928 1.2692766 0.15373851 68
0.27777562 1.2547016 0.0097035384 90
0.27712923 1.2558525 0.029203463 100
0.27194065 1.2650909 0.049678773 86
0.27490321 1.2598161 0.068978049 50
0.28882471 1.2350285 0.084474608 59
0.274084 1.2612746 0.10952436 85
0.29234648 1.2287579 0.12147357 77
0.27483794 1.2599323 -0.0098082526 88
0.27092934 1.2668916 0.15270324 68
0.27460352 1.2643837 0.0098780617 73
0.28077072 1.2533125 0.028994121 100
0.27754885 1.2590963 0.048981529 87
0.28434286 1.2468998 0.067028143 51
0.28660434 1.2428401 0.08572609 58
0.28344375 1.2485139 0.10647142 73
0.29015607 1.2364641 0.12327318 85
0.27654979 1.2608898 -0.0098082526 88
0.27078527 1.2712381 0.15373851 68
0.28600121 1.2478387 0.0095290141 76
0.28439113 1.2507529 0.028784776 100
0.27347681 1.2705078 0.050027397 85
0.28408924 1.2512994 0.067515619 51
0.2882565 1.2437567 0.08572609 58
0.28891331 1.2425678 0.10494494 82
0.2917859 1.2373683 0.12327318 85
0.27439687 1.2688426 -0.0099478718 86
0.27814195 1.262064 0.15063268 70
0.28470358 1.2539721 0.0096337283 90
0.28598684 1.251631 0.028784776 100
0.26939183 1.2819048 0.051073264 83
0.29332033 1.2382528 0.065565705 53
0.29172802 1.2411575 0.085100345 58
0.28576332 1.2520387 0.10685304 81
0.29708409 1.2313867 0.12147357 86
0.28070378 1.2612687 0.15011504 78
0.28734967 1.2531383 0.0095988233 76
0.29148537 1.2455308 0.028366089 100
0.27498683 1.2758794 0.05037602 84
0.29306018 1.2426339 0.066053182 52
0.29714814 1.2351143 0.083848871 59
0.2865099 1.254683 0.10723466 81
0.28352928 1.2601658 -0.0097384425 88
0.27688414 1.2723894 0.15322088 76
0.28343034 1.2646599 0.0098082526 89
0.28754508 1.2570243 0.028994121 100
0.28818497 1.255837 0.048284281 88
0.28914389 1.2540575 0.067515619 51
0.29108217 1.2504607 0.1060898 73
0.28722492 1.2576184 -0.0096686333 89
0.28422609 1.2631832 0.15011504 78
0.29646859 1.2444235 0.0093893949 93
0.29301208 1.2508914 0.028575432 100
0.28988245 1.2567478 0.048284281 88
0.28896391 1.2584667 0.068003096 51
0.29553685 1.2461671 0.10494494 75
0.28044617 1.2744057 -0.0099827768 96
0.28685978 1.2624041 0.14959741 78
0.29531717 1.2506064 0.0094941091 92
0.29282188 1.2553152 0.028784776 100
0.28598565 1.2682158 0.049330149 87
0.29345906 1.2541128 0.067271881 34
0.29720053 1.2470524 0.10494494 75
0.28314483 1.2735765 -0.0099478718 86
0.2903893 1.2599057 0.14856213 71
0.29699636 1.2514925 0.0094941091 92
0.29823363 1.2491379 0.028366089 100
0.28772634 1.2691343 0.049330149 87
0.29976735 1.246219 0.066053182 52
0.29978052 1.246194 0.10456333 67
0.28850657 1.2676494 0.15063268 70
0.29137349 1.2666053 0.0097733475 89
0.29999146 1.2500573 0.028366089 100
0.28863722 1.2718594 0.049504463 57
0.29784676 1.2541755 0.067028143 51
0.29699335 1.2558142 0.10647142 73
0.2886025 1.271926 -0.0098780617 87
0.28943998 1.2703179 0.15115032 77
0.29586095 1.2621746 0.0096686333 75
0.29983598 1.2544764 0.028575432 100
0.29587534 1.2621467 0.048458595 59
0.29771686 1.2585804 0.067515619 51
0.29035613 1.2728355 -0.0098780617 100
0.29916507 1.2557757 0.14649157 72
0.29849178 1.2612787 0.0096337283 100
0.29761463 1.262992 0.068003096 51
0.29029042 1.2772987 -0.0099478718 100
0.29910159 1.2600875 0.14752686 71
0.29819083 1.2661283 0.14907977 78
0.29925188 1.2683405 0.048807215 58
0.29818755 1.2704557 0.15011504 78
0.2974357 1.2763443 0.049504463 57
0.29650956 1.2782011 -0.0099129668 100
0.29648682 1.2782466 0.1521856 77
