# .PCD v0.7 - Point Cloud Data file format
VERSION 0.7
FIELDS x y z intensity
SIZE 4 4 4 4
TYPE F F F F
COUNT 1 1 1 1
WIDTH 731
HEIGHT 1
VIEWPOINT 0 0 0 1 0 0 0
POINTS 731
DATA ascii
-1.1544484 0.16245261 0.020349506 4
-1.1004359 0.15877128 0.019407077 5
-1.0247036 0.15149781 0.018080693 6
-1.0123056 0.15327755 0.017871264 4
-1.0532626 0.16324189 0.018604266 1
0.059338599 0.013291597 0.015742071 67
0.046019316 0.00421983 0.04804441 100
0.045556962 0.0093128085 0.047835063 100
0.040685475 0.0077569485 0.04804441 72
0.037178516 0.0077036023 0.048149079 44
0.030038297 0.002885282 0.048567768 25
0.03412199 0.014600992 0.047939736 18
0.030356169 0.014760971 0.04804441 9
0.016344488 0.00016504526 0.049091127 7
0.0086844563 0.00064247847 0.049300469 7
0.0083121657 0.005795598 0.049091127 7
-1.0391366 1.1316264 0.085412279 5
-1.0255485 1.1285342 0.14136662 6
-1.0281117 1.1349161 0.028272899 8
-0.99310857 1.1268221 0.083004825 11
-1.0242872 1.1340318 0.14136662 17
-0.99951106 1.1342906 0.02778423 16
-0.99762315 1.1338468 0.083318844 75
-1.0229425 1.1397994 0.14136662 65
-1.000175 1.1401616 0.027819136 37
-0.99828631 1.1397107 0.083423518 100
-1.0197041 1.1448249 0.1411923 100
-0.98734313 1.1422064 0.027609708 45
-0.98352891 1.141283 0.082690813 100
-0.99915439 1.145066 0.13944919 91
-0.98020893 1.1461385 0.027504992 31
-0.99192125 1.1490176 0.083214171 100
-1.0036402 1.1518981 0.13997212 87
-0.9710595 1.1498067 0.027365373 26
-0.97889513 1.1517632 0.082586139 66
-1.0022299 1.1575899 0.13997212 79
-0.97553974 1.1565876 0.027470088 30
-0.97755319 1.1570978 0.082586139 42
-1.0008676 1.1630058 0.13997212 68
-0.97805434 1.1629063 0.027539898 51
-0.97232395 1.1614329 0.082376793 40
-0.98211962 1.1639516 0.13840333 89
-0.96506387 1.1652093 0.027330469 64
-0.9728809 1.1672485 0.082481466 90
-0.97302371 1.1672857 0.13770607 92
-0.95200664 1.1676887 0.027121039 72
-0.9791376 1.1748723 0.082900152 95
-0.97733539 1.1743951 0.13822901 98
-0.94674677 1.1718922 0.027051231 83
-0.95263892 1.1734743 0.081539422 98
-0.97014183 1.178174 0.13770607 100
-0.95119447 1.1784283 0.027155945 92
-0.9474383 1.1774063 0.081330076 100
-0.97262484 1.1842588 0.1380547 99
-0.96132594 1.1868562 0.027365373 92
-0.93830556 1.1805067 0.08091139 100
-0.96540755 1.187982 0.13753176 94
-0.94445485 1.1878216 0.027086135 93
-0.94648105 1.1883881 0.081434749 92
-0.94858879 1.1889775 0.13613728 94
-0.93529147 1.1908551 0.026946515 88
-0.94116837 1.1925204 0.081225403 82
-0.95286793 1.1958354 0.1366602 100
-0.95310909 1.2012935 0.027295563 59
-0.92440063 1.1930561 0.080388032 56
-0.95144755 1.2008168 0.1366602 100
-0.94967419 1.2059795 0.027260659 41
-0.91524345 1.1959699 0.079969339 20
-0.95567411 1.2077237 0.13718314 89
-0.93663377 1.2078221 0.027051231 63
-0.91757947 1.2022104 0.080178685 26
-0.94458085 1.2101625 0.13631158 84
-0.91593391 1.2072924 0.026702182 75
-0.92371744 1.2096143 0.080597371 28
-0.93157977 1.2119597 0.13526571 91
-0.91057009 1.2112503 0.026632372 75
-0.93173355 1.217644 0.081120729 56
-0.92621356 1.2159762 0.1349171 99
-0.91093308 1.2169309 0.026667276 81
-0.91106313 1.2169707 0.080074012 100
-0.9322688 1.2234579 0.13561434 100
-0.91318446 1.2232111 0.026737086 83
-0.90758616 1.221477 0.079969339 90
-0.9287737 1.2280397 0.13544002 85
-0.91540974 1.2295125 0.026806897 83
-0.90600127 1.2265623 0.079969339 76
-0.91766018 1.2302182 0.13456847 56
-0.90236086 1.2309949 0.026597468 83
-0.9101097 1.2334546 0.080283359 70
-0.90844876 1.2329273 0.13387123 43
-0.88931972 1.2323921 0.026388038 83
-0.9122861 1.2397702 0.080492698 76
-0.90113324 1.2361872 0.13334829 48
-0.89538568 1.2396343 0.026527658 92
-0.89362472 1.2390621 0.079550654 100
-0.91284341 1.2453066 0.13456847 52
-0.88993829 1.2434276 0.026457848 100
-0.89197856 1.2440984 0.079550654 100
-0.91306812 1.2510324 0.13474278 73
-0.8920719 1.2497134 0.026527658 100
-0.89031488 1.2491291 0.079550654 100
-0.91138011 1.2561364 0.13474278 82
-0.87522656 1.2496417 0.02624842 99
-0.88674074 1.2535167 0.07944598 100
-0.88701433 1.2536087 0.13265105 82
-0.87354368 1.2546138 0.02624842 96
-0.8888256 1.2598162 0.079655327 100
-0.89852017 1.2631165 0.13387123 85
-0.8718434 1.2595799 0.02624842 99
-0.87955326 1.2622347 0.079236634 100
-0.89302236 1.2668724 0.1335226 100
-0.87390262 1.2658553 0.02631823 85
-0.86462325 1.2626239 0.078503937 100
-0.90256852 1.2758379 0.13456847 78
-0.87216312 1.2708228 0.02631823 79
-0.86101109 1.2668954 0.078399263 72
-0.89891475 1.2802434 0.13439415 40
-0.86287099 1.2731006 0.02617861 85
-0.85550493 1.2704778 0.078189917 29
-0.88210922 1.2799511 0.13299966 37
-0.84981734 1.2739652 0.025969181 96
-0.86878294 1.2807932 0.079027295 21
-0.8784458 1.2842722 0.13282534 30
-0.8480497 1.2788484 0.025969181 96
-0.85573035 1.281644 0.078399263 68
-0.88225871 1.2912996 0.13334829 18
-0.85377175 1.2864873 0.0261088 100
-0.85206145 1.2858582 0.07829459 100
-0.87669057 1.29492 0.13299966 13
-0.85205132 1.2911396 0.0261088 100
-0.83911043 1.2863295 0.077666558 100
-0.85813409 1.2934006 0.13143086 1
-0.84273583 1.2932175 0.025969181 100
-0.841039 1.2925801 0.077875905 48
-0.87121946 1.3039181 0.13282534 1
-0.82968396 1.2938173 0.025759751 93
-0.84294075 1.2988503 0.078085244 48
-0.84140712 1.2982681 0.13021068 7
-0.83344811 1.3007789 0.025864467 74
-0.83549207 1.3015631 0.077771232 59
-0.8618769 1.311686 0.13230242 33
-0.83540958 1.3068087 0.025934275 72
-0.8337217 1.3061547 0.077771232 76
-0.85264164 1.3134856 0.13160518 86
-0.8409757 1.3145573 0.026073895 83
-0.82440251 1.308069 0.077352546 63
-0.85259122 1.3191047 0.13177948 100
-0.82242531 1.3125505 0.025759751 99
-0.83004016 1.3155608 0.077771232 80
-0.83593971 1.317893 0.130385 97
-0.816809 1.3158545 0.025689943 100
-0.83740145 1.3240786 0.07829459 95
-0.82661754 1.3197718 0.12968774 97
-0.81489521 1.3206223 0.025689943 100
-0.81878895 1.3221931 0.077352546 97
-0.8320809 1.3275554 0.130385 100
-0.81296486 1.3253834 0.025689943 100
-0.80020672 1.3201847 0.076410495 100
-0.83750671 1.3353837 0.13108224 100
-0.78646666 1.3145858 0.17719802 22
-0.81101793 1.3301376 0.025689943 100
-0.80197197 1.3264146 0.076619841 100
-0.81341523 1.3311242 0.1289905 100
-0.7735433 1.3147147 0.17573559 15
-0.80166823 1.331815 0.025550323 100
-0.80555433 1.3334303 0.076933853 100
-0.80408901 1.3328211 0.12829325 100
-0.80096275 1.3315217 0.17963541 19
-0.79222518 1.3336682 0.025410704 100
-0.79795569 1.3360748 0.076619841 100
-0.80936497 1.3408661 0.1289905 100
-0.77876288 1.3280147 0.17695428 20
-0.79024941 1.3383501 0.025410704 100
-0.79229409 1.3392172 0.076410495 90
-0.81653541 1.349497 0.12986206 100
-0.75853127 1.3248997 0.1745169 18
-0.8103165 1.3524704 0.025829561 64
-0.80131513 1.3486161 0.077038527 42
-0.81267267 1.3534794 0.12968774 60
-0.7638858 1.3325894 0.17549185 11
-0.81561702 1.3603895 0.025969181 70
-0.8102867 1.3580849 0.077666558 72
-0.82342929 1.3637668 0.13090792 31
-0.77102453 1.3411109 0.17671055 5
-0.80092448 1.3590816 0.025724847 100
-0.80477089 1.3607588 0.077457212 100
-0.80877298 1.362504 0.12968774 93
-0.79287881 1.3555732 0.17987914 24
-0.78970903 1.3597652 0.025550323 100
-0.81184047 1.3695078 0.077980578 100
-0.82128459 1.3736653 0.13108224 100
-0.78719288 1.3586576 0.17939167 35
-0.78753835 1.3646715 0.025550323 100
-0.80415899 1.372061 0.077666558 100
-0.8136012 1.3762591 0.1305593 100
-0.75600404 1.3506513 0.17549185 30
-0.80369836 1.3775244 0.025899371 100
-0.80933779 1.3800553 0.078085244 100
-0.81147665 1.3810152 0.1305593 100
-0.7666468 1.3608961 0.17719802 26
-0.80349797 1.3828349 0.025934275 100
-0.80366844 1.382912 0.077875905 100
-0.8058129 1.383883 0.13021068 100
-0.77733856 1.3709905 0.17890419 17
-0.79225665 1.3834 0.025759751 100
-0.80878693 1.3909541 0.07829459 100
-0.80366176 1.388612 0.13021068 100
-0.7698161 1.3731449 0.17817298 15
-0.79192322 1.3889191 0.025794657 100
-0.81386572 1.3990393 0.078713275 100
-0.7978757 1.3916645 0.12986206 100
-0.76229495 1.3752539 0.17744176 11
-0.79700631 1.3969748 0.025934275 100
-0.80079728 1.3987393 0.078085244 100
-0.8065353 1.4014102 0.13090792 100
-0.77817112 1.3882079 0.17987914 10
-0.80023938 1.4042234 0.026038991 100
-0.7949788 1.4017525 0.077875905 100
-0.81514317 1.4112239 0.13195379 100
-0.77420837 1.3919964 0.17963541 5
-0.80343837 1.4115022 0.026143705 100
-0.80178934 1.4107206 0.078399263 100
-0.80749542 1.4134252 0.13143086 100
-0.78279191 1.4017162 0.18109785 3
-0.79397482 1.4127716 0.026004085 100
-0.80675179 1.4188824 0.078817949 100
-0.80164641 1.4164405 0.13108224 100
-0.78451914 1.4139826 0.025864467 100
-0.81347245 1.4279544 0.079341307 100
-0.8119424 1.4272161 0.13230242 100
-0.7948485 1.4247646 0.0261088 100
-0.80218869 1.4283383 0.078817949 100
-0.81322271 1.4337103 0.13265105 100
-0.79973418 1.4329815 0.02624842 100
-0.79629713 1.4312932 0.07860861 100
-0.80732101 1.4367081 0.13230242 100
-0.80469602 1.441004 0.026388038 100
-0.80304545 1.4401865 0.079131968 100
-0.80510265 1.4412055 0.13230242 100
-0.79519027 1.4421535 0.02624842 100
-0.80427116 1.4466909 0.079341307 100
-0.79918689 1.4441504 0.13195379 100
-0.78557545 1.4434779 0.0261088 100
-0.81248194 1.4570457 0.079969339 100
-0.80026501 1.4508851 0.13230242 100
-0.79034597 1.4517622 0.02624842 100
-0.80295461 1.4581754 0.079550654 100
-0.80853516 1.461014 0.13334829 100
-0.79863328 1.4619136 0.026457848 100
-0.79343611 1.4592471 0.079131968 100
-0.81320566 1.4693899 0.13404553 100
-0.79620975 1.4666169 0.026457848 100
-0.79811734 1.467604 0.079550654 100
-0.80898649 1.4732285 0.13387123 100
-0.79034644 1.4692276 0.026388038 100
-0.80287975 1.4757658 0.079969339 100
-0.79958111 1.474045 0.13317397 100
-0.78435808 1.4720397 0.02631823 100
-0.80040783 1.480484 0.079969339 100
-0.8112213 1.4861732 0.13456847 100
-0.78543228 1.4785678 0.026388038 46
-0.78733379 1.4795767 0.079341307 48
-0.80167311 1.487185 0.13387123 84
0.12550402 1.298533 0.011832732 11
0.13852796 1.2823172 0.03443706 27
0.098359555 1.3323301 0.063100755 19
0.13323972 1.2889013 0.1293685 17
0.19245428 1.2151743 0.13182132 7
0.10845327 1.3197626 0.1889379 6
0.15718758 1.2624201 0.010995016 38
0.17012122 1.2462068 0.031924933 30
0.1685625 1.2481607 0.053513627 52
0.15634242 1.2634795 0.077508904 14
0.15087795 1.2703297 0.10136953 11
0.14353284 1.2795373 0.12669717 64
0.20243922 1.2056937 0.128672 16
0.15244383 1.2683667 0.17082056 7
0.16511664 1.2559503 0.010820492 100
0.16806567 1.2522268 0.032238949 90
0.15044153 1.2744789 0.056302611 96
0.15683487 1.2664068 0.077752642 28
0.16489145 1.2562346 0.098240845 24
0.16481689 1.2563288 0.12059128 100
0.17371413 1.2450953 0.13991955 36
0.15058756 1.2742946 0.17237349 42
0.16187096 1.2635784 0.010960111 100
0.17715871 1.2441373 0.031610917 100
0.15343651 1.2743044 0.056128297 100
0.17084059 1.2521719 0.075315252 30
0.17147526 1.2513648 0.096989371 25
0.17501172 1.2468675 0.11791996 100
0.19103441 1.2264917 0.13407083 46
0.14996201 1.2787229 0.17340876 42
0.15252095 1.2791162 0.011274255 100
0.18373239 1.2391386 0.03119223 94
0.15274709 1.2788265 0.056476921 100
0.17008281 1.2566218 0.075802729 30
0.1707266 1.2557973 0.097615108 24
0.16218066 1.2667434 0.12249938 100
0.19382927 1.2262059 0.13362093 38
0.15411791 1.2770708 0.17237349 42
0.16777638 1.263115 0.010890301 91
0.16090053 1.2719858 0.03328567 57
0.16306984 1.2691871 0.055256739 74
0.16691923 1.264221 0.076777689 29
0.17484501 1.2539957 0.096989371 25
0.18316099 1.2432671 0.11639348 53
0.18945459 1.2351475 0.13587044 30
0.14997277 1.2860839 0.17496167 35
0.17063352 1.2627953 0.010855397 65
0.17475075 1.257447 0.032238949 60
0.1708042 1.2625736 0.054385185 51
0.17582574 1.2560506 0.075315252 45
0.18368202 1.2458453 0.095112152 38
0.17275643 1.2600377 0.12020966 12
0.18981031 1.2378848 0.13632034 22
0.15286478 1.2858768 0.17444403 56
0.18207031 1.2514062 0.010576159 54
0.17281613 1.2635145 0.032552965 29
0.16889635 1.2686433 0.054908119 50
0.18596262 1.2463133 0.073609084 62
0.17694861 1.2581074 0.097302236 62
0.18996736 1.2410735 0.11524864 20
0.18907905 1.2422358 0.13722014 30
0.16757196 1.2703761 0.16875002 66
0.17641467 1.2621806 0.010785587 52
0.16720951 1.2743078 0.033180997 28
0.16934741 1.2714913 0.055082429 50
0.19234487 1.2411933 0.072634131 78
0.19528964 1.2373136 0.092922069 53
0.19034451 1.2438285 0.11563025 13
0.20714191 1.2216989 0.13092151 40
0.1680654 1.2731802 0.16926765 73
0.17340845 1.2699354 0.010925206 52
0.17146385 1.272517 0.032971654 29
0.16759169 1.2776573 0.055605363 49
0.18690798 1.2520144 0.07409656 61
0.20770165 1.2244103 0.090106249 55
0.19680858 1.2388711 0.11410378 13
0.20879978 1.2229525 0.13092151 40
0.16410047 1.282292 0.17185585 65
0.18225554 1.2615741 0.010715778 39
0.17552516 1.2705709 0.032762308 29
0.17882517 1.2661597 0.054210871 51
0.19326487 1.2468576 0.073121607 78
0.20566052 1.230288 0.091044858 68
0.20189345 1.2353237 0.11295892 13
0.20563433 1.2303231 0.13272113 47
0.18431699 1.2588186 0.16357364 69
0.18993503 1.2548279 0.010541254 95
0.18918291 1.2558407 0.031715591 30
0.18531099 1.2610542 0.053513627 52
0.17954528 1.2688177 0.076290213 100
0.19549164 1.2473459 0.094173551 65
0.2105431 1.2270792 0.11066922 14
0.21421456 1.2221354 0.13002171 32
0.18372187 1.2631938 0.16460891 69
0.1891709 1.2592379 0.010611063 81
0.19672346 1.2489976 0.03119223 63
0.1833936 1.2670712 0.054036561 100
0.20123205 1.2428845 0.072146654 63
0.20411155 1.2389803 0.092296332 80
0.20739946 1.2345223 0.11219569 14
0.22381261 1.2122682 0.12687239 33
0.19109273 1.2566321 0.16202073 70
0.19105208 1.2606198 0.010611063 81
0.20564115 1.240679 0.030564198 64
0.18530491 1.2684752 0.054036561 77
0.20070612 1.2474244 0.072634131 63
0.20241567 1.2450877 0.093234941 92
0.21034485 1.2342498 0.11181407 14
0.22321185 1.2166629 0.1277722 16
0.18726045 1.2658023 0.16460891 69
0.18562865 1.2715142 0.010820492 91
0.21307367 1.2337394 0.03004084 66
0.18227553 1.2761292 0.054733805 100
0.20462486 1.2453681 0.072146654 79
0.20515412 1.2446396 0.092922069 100
0.2165021 1.2290205 0.1102876 14
0.22698572 1.214591 0.12687239 16
0.19004211 1.2654395 0.16409127 69
0.18738148 1.272783 0.010820492 78
0.20184302 1.2527316 0.03119223 94
0.17938262 1.2838737 0.055431053 74
0.20164153 1.253011 0.073121607 78
0.21605712 1.2330232 0.090419121 82
0.21006748 1.241328 0.11295892 13
0.23879898 1.2014909 0.12282328 17
0.1940338 1.2635593 0.163056 70
0.20302299 1.2544737 0.010401634 97
0.21391213 1.2392695 0.030250182 65
0.1938498 1.2672819 0.053513627 100
0.20093346 1.2573912 0.073609084 62
0.215294 1.23734 0.091044858 100
0.21734801 1.234472 0.11105084 14
0.22548071 1.2231166 0.128672 16
0.199047 1.2600253 0.16150309 70
0.21406811 1.2427021 0.010122396 99
0.20869252 1.2502663 0.030878214 95
0.20029145 1.2620877 0.05281638 100
0.21422145 1.2424864 0.071171694 81
0.21472055 1.2417841 0.091670595 100
0.21222895 1.24529 0.11334054 20
0.22940138 1.2211261 0.1277722 16
0.2019645 1.2597336 0.16098544 72
0.20410773 1.2601519 0.010471444 96
0.20913544 1.2530273 0.030982886 95
0.20077643 1.2648726 0.05299069 100
0.21350101 1.246841 0.071659178 64
0.21400899 1.2461212 0.092296332 100
0.21041104 1.2512197 0.1144854 54
0.23426992 1.2174101 0.12642249 24
0.20581812 1.2577281 0.15995017 72
0.20590657 1.2614163 0.010471444 96
0.216636 1.246093 0.030459527 97
0.1923075 1.2808378 0.054559495 100
0.20614216 1.2610799 0.073609084 100
0.22142145 1.2392588 0.090731993 95
0.20316848 1.2653267 0.11753834 99
0.23255861 1.2233533 0.1277722 65
0.20095965 1.2684813 0.163056 70
0.20753804 1.2625546 0.010471444 82
0.21935678 1.2455561 0.030354854 97
0.19855294 1.2754778 0.053862248 100
0.21457174 1.2524383 0.072146654 79
0.22185171 1.2419677 0.091044858 100
0.21602032 1.2503549 0.11372216 89
0.22738901 1.2340035 0.13047162 96
0.20812866 1.2617053 0.1604678 72
0.21371767 1.2571051 0.010331824 98
0.22660911 1.2384318 0.029831495 66
0.20475885 1.270082 0.053165004 100
0.20715109 1.2666168 0.07409656 92
0.22902998 1.2349253 0.089480512 100
0.22096121 1.2466128 0.1125773 96
0.22450092 1.2414856 0.13227122 94
0.21524882 1.2548872 0.15787962 73
0.22211856 1.2483213 0.010122396 99
0.22816429 1.2395017 0.029831495 66
0.21092504 1.2646507 0.052467756 100
0.21890113 1.253015 0.071902916 96
0.22610599 1.2425044 0.090731993 100
0.22698361 1.2412241 0.11105084 91
0.2260662 1.2425624 0.13227122 94
0.21248955 1.2623683 0.15995017 72
0.21825105 1.2577875 0.010296919 70
0.23101047 1.2390265 0.029726824 67
0.20265615 1.2807174 0.054036561 100
0.22848821 1.2427351 0.07019674 82
0.22561818 1.2469552 0.09135773 94
0.22650474 1.2456516 0.11181407 98
0.23328 1.2356896 0.13002171 96
0.20886433 1.2715892 0.16253836 70
0.21763226 1.2621994 0.010366729 41
0.22474352 1.2516683 0.030459527 32
0.20658165 1.278564 0.053687938 52
0.22561398 1.2503793 0.071171694 81
0.23493993 1.2365686 0.089167647 100
0.23028123 1.2434676 0.11105084 98
0.23591658 1.2351223 0.12957181 100
0.21052954 1.2727177 0.16253836 70
0.21729919 1.2667949 0.010436539 41
0.22437266 1.2562327 0.03066887 32
0.21297151 1.2732571 0.05299069 52
0.22746089 1.2516212 0.071171694 65
0.24332884 1.227927 0.087290429 100
0.22991669 1.2479542 0.11181407 98
0.2387892 1.2347057 0.1291219 96
0.21783713 1.2659917 0.15995017 72
0.22116283 1.2645651 0.010366729 27
0.20829332 1.2839206 0.032343622 30
0.22677687 1.2561216 0.051073264 55
0.22686157 1.2559943 0.071659178 80
0.24156785 1.2338763 0.088229038 100
0.23367745 1.2457433 0.11105084 98
0.23601601 1.2422262 0.13092151 96
0.22376224 1.2606556 0.15787962 73
0.22958425 1.2557515 0.0101573 42
0.20358077 1.2951729 0.032971654 29
0.2241725 1.2639557 0.051770512 54
0.23301718 1.2505472 0.070684217 81
0.23783165 1.2432485 0.089793384 100
0.23758531 1.2436218 0.1102876 85
0.23560286 1.2466273 0.13182132 94
0.22237161 1.266686 0.15943253 73
0.21366811 1.2835777 0.010715778 39
0.21845472 1.2762685 0.031715591 30
0.21817154 1.276701 0.05299069 52
0.24113771 1.2416316 0.069221787 83
0.24048495 1.2426285 0.089480512 97
0.24130875 1.2413704 0.10952436 92
0.24786142 1.2313646 0.1273223 97
0.22613722 1.2645373 0.15839726 73
0.22418046 1.2713349 0.010436539 41
0.23763785 1.2506281 0.03004084 33
0.2221137 1.2745149 0.05264207 53
0.24603111 1.2377136 0.068490572 50
0.24428949 1.2403934 0.088854775 98
0.23867667 1.2490298 0.11105084 84
0.25159758 1.2291485 0.12642249 99
0.22154909 1.2753837 0.16150309 70
0.23451778 1.2589701 0.0101573 42
0.24789587 1.2382352 0.029203463 34
0.23459023 1.2588578 0.050898954 55
0.23789784 1.2537313 0.070684217 65
0.25548959 1.2264657 0.086038955 87
0.24133128 1.2484097 0.11066922 85
0.24995229 1.2350479 0.1277722 89
0.23370031 1.2602371 0.1563267 74
0.24269608 1.2499639 0.0099478718 58
0.24845523 1.2409689 0.029308135 68
0.23414996 1.2633116 0.051247578 55
0.24279946 1.2498025 0.069953002 49
0.24856356 1.2407997 0.08854191 56
0.24723756 1.2428708 0.10914274 85
0.25367901 1.2328101 0.12687239 82
0.23333013 1.2645922 0.15736198 74
0.24643472 1.247605 0.0098780617 73
0.24251914 1.2537655 0.03004084 66
0.23792508 1.2609934 0.050898954 55
0.25078124 1.2407665 0.068490572 67
0.25012645 1.2417967 0.08854191 70
0.24670109 1.2471859 0.10990598 92
0.25207937 1.2387242 0.12822211 81
0.22771806 1.2770523 0.16098544 64
0.24515674 1.2538955 0.0099827768 87
0.25191566 1.2431667 0.029308135 100
0.23246461 1.2740425 0.052119136 81
0.24844101 1.2486823 0.069465525 49
0.24991694 1.2463394 0.089167647 70
0.25175846 1.2434163 0.10876112 72
0.2612344 1.2283745 0.12507279 83
0.23490471 1.2701693 0.15839726 73
0.23828092 1.2684675 0.010262015 84
0.25560436 1.2407658 0.029098792 100
0.23413783 1.2750927 0.052119136 81
0.24792498 1.2530458 0.069953002 49
0.25568768 1.2406325 0.087916173 70
0.24500242 1.2577193 0.11181407 100
0.26688904 1.2227205 0.12327318 100
0.23656505 1.2712114 0.15839726 73
0.24837273 1.2559067 0.0099827768 87
0.2592738 1.2383456 0.028889447 100
0.24001765 1.2693663 0.051421888 82
0.2495285 1.2540449 0.069953002 49
0.26350087 1.231536 0.086038955 72
0.25490481 1.2453839 0.10876112 79
0.26222527 1.233591 0.12597258 90
0.24128544 1.267324 0.15684435 66
0.24788773 1.2603092 0.010052586 86
0.25035125 1.2563111 0.029936166 100
0.24063015 1.2720878 0.051596198 82
0.24905261 1.2584187 0.070440479 49
0.25881547 1.2425741 0.087916173 70
0.2472139 1.2614027 0.11219569 84
0.26171961 1.2378609 0.12687239 99
0.24698997 1.2617662 0.15477379 67
0.24968684 1.2614132 0.010052586 86
0.25630161 1.2505891 0.029517479 100
0.24455038 1.2698182 0.051247578 82
0.2518799 1.2578245 0.07019674 82
0.26466981 1.236896 0.086664692 57
0.25515953 1.252458 0.10990598 85
0.26546872 1.2355887 0.12597258 99
0.24073541 1.2760607 0.15891489 65
0.25546643 1.2555673 0.0099129668 87
0.25996858 1.2481451 0.029308135 100
0.24827611 1.2674212 0.050898954 83
0.25761729 1.2520214 0.069221787 33
0.26621965 1.2378397 0.086664692 71
0.25777921 1.2517545 0.10952436 78
0.27206755 1.2281988 0.12372308 83
0.25443813 1.2572626 0.15270324 68
0.255272 1.2601222 0.0099827768 87
0.26798221 1.2389855 0.028680105 100
0.24608129 1.275406 0.051596198 82
0.25230932 1.265049 0.070927955 48
0.26801813 1.2389258 0.086664692 71
0.25659597 1.2579205 0.11066922 78
0.2728247 1.2309327 0.12417299 83
0.24834681 1.2716385 0.15684435 66
0.2527996 1.2679653 0.010122396 99
0.26646826 1.2450632 0.028994121 100
0.24878001 1.2747002 0.051421888 82
0.25802198 1.2592151 0.069953002 49
0.27362415 1.2330734 0.085413218 58
0.2622402 1.2521474 0.10914274 85
0.27435473 1.2318492 0.12417299 83
0.2539722 1.2660006 0.15477379 67
0.26277497 1.2552843 0.0098431576 88
0.26515949 1.2512555 0.029308135 100
0.25976512 1.2603697 0.049853086 85
0.26386139 1.2534487 0.068978049 50
0.27331096 1.2374831 0.086038955 58
0.26200935 1.2565778 0.10990598 92
0.27704191 1.2311795 0.12372308 83
0.26366392 1.2537824 0.15063268 70
0.26438582 1.2562342 0.0098431576 88
0.26979169 1.2470311 0.028994121 100
0.25836551 1.2664832 0.05037602 84
0.2694878 1.2475483 0.068003096 68
0.27086073 1.2452111 0.087290429 71
0.27257371 1.2422949 0.10647142 73
0.27561173 1.237123 0.12507279 92
0.25646368 1.2697209 0.15529142 75
0.26809841 1.2537726 0.0097733475 89
0.27447525 1.2428293 0.028680105 100
0.25608787 1.274384 0.051073264 83
0.27115646 1.2485247 0.068003096 51
0.27848849 1.2359421 0.085413218 58
0.27125868 1.2483492 0.10761628 79
0.28116849 1.231343 0.12327318 85
0.25918245 1.2690734 0.15477379 67
0.27070525 1.2529737 0.0097384425 90
0.2780444 1.2402824 0.02847076 100
0.25676468 1.2770805 0.051247578 82
0.27075735 1.2528836 0.068490572 50
0.28003511 1.2368399 0.085413218 73
0.26891524 1.2560692 0.10914274 85
0.2875776 1.2237971 0.12102367 94
0.26277322 1.2666903 0.15373851 68
0.26758978 1.2627171 0.0099129668 87
0.28382492 1.2343919 0.028052073 100
0.27258468 1.2540027 0.048807215 88
0.27458784 1.2505077 0.068003096 51
0.28084734 1.2395868 0.08572609 58
0.2688311 1.2605515 0.10990598 85
0.28835291 1.226492 0.12147357 77
0.26758978 1.2627171 -0.0099129668 87
0.27236781 1.2543809 0.14959741 70
0.27219117 1.2584363 0.0098082526 74
0.27944171 1.2456886 0.028680105 100
0.26631096 1.2687747 0.050201707 85
0.26734996 1.266948 0.07019674 82
0.28533587 1.2353256 0.084787481 73
0.27434188 1.254655 0.10837951 87
0.28505087 1.2358267 0.12372308 83
0.26824498 1.2653744 0.15270324 68
0.28265828 1.2436816 0.0094941091 92
0.27905729 1.2500619 0.028889447 100
0.27090436 1.2645074 0.049678773 86
0.27778071 1.2523237 0.068003096 51
0.28493857 1.2396413 0.085413218 58
0.28174037 1.245308 0.1060898 88
0.2904284 1.2299144 0.12192347 93
0.26419207 1.2764003 0.15580906 67
0.27836797 1.2550339 0.0097035384 90
0.28455433 1.2439873 0.02847076 100
0.2628105 1.2828138 0.051421888 82
0.27744174 1.2566878 0.068490572 50
0.28360176 1.2456882 0.086351827 58
0.27756229 1.2564726 0.10837951 87
0.29385933 1.2273721 0.12102367 86
0.27055123 1.2689917 -0.0099827768 86
0.26398507 1.2807164 0.15684435 66
0.27820617 1.2595228 0.0097733475 89
0.29017141 1.2379724 0.028052073 100
0.27146199 1.2716696 0.050201707 56
0.285009 1.2472703 0.067028143 51
0.29110038 1.2362993 0.084474608 59
0.27934712 1.2574677 0.10837951 79
0.29932123 1.2214928 0.11922406 87
0.27529407 1.2647676 -0.0098780617 97
0.27148539 1.2716274 0.15373851 68
0.27500653 1.2691789 0.0099478718 73
0.28979728 1.2423302 0.028261416 100
0.27601123 1.2673552 0.049678773 86
0.27414116 1.2707498 0.07019674 66
0.29169494 1.2388854 0.084787481 73
0.28285971 1.2549235 0.10761628 79
0.29611832 1.2308559 0.12147357 77
0.2779012 1.2639244 -0.0098431576 87
0.27687901 1.26578 0.15166797 69
0.28450567 1.2561432 0.0096686333 90
0.28770101 1.2502923 0.028680105 100
0.28452069 1.2561157 0.048458595 88
0.28454155 1.2560775 0.068003096 51
0.29530886 1.2363616 0.084161744 59
0.28934383 1.2472842 0.10570818 81
0.29687509 1.2334937 0.12192347 85
0.28517959 1.2549093 0.1480445 79
0.28897715 1.2517464 0.0095639192 91
0.28168333 1.2652079 0.029517479 100
0.27949005 1.2692559 0.049678773 86
0.28993762 1.2499738 0.067028143 51
0.29215148 1.2458878 0.08572609 58
0.28999272 1.249872 0.1060898 73
0.29748511 1.2360439 0.12237337 76
0.27945074 1.2693284 -0.0099129668 87
0.27758586 1.2727702 0.15322088 76
0.28601363 1.2615082 0.0097384425 90
0.29673067 1.2415545 0.028052073 100
0.27849355 1.2755096 0.050201707 85
0.2935771 1.247426 0.066540658 52
0.29950553 1.2363881 0.083848871 59
0.29268223 1.2490922 0.10570818 81
0.27939034 1.27384 -0.0099827768 86
0.28582907 1.2618519 0.14959741 78
0.29337114 1.2518369 0.0095290141 76
0.2927449 1.2530127 0.028680105 100
0.28119636 1.2746959 0.050027397 85
0.29151252 1.2553265 0.067515619 51
0.29435614 1.2499875 0.10570818 73
0.28491083 1.2677217 -0.0098431576 87
0.28391498 1.2695913 0.15166797 69
0.29131916 1.2598027 0.0096686333 90
0.29816341 1.2468433 0.028261416 100
0.28482062 1.2721075 0.049678773 86
0.28764594 1.2667578 0.068978049 67
0.29328263 1.2560849 0.10685304 73
0.29412076 1.254498 -0.0095639192 90
0.28926924 1.2636842 0.14959741 78
0.2976689 1.2518452 0.0094941091 92
0.29612321 1.2547969 0.028680105 100
0.29304501 1.260675 0.048458595 59
0.28753972 1.2711878 0.069465525 49
0.28653663 1.2731031 -0.0099129668 87
0.29278654 1.2611685 0.14856213 71
0.29974192 1.2521787 0.02847076 100
0.2920917 1.2669187 0.048981529 87
0.29486519 1.2615747 0.068003096 51
0.287469 1.2758253 0.15270324 68
0.29929337 1.2571948 0.0095639192 91
0.29838604 1.2589579 0.048109971 59
0.29453993 1.266432 0.14959741 70
0.2955671 1.268707 0.048981529 58
0.2946341 1.2705357 -0.0098082526 100
0.29276258 1.274204 0.15166797 69
0.29728541 1.2696397 0.0097733475 100
0.29548028 1.2732085 -0.0098431576 100
0.29446051 1.279412 -0.0099478718 100
