# .PCD v0.7 - Point Cloud Data file format
VERSION 0.7
FIELDS x y z intensity
SIZE 4 4 4 4
TYPE F F F F
COUNT 1 1 1 1
WIDTH 731
HEIGHT 1
VIEWPOINT 0 0 0 1 0 0 0
POINTS 731
DATA ascii
-1.182475 0.16808055 0.062593803 30
-1.0883403 0.15857768 0.019197647 6
-1.0146286 0.1512752 0.017906168 6
-1.0022336 0.15300527 0.01769674 3
-1.1498415 0.17985478 0.0203146 48
0.057721317 0.011957288 0.015776975 100
0.055057734 0.0078557134 0.047625721 51
0.052400351 0.0095880032 0.047625721 29
0.046717286 0.0061516166 0.047939736 20
0.035710394 0.0014731288 0.048463095 68
0.039862335 0.013119996 0.047835063 37
0.046199799 0.028123617 0.046997689 31
0.031339705 0.011664212 0.048149079 17
0.029697299 0.015214682 0.04804441 9
0.022641182 0.010381639 0.048463095 8
0.01541394 0.0056805015 0.048881784 7
0.033584893 0.036848783 0.046997689 10
0.054023683 0.071319044 0.044904251 13
-1.0582395 1.1377451 0.02879647 3
-1.0192869 1.1288382 0.084365562 7
-1.0368257 1.1328486 0.14241248 6
-1.0355842 1.1381019 0.028412517 10
-0.98112351 1.1254586 0.082376793 16
-1.0239689 1.1354054 0.14136662 29
-0.99925631 1.1353723 0.02778423 23
-0.99736875 1.134927 0.083318844 84
-1.0129879 1.1386106 0.14049506 81
-0.9805333 1.1363186 0.027470088 37
-1.009747 1.1433105 0.084051549 100
-1.0156324 1.1447192 0.14084367 87
-0.97924525 1.1416589 0.027470088 45
-0.97544128 1.1407344 0.08227212 100
-1.0026987 1.1473589 0.13979781 84
-0.99728662 1.152055 0.027819136 26
-0.98182839 1.1482381 0.082690813 100
-1.0013051 1.1530473 0.13979781 86
-0.97848624 1.1530786 0.027504992 23
-0.98049873 1.1535828 0.082690813 58
-0.99416059 1.157007 0.13927488 87
-0.9732638 1.1574258 0.027435184 36
-0.986893 1.1608922 0.083109498 37
-0.9928003 1.1623946 0.13927488 78
-0.95641202 1.1587433 0.027155945 61
-0.98745304 1.1667536 0.083214171 52
-0.98370451 1.1657863 0.13857763 91
-0.96084946 1.1655185 0.027260659 66
-0.96287292 1.1660483 0.081958108 100
-0.98424107 1.1716421 0.13875194 91
-0.95559412 1.1697636 0.027190849 75
-0.95569021 1.1697891 0.081644088 92
-0.97897834 1.1759725 0.13840333 100
-0.95619124 1.1752737 0.027225753 81
-0.95242745 1.174261 0.081539422 98
-0.96415597 1.1774168 0.13718314 100
-0.95476741 1.1805289 0.027225753 92
-0.94908041 1.1789773 0.081434749 100
-0.95888036 1.1816509 0.13683452 100
-0.94176108 1.1825807 0.027016325 93
-0.95149356 1.1852723 0.081644088 100
-0.96703571 1.1895709 0.13770607 92
-0.94423586 1.1886041 0.027086135 93
-0.93856901 1.1870165 0.081016064 88
-0.95796186 1.1924493 0.13700883 99
-0.95430762 1.1970943 0.027295563 79
-0.92749757 1.1894827 0.080492698 80
-0.95647806 1.1977105 0.13700883 100
-0.96441406 1.2053957 0.027504992 52
-0.92609841 1.1943798 0.080492698 48
-0.94356257 1.1994008 0.13596296 100
-0.94353408 1.2056082 0.027155945 44
-0.92637545 1.2006037 0.080597371 24
-0.94381541 1.2056904 0.13613728 87
-0.92673856 1.2060285 0.026876707 68
-0.92685491 1.2060628 0.080702044 26
-0.93854076 1.2095132 0.13578865 84
-0.92129904 1.2102915 0.026806897 78
-0.91950649 1.2097551 0.080388032 30
-0.94073731 1.2161084 0.13613728 94
-0.92174464 1.2157477 0.026841801 75
-0.91421705 1.2134678 0.080178685 74
-0.93924981 1.2210494 0.13613728 98
-0.91826802 1.220296 0.026806897 81
-0.91075069 1.2179905 0.080074012 100
-0.92052287 1.2209876 0.13456847 99
-0.90530759 1.2216065 0.026597468 88
-0.91879469 1.2257918 0.080597371 88
-0.91901928 1.2258615 0.13456847 82
-0.89982718 1.2257382 0.026527658 88
-0.91330355 1.2299743 0.080388032 70
-0.92114002 1.2324376 0.1349171 52
-0.90211934 1.2317554 0.026597468 81
-0.90035015 1.2311928 0.07976 74
-0.9195984 1.2373135 0.1349171 43
-0.90041715 1.2370746 0.026597468 83
-0.90055114 1.2371178 0.079864666 91
-0.91218632 1.2408645 0.13439415 45
-0.90266305 1.2431203 0.026667276 99
-0.89519602 1.2406883 0.079655327 100
-0.91251129 1.2463278 0.13456847 59
-0.88192815 1.242179 0.02631823 100
-0.8991515 1.2478585 0.079969339 100
-0.90129477 1.2485652 0.13369691 78
-0.87656039 1.2456598 0.02624842 100
-0.89566416 1.2520297 0.079864666 100
-0.90726012 1.2558961 0.13439415 82
-0.87480742 1.2508852 0.02624842 93
-0.88253349 1.2534928 0.079236634 100
-0.90546948 1.261234 0.13439415 77
-0.87699002 1.256899 0.02631823 99
-0.88470274 1.2595305 0.07944598 100
-0.9038325 1.2660577 0.13439415 87
-0.87906235 1.2631819 0.026388038 96
-0.87920922 1.2632326 0.079236634 100
-0.87949139 1.2633299 0.13230242 100
-0.86986655 1.2652836 0.02624842 81
-0.8775658 1.2679693 0.079236634 97
-0.89477855 1.2739735 0.13387123 61
-0.86041206 1.2680683 0.0261088 79
-0.8624602 1.2687917 0.078503937 59
-0.89095408 1.2788539 0.13369691 36
-0.86063606 1.2734149 0.026143705 88
-0.84951204 1.2694449 0.077875905 25
-0.89113528 1.2842991 0.13387123 36
-0.8569892 1.277657 0.0261088 96
-0.85903233 1.2783943 0.078503937 38
-0.88370889 1.2872978 0.13334829 28
-0.85905546 1.28369 0.02617861 100
-0.85546225 1.28238 0.078399263 74
-0.86888248 1.2872725 0.1321281 16
-0.84590596 1.2847002 0.025969181 100
-0.86481851 1.2916735 0.079027295 100
-0.86323828 1.291091 0.13177948 11
-0.83294791 1.2851381 0.025759751 100
-0.85559422 1.2935737 0.07860861 95
-0.87270492 1.2999473 0.13282534 1
-0.8349753 1.2911298 0.025829561 100
-0.83141857 1.2897916 0.077352546 44
-0.88212818 1.3088722 0.13387123 1
-0.84071654 1.2985613 0.025969181 88
-0.83342129 1.2957888 0.077561885 53
-0.85053474 1.3022929 0.13108224 11
-0.83671719 1.303422 0.025934275 71
-0.83875591 1.3042061 0.077980578 63
-0.85582489 1.3107719 0.13177948 48
-0.82748467 1.3051209 0.025794657 75
-0.83697671 1.3088084 0.077980578 72
-0.85030955 1.313988 0.13143086 100
-0.81434625 1.3057805 0.025585229 90
-0.83685166 1.3146183 0.078085244 63
-0.83903378 1.3154753 0.1305593 100
-0.82185644 1.3139875 0.025759751 100
-0.82204169 1.3140609 0.077352546 85
-0.83166105 1.3178753 0.13003637 99
-0.81994921 1.3187728 0.025759751 100
-0.82198817 1.3195896 0.077457212 97
-0.8352887 1.3249176 0.1305593 100
-0.81812185 1.3233128 0.025759751 100
-0.81645507 1.3226385 0.077247873 97
-0.82974678 1.3280141 0.13021068 100
-0.80507499 1.3235476 0.025550323 100
-0.80897075 1.3251392 0.076933853 100
-0.82779056 1.3328271 0.13021068 100
-0.7995345 1.3265135 0.025480513 100
-0.81081527 1.3311654 0.0771432 99
-0.81302315 1.3320758 0.1289905 100
-0.80107921 1.3332301 0.025550323 100
-0.80127662 1.3333125 0.076724514 100
-0.81085485 1.3373053 0.1289905 100
-0.80657667 1.3408096 0.025689943 100
-0.78467375 1.3315935 0.075887136 100
-0.81447548 1.3441331 0.12951343 100
-0.77288383 1.3266325 0.17622307 20
-0.80457598 1.3455415 0.025689943 93
-0.79924911 1.3432782 0.07682918 81
-0.79779321 1.3426596 0.12811895 100
-0.76910573 1.3304706 0.17597933 20
-0.80633563 1.3516064 0.025759751 60
-0.82303923 1.3587691 0.07829459 42
-0.80138022 1.3494815 0.12864187 37
-0.8073774 1.3520532 0.18134159 10
-0.80602974 1.3573685 0.025794657 90
-0.8190394 1.3630037 0.078189917 85
-0.82484263 1.3655174 0.13108224 45
-0.7924841 1.3515012 0.17963541 12
-0.79491299 1.3578576 0.025620133 100
-0.80791503 1.3635406 0.077666558 100
-0.8228603 1.3700733 0.13108224 100
-0.78145367 1.3519745 0.17841671 28
-0.7982375 1.3652058 0.025724847 100
-0.80207616 1.3669004 0.077457212 100
-0.818829 1.3742964 0.13090792 100
-0.76478368 1.350437 0.17646681 33
-0.80538958 1.3737419 0.025899371 100
-0.80921167 1.3754442 0.077980578 100
-0.80589765 1.3739681 0.12986206 100
-0.77373165 1.3596401 0.17792924 30
-0.790402 1.372963 0.025655037 100
-0.80880493 1.3812413 0.078085244 100
-0.80367488 1.3789337 0.12986206 100
-0.76794094 1.3628592 0.17744176 20
-0.78657418 1.3765782 0.025620133 100
-0.81404537 1.3890455 0.078503937 100
-0.80527669 1.385066 0.13021068 100
-0.775006 1.3713282 0.17866045 19
-0.79343146 1.3856382 0.025794657 100
-0.80632025 1.3915446 0.078189917 100
-0.81388086 1.3950093 0.13125655 100
-0.75113755 1.3662567 0.17573559 15
-0.80408841 1.3959634 0.026038991 100
-0.80425161 1.396039 0.078189917 100
-0.80456668 1.3961847 0.1305593 100
-0.7635681 1.3772318 0.1776855 11
-0.80733174 1.4032226 0.026143705 100
-0.8092981 1.40414 0.07860861 100
-0.80598384 1.4025939 0.13090792 100
-0.77403325 1.3876882 0.17939167 8
-0.79617757 1.4034631 0.025969181 100
-0.80899483 1.4094944 0.078713275 100
-0.80027312 1.4053903 0.1305593 100
-0.77377373 1.3929206 0.17963541 5
-0.78492624 1.4038696 0.025794657 100
-0.81036276 1.4159477 0.078922622 100
-0.80164653 1.411809 0.13090792 100
-0.76262528 1.3932803 0.17841671 3
-0.7972452 1.4152026 0.026073895 100
-0.80100781 1.4170046 0.078503937 100
-0.80669862 1.4197299 0.13160518 100
-0.79655808 1.4212415 0.0261088 100
-0.79851359 1.4221873 0.078503937 100
-0.81495565 1.4301393 0.13265105 100
-0.79798573 1.4274566 0.02617861 100
-0.80531901 1.4310333 0.079027295 100
-0.80917746 1.4329152 0.13230242 100
-0.79209405 1.4303921 0.0261088 100
-0.80479544 1.4366419 0.079131968 100
-0.80685526 1.4376554 0.13230242 100
-0.78631419 1.4330614 0.026038991 100
-0.80973381 1.4446819 0.079550654 100
-0.8046338 1.4421513 0.13230242 100
-0.78733402 1.439979 0.0261088 100
-0.7982046 1.4454249 0.079027295 100
-0.80560559 1.4491327 0.13265105 100
-0.79581445 1.4498198 0.02631823 100
-0.79774016 1.4507926 0.079131968 100
-0.81223792 1.4581158 0.1335226 100
-0.79343313 1.4545133 0.02631823 100
-0.79891473 1.4573064 0.079341307 100
-0.81160289 1.4637713 0.13369691 100
-0.79471332 1.4607921 0.026388038 100
-0.80373436 1.4654262 0.07976 100
-0.8004337 1.4637307 0.13282534 100
-0.78152019 1.4601946 0.02617861 100
-0.80117637 1.4703833 0.07976 100
-0.80495745 1.4723432 0.1335226 100
-0.79340249 1.4720154 0.026457848 100
-0.79530615 1.4730101 0.079550654 100
-0.80968422 1.4805236 0.13421984 100
-0.79448193 1.478565 0.026527658 93
-0.78577632 1.4739771 0.079131968 100
-0.81953388 1.4917679 0.13544002 100
-0.79742271 1.4858341 0.026632372 30
-0.78872591 1.4812138 0.07944598 29
-0.79777843 1.4860232 0.1335226 65
0.1282737 1.2924645 0.13051336 5
0.15831679 1.2582017 0.010925206 13
0.13754639 1.2840903 0.03454173 27
0.14852652 1.2704045 0.056128297 24
0.16184399 1.2538054 0.098240845 12
0.14579728 1.2738063 0.12555231 18
0.19878489 1.2077614 0.12957181 8
0.1522626 1.2657478 0.17030293 7
0.16758272 1.2502481 0.010715778 39
0.17302522 1.2434132 0.031715591 61
0.1503633 1.2718725 0.056128297 48
0.15182695 1.2700346 0.078483857 14
0.15869778 1.2614059 0.099492319 12
0.14886948 1.2737485 0.12517071 72
0.18218297 1.2319127 0.13632034 15
0.1480653 1.2747585 0.17289113 14
0.15925369 1.2640611 0.010995016 100
0.1684024 1.2524934 0.032238949 100
0.14461416 1.2825713 0.057174169 94
0.17934683 1.2386552 0.073365346 31
0.17013252 1.2503059 0.096989371 25
0.16028506 1.2627571 0.12211776 100
0.18371674 1.23313 0.13632034 45
0.14734459 1.279119 0.1739264 35
0.15859771 1.268636 0.011064826 100
0.17387301 1.2491755 0.031924933 100
0.14649555 1.2840538 0.057174169 100
0.16881013 1.2556256 0.075802729 30
0.18165302 1.2392641 0.094486415 39
0.16573036 1.2595491 0.1209729 100
0.18902642 1.2298706 0.13497064 30
0.15517738 1.2729933 0.1713382 43
0.16517133 1.2636229 0.010925206 100
0.17055213 1.2567208 0.032343622 90
0.15800238 1.2728186 0.055779677 100
0.16798159 1.2600181 0.076290213 29
0.18078211 1.2435988 0.095112152 25
0.17218417 1.2546275 0.11944643 100
0.18096814 1.2433602 0.13856985 29
0.15328422 1.2788706 0.17289113 42
0.17310163 1.2571222 0.010750682 79
0.16989419 1.2612677 0.032552965 59
0.16594407 1.2663729 0.054908119 75
0.17828351 1.2504249 0.074584037 30
0.17526752 1.2543228 0.096989371 25
0.17996994 1.2482452 0.11753834 33
0.1850906 1.241627 0.13767004 22
0.15278763 1.2833769 0.1739264 35
0.17585254 1.2567184 0.010715778 66
0.16900495 1.2656262 0.032762308 58
0.16264829 1.2738955 0.055605363 73
0.18100446 1.2500165 0.074340299 46
0.18642214 1.2429688 0.094486415 39
0.18267074 1.2478487 0.11715672 13
0.18894938 1.2396811 0.13677025 22
0.15087029 1.2892172 0.17547931 63
0.17278737 1.2644459 0.010855397 52
0.17445835 1.2622555 0.032448292 29
0.16812316 1.2705597 0.055082429 50
0.18637842 1.2466309 0.073609084 62
0.1929507 1.238016 0.093234941 53
0.18918779 1.2429484 0.11563025 13
0.20249322 1.2255077 0.13227122 39
0.16449353 1.2753174 0.17030293 58
0.17442906 1.2656941 0.010855397 52
0.18815431 1.2475789 0.031401575 31
0.16858196 1.2734113 0.055256739 49
0.18076816 1.2573276 0.075071514 60
0.20285523 1.2281761 0.091044858 54
0.18957251 1.2457072 0.11601187 13
0.20400566 1.2266576 0.13227122 39
0.17317125 1.2673542 0.16719711 67
0.18105549 1.2606741 0.010715778 39
0.16830158 1.2776361 0.03328567 28
0.18000868 1.2620664 0.053862248 51
0.18494278 1.2555043 0.074584037 76
0.19622675 1.2404974 0.093234941 53
0.20311722 1.2313334 0.11219569 14
0.20333943 1.2310379 0.13317102 38
0.17615768 1.267188 0.16667947 67
0.18755525 1.2555491 0.010576159 67
0.17963374 1.2661612 0.032448292 29
0.18649584 1.2569684 0.053165004 52
0.19376442 1.247231 0.073121607 78
0.19432631 1.2464783 0.094173551 52
0.20238093 1.235688 0.11295892 13
0.20495084 1.2322451 0.13317102 31
0.18251789 1.2622974 0.16460891 69
0.19052765 1.2552674 0.010541254 81
0.20760956 1.2322078 0.030145511 65
0.1752376 1.2759081 0.055082429 50
0.19433436 1.2501285 0.073365346 100
0.19137177 1.2541279 0.095425025 63
0.2052587 1.2353814 0.1125773 13
0.21360722 1.2241113 0.13047162 32
0.17972502 1.2698504 0.16667947 82
0.18739894 1.2628999 0.010680873 80
0.20559362 1.238167 0.030459527 65
0.17455602 1.2803578 0.055431053 74
0.19592845 1.2513053 0.073365346 93
0.20468476 1.2394025 0.092296332 80
0.20680386 1.236522 0.1125773 13
0.21742451 1.2220848 0.12957181 24
0.17795032 1.275744 0.16823238 82
0.18431696 1.2705585 0.010820492 78
0.20596981 1.2409194 0.030564198 64
0.18095174 1.2751648 0.054733805 100
0.20338154 1.2444623 0.072146654 79
0.20507798 1.2421402 0.092609204 100
0.21761781 1.2249752 0.10952436 14
0.23157072 1.205876 0.12462288 16
0.18532747 1.2691753 0.16564418 68
0.19545829 1.2588813 0.010541254 81
0.21113339 1.2372668 0.030250182 98
0.19558394 1.2587081 0.05281638 100
0.19455117 1.2601323 0.074340299 92
0.20556846 1.2449404 0.092922069 92
0.21344507 1.2340792 0.11143246 14
0.22165352 1.2227606 0.1291219 16
0.1995478 1.2532424 0.15995017 72
0.19941863 1.256809 0.010471444 82
0.21268475 1.2383881 0.030250182 65
0.18789181 1.2728149 0.054210871 100
0.21125937 1.2403673 0.071171694 65
0.20483652 1.2492859 0.093547814 100
0.20810199 1.2447515 0.11372216 13
0.23796147 1.2032894 0.12327318 8
0.19889429 1.2575371 0.16098544 72
0.19887993 1.2613447 0.010541254 95
0.21208128 1.2428712 0.030459527 65
0.18742037 1.2773807 0.054559495 100
0.21067733 1.2448359 0.071659178 80
0.20659551 1.2505478 0.093547814 100
0.21212727 1.2428068 0.11295892 20
0.24521676 1.1965026 0.12102367 17
0.19843715 1.2619643 0.16202073 70
0.2051402 1.255983 0.010401634 83
0.22058627 1.2342162 0.029831495 99
0.20294112 1.2590821 0.052467756 100
0.2099562 1.2491963 0.072146654 79
0.21504998 1.242018 0.091670595 100
0.20688006 1.2535312 0.11524864 27
0.22633311 1.2261176 0.1291219 16
0.19559854 1.2694293 0.16409127 69
0.19992942 1.2669929 0.010611063 94
0.21875826 1.2402618 0.030145511 98
0.20235577 1.2635483 0.05281638 100
0.21391726 1.2471344 0.071659178 64
0.22124985 1.2367244 0.090419121 100
0.19500324 1.2739866 0.11982805 63
0.22680503 1.2288378 0.12957181 32
0.20401892 1.2611871 0.16098544 72
0.20616391 1.2615964 0.010471444 96
0.21803007 1.2446309 0.030354854 97
0.20399433 1.2646984 0.05281638 100
0.21550134 1.2482464 0.071659178 64
0.2216672 1.2394308 0.090731993 100
0.20342788 1.2655083 0.11753834 100
0.22386071 1.2362946 0.13137141 63
0.20786414 1.2591655 0.15995017 72
0.21700516 1.2496525 0.010192205 99
0.21513283 1.2523494 0.030773543 96
0.19776967 1.2773597 0.054036561 100
0.21717277 1.2494111 0.071659178 64
0.21880171 1.2470647 0.091983467 100
0.22419304 1.2392989 0.11105084 98
0.21993369 1.2454342 0.13362093 93
0.20957372 1.2603569 0.15995017 72
0.21065298 1.262279 0.010436539 100
0.23147047 1.2320799 0.029412808 100
0.20171568 1.2752441 0.053687938 100
0.21876439 1.2505121 0.071659178 80
0.22487009 1.2416548 0.090731993 95
0.22352254 1.2436097 0.11181407 84
0.22814822 1.2368994 0.13092151 96
0.20791239 1.2662548 0.16150309 70
0.20915988 1.2685307 0.010541254 95
0.22648364 1.243192 0.03004084 66
0.2070317 1.2716435 0.053165004 100
0.21725073 1.2566966 0.072390392 100
0.23225793 1.2347462 0.089167647 100
0.22755957 1.2416184 0.11105084 91
0.23654246 1.2284795 0.12822211 97
0.21091071 1.2659699 0.16098544 72
0.21643057 1.2613857 0.010366729 69
0.22693282 1.2459147 0.030145511 65
0.20757806 1.2744265 0.053339314 78
0.22444117 1.2495853 0.071171694 97
0.23380083 1.2357974 0.089167647 100
0.22250932 1.252431 0.11334054 96
0.23478103 1.2343534 0.12957181 96
0.21147221 1.26869 0.16150309 70
0.21823385 1.2626051 0.010366729 41
0.21417525 1.2686312 0.031506244 31
0.21722001 1.2641103 0.052119136 54
0.23285452 1.2408963 0.069709264 83
0.23771715 1.2336763 0.08854191 100
0.22647312 1.2503715 0.1125773 100
0.23213071 1.241971 0.13137141 94
0.21653977 1.2651204 0.15995017 72
0.21764609 1.2670271 0.010436539 41
0.23359379 1.2431778 0.029831495 33
0.21221542 1.2751485 0.053165004 52
0.23221093 1.2452457 0.07019674 82
0.23376629 1.2429197 0.090106249 100
0.23243305 1.2449136 0.11105084 91
0.23694724 1.2381628 0.13002171 96
0.22247884 1.2597998 0.15787962 73
0.22831362 1.2549109 0.0101573 28
0.2419548 1.2343483 0.029203463 34
0.22398189 1.2614408 0.051596198 54
0.23395494 1.2464073 0.07019674 66
0.23877779 1.2391373 0.089167647 98
0.23851705 1.2395303 0.10952436 92
0.23866525 1.2393069 0.13002171 100
0.2189365 1.2690461 0.1604678 72
0.22332391 1.2659953 0.010366729 27
0.21713045 1.2753987 0.031715591 30
0.22670925 1.2608552 0.051421888 55
0.23116896 1.254084 0.071171694 81
0.24250829 1.2368674 0.08854191 98
0.24223554 1.2372816 0.10876112 87
0.2477265 1.2289445 0.12687239 99
0.22271845 1.2669145 0.15943253 73
0.22514403 1.2671893 0.010366729 41
0.21680012 1.2799594 0.031924933 30
0.2285105 1.2620368 0.051421888 55
0.22317311 1.2702056 0.073365346 100
0.24746299 1.2330302 0.087603301 99
0.23428553 1.2531981 0.11219569 91
0.24408105 1.2382063 0.1291219 96
0.22876865 1.2616417 0.15736198 74
0.23550043 1.2548425 0.010087491 43
0.23153594 1.2609543 0.03066887 32
0.23664945 1.2530711 0.05037602 56
0.23887739 1.2496364 0.07019674 82
0.2447001 1.24066 0.088854775 98
0.24443683 1.2410657 0.10914274 85
0.24351433 1.2424879 0.13002171 88
0.23355469 1.2578421 0.15580906 75
0.24377203 1.2459021 0.0098780617 59
0.24846816 1.2386039 0.029203463 68
0.23195335 1.2642692 0.051421888 55
0.23956326 1.2524428 0.070440479 49
0.24749613 1.2401146 0.08854191 84
0.24616542 1.2421826 0.10914274 85
0.24946618 1.2370529 0.12822211 97
0.23534486 1.2589986 0.15580906 75
0.24104589 1.2536559 0.010017681 72
0.25002375 1.2396014 0.029203463 68
0.23037648 1.2703583 0.051944822 54
0.25185114 1.2367406 0.068003096 68
0.24905676 1.2411151 0.08854191 70
0.24878979 1.241533 0.10876112 79
0.25521287 1.231478 0.12642249 82
0.22760841 1.2746917 0.1604678 72
0.23738301 1.2631762 0.010192205 85
0.2484569 1.2457063 0.029517479 100
0.22465813 1.2832506 0.053165004 79
0.24710545 1.2478383 0.069465525 49
0.25704861 1.2321522 0.086664692 71
0.23887554 1.2608216 0.11295892 100
0.25786886 1.2308582 0.12597258 99
0.22833779 1.2774456 0.16098544 64
0.23795515 1.2659026 0.01022711 56
0.25003606 1.2467036 0.029517479 100
0.23697302 1.2674634 0.051421888 82
0.24446279 1.2555606 0.070440479 49
0.26068687 1.2297773 0.086038955 72
0.24991518 1.2468957 0.10952436 85
0.257323 1.2351232 0.12687239 99
0.23825324 1.2654289 0.15684435 74
0.24921983 1.2517229 0.0099129668 87
0.25170189 1.2477478 0.029517479 100
0.24082181 1.2651731 0.051073264 83
0.24826229 1.2532566 0.069953002 49
0.26229355 1.2307844 0.086038955 72
0.2443032 1.2595973 0.11219569 100
0.26101258 1.232836 0.12597258 99
0.23998451 1.2665141 0.15684435 66
0.25081894 1.2527177 0.0099129668 87
0.25118345 1.2521296 0.029726824 100
0.2445648 1.2628086 0.05072464 84
0.24986649 1.2542545 0.069953002 49
0.25966057 1.2384521 0.087290429 57
0.25730526 1.2422523 0.10799789 79
0.25125626 1.2520121 0.13092151 96
0.23552644 1.2773917 0.15995017 64
0.25259021 1.253811 0.0099129668 87
0.25818226 1.2447141 0.029203463 100
0.23489577 1.2825954 0.05264207 79
0.2620391 1.23844 0.067515619 51
0.25931051 1.2428788 0.087916173 70
0.25492558 1.2500119 0.10952436 85
0.26323026 1.2365024 0.12642249 82
0.23536485 1.2818325 0.16098544 64
0.24699199 1.2667967 0.0101573 85
0.26296109 1.2406145 0.028889447 100
0.24498665 1.2700845 0.051247578 82
0.25747404 1.2496109 0.068978049 50
0.27022037 1.2287126 0.085100345 58
0.25353608 1.2560673 0.11066922 78
0.27196354 1.2258546 0.12327318 93
0.2452009 1.2697332 0.15684435 66
0.25605989 1.2559268 0.0099129668 87
0.2667554 1.2382456 0.028680105 100
0.24888405 1.2677896 0.050898954 83
0.25512409 1.2574738 0.069953002 49
0.26781386 1.2364957 0.086351827 58
0.25125504 1.26387 0.11219569 84
0.26859304 1.2352077 0.12552269 90
0.25103411 1.2642353 0.15477379 67
0.25775787 1.2569499 0.0099129668 87
0.262225 1.2495066 0.029308135 100
0.25677505 1.2585876 0.049853086 85
0.26091352 1.2516918 0.068978049 50
0.27046046 1.2357842 0.086038955 72
0.25702187 1.2581763 0.11066922 78
0.27623543 1.2261616 0.12282328 76
0.25673756 1.2586501 0.15270324 68
0.26150548 1.2545307 0.0098431576 88
0.26390055 1.2505082 0.029308135 100
0.2635788 1.2510486 0.048981529 87
0.26462781 1.2492867 0.068490572 50
0.27006686 1.2401518 0.086664692 71
0.26475403 1.2490747 0.10837951 79
0.27583548 1.2304633 0.12372308 83
0.25646842 1.2629905 0.15373851 68
0.26726666 1.2486477 0.0097035384 100
0.26964271 1.2446253 0.028889447 100
0.25816655 1.2640536 0.050201707 85
0.26731217 1.2485707 0.068246834 85
0.27472368 1.2360235 0.08572609 58
0.26443106 1.2534482 0.10914274 85
0.27942669 1.2280617 0.12282328 85
0.25229594 1.2739922 0.15684435 66
0.26076499 1.2633836 0.0099827768 87
0.27222824 1.2438294 0.028784776 100
0.25275317 1.2770504 0.051421888 100
0.26689288 1.2529305 0.068734311 50
0.2762706 1.2369338 0.08572609 58
0.26206428 1.2611673 0.11066922 85
0.28488934 1.2222317 0.12102367 86
0.25787687 1.2683103 0.15477379 67
0.26651013 1.2574757 0.0098431576 88
0.27287987 1.2465227 0.028889447 100
0.26353943 1.262584 0.049853086 85
0.26758242 1.2556319 0.068978049 50
0.28088135 1.2327636 0.084787481 59
0.26575446 1.2587751 0.10990598 85
0.2845102 1.2265236 0.12192347 85
0.26449955 1.2609329 -0.0099129668 87
0.26447397 1.260977 0.1521856 77
0.26712865 1.2601451 0.0098780617 73
0.27645823 1.2439792 0.028680105 100
0.26716626 1.26008 0.049504463 86
0.27117887 1.2531271 0.068490572 50
0.28241739 1.2336535 0.084787481 59
0.27130216 1.2529135 0.10837951 87
0.28505147 1.2290893 0.12237337 85
0.26513803 1.2635944 0.15270324 68
0.27579576 1.2489815 0.0096337283 90
0.28009897 1.2414646 0.02847076 100
0.26590908 1.2662516 0.050027397 85
0.27286699 1.2540975 0.068490572 50
0.27913043 1.2431564 0.086351827 58
0.27201417 1.2555871 0.10876112 87
0.277942 1.2452323 0.12642249 90
0.26686275 1.2645857 0.15270324 68
0.2795274 1.246505 0.0095639192 91
0.27689916 1.2511353 0.028994121 100
0.26674631 1.2690222 0.050201707 85
0.27464315 1.2551099 0.068490572 50
0.28476691 1.2372744 0.085100345 58
0.27476493 1.2548953 0.10837951 87
0.29122934 1.2258892 0.12102367 86
0.26486284 1.2723403 0.15477379 67
0.27138188 1.2648714 0.0099129668 87
0.28543928 1.2399031 0.028261416 100
0.25969276 1.2856331 0.051770512 81
0.28412926 1.2422299 0.066540658 52
0.28639963 1.2381973 0.085100345 58
0.2774224 1.2541424 0.10799789 79
0.29282224 1.2267897 0.12102367 86
0.26851362 1.2699659 0.15373851 76
0.27603588 1.2606032 0.0098082526 74
0.27734342 1.2582617 0.029308135 100
0.27023703 1.2709875 0.050201707 85
0.27997223 1.2535541 0.068003096 51
0.29188797 1.2322159 0.083848871 59
0.27911401 1.255091 0.10799789 79
0.29441831 1.2276846 0.12102367 86
0.27311099 1.2658409 -0.0099129668 87
0.27591184 1.2608253 0.15063268 78
0.28259438 1.2528099 0.0096337283 90
0.28292018 1.2522217 0.028889447 100
0.27295282 1.2702181 0.050027397 85
0.27492929 1.2666495 0.069709264 33
0.29158881 1.2365701 0.084474608 59
0.28556499 1.2474464 0.1060898 81
0.29318497 1.2336882 0.12237337 68
0.27290577 1.270303 -0.0099827768 86
0.27669081 1.263469 0.15115032 77
0.28130773 1.2589515 0.0097384425 75
0.28259698 1.2566054 0.029098792 100
0.28324896 1.255419 0.048458595 88
0.28613797 1.2501618 0.067271881 69
0.29313743 1.2374245 0.084474608 59
0.29093173 1.2414384 0.10456333 75
0.29566255 1.2328295 0.12192347 76
0.28111985 1.2592934 0.14959741 70
0.28014535 1.2651541 0.0098431576 88
0.29194331 1.2435061 0.028261416 100
0.27827096 1.2685933 0.049678773 86
0.29066548 1.2458508 0.066540658 52
0.28815356 1.2504598 0.086664692 57
0.28694198 1.2526829 0.10685304 81
0.27631763 1.2721775 -0.0099827768 86
0.27913159 1.2670143 0.15166797 69
0.28386295 1.262621 0.0097733475 89
0.2898832 1.2514776 0.028680105 100
0.27631214 1.2765977 0.05037602 84
0.28391936 1.2625167 0.068734311 33
0.29554987 1.2409885 0.084787481 59
0.28964603 1.2519166 0.10647142 81
0.28006101 1.2696586 -0.0099129668 87
0.27911857 1.271403 0.15270324 68
0.28558415 1.2635471 0.0097733475 89
0.29533821 1.2453406 0.028261416 100
0.29219556 1.2512065 0.047761347 90
0.28657764 1.2616926 0.068490572 50
0.28669414 1.2614752 0.10837951 87
0.28463981 1.2653098 -0.0098082526 99
0.28816888 1.2587225 0.14856213 71
0.29387584 1.2521054 0.0095290141 76
0.29512495 1.2497542 0.02847076 100
0.29013783 1.2591414 0.048458595 88
0.29015824 1.2591031 0.068003096 51
0.29301676 1.2537224 0.10647142 73
0.28543219 1.2679989 -0.0098431576 87
0.29168913 1.2562214 0.14752686 71
0.29835632 1.2476888 0.0094242999 93
0.29307765 1.2577093 0.028889447 100
0.29277545 1.2582829 0.048284281 88
0.29926878 1.2459567 0.066053182 52
0.29836693 1.2476686 0.10494494 75
0.28717214 1.2689195 -0.0098431576 87
0.28978637 1.2639569 0.14959741 78
0.29817364 1.2521093 0.0094941091 92
0.29263654 1.2627097 0.048632905 88
0.29508987 1.258013 0.14752686 71
0.29893839 1.254761 0.0095290141 92
0.29160914 1.2689127 0.049155839 87
0.29894596 1.2547464 0.067028143 51
0.28882235 1.2742935 -0.0099129668 100
0.28435677 1.2829158 0.15477379 67
0.29415107 1.268042 0.0097733475 89
0.28962338 1.2768557 0.049853086 57
0.29964775 1.257342 0.067271881 69
0.29343092 1.2694439 0.10914274 71
0.29049608 1.2751569 -0.0099129668 100
0.29665205 1.2631735 0.14856213 79
0.29952127 1.2618043 0.0096337283 100
0.29414317 1.272364 0.069221787 83
0.29135346 1.2778416 -0.0099478718 100
0.29923049 1.2666546 0.14907977 78
0.29849672 1.2768722 0.049504463 28
0.29579684 1.2823135 -0.0099827768 100
