# .PCD v0.7 - Point Cloud Data file format
VERSION 0.7
FIELDS x y z intensity
SIZE 4 4 4 4
TYPE F F F F
COUNT 1 1 1 1
WIDTH 727
HEIGHT 1
VIEWPOINT 0 0 0 1 0 0 0
POINTS 727
DATA ascii
-1.0979853 0.15216273 0.058092911 26
-1.179987 0.16751681 0.020803269 27
-1.090319 0.15886602 0.019232552 5
-1.0304513 0.15363427 0.018185407 6
-1.0299087 0.15723027 0.018185407 2
-1.1499043 0.1794534 0.0203146 48
0.059221506 0.0099183321 0.047416378 63
0.054118454 0.019097328 0.015707165 9
0.044362664 0.010106087 0.047835063 93
0.045049906 0.016852498 0.047521047 68
0.040319741 0.015220642 0.047730394 28
0.034317672 0.01205045 0.04804441 18
0.0266366 0.012473524 0.048253752 8
0.023995519 0.014304996 0.048253752 8
0.016773999 0.0096046925 0.048672438 8
-1.0417824 1.1290156 0.14276111 3
-1.0521352 1.1375265 0.028691756 6
-1.0287695 1.1321665 0.08488892 5
-1.0152104 1.1290561 0.14049506 6
-1.0139036 1.1342195 0.028028565 10
-1.0158887 1.1346818 0.084260888 35
-1.0198326 1.1356003 0.14101799 40
-0.98927099 1.1341519 0.027609708 28
-0.99322647 1.1350877 0.083109498 91
-1.0224245 1.1419952 0.14136662 86
-0.98416597 1.1383207 0.027539898 38
-0.9920072 1.1402032 0.083109498 100
-1.0153704 1.1458122 0.14084367 86
-0.98662573 1.1451573 0.027609708 38
-0.98475355 1.1447002 0.082795486 99
-1.0023026 1.1489847 0.13979781 84
-0.9853732 1.1502509 0.027609708 23
-0.97768658 1.1483471 0.082481466 100
-0.99716932 1.1531723 0.13944919 91
-0.96658224 1.1512206 0.027295563 26
-0.98604161 1.156112 0.083004825 46
-0.99582237 1.1585705 0.13944919 80
-0.96724755 1.1567415 0.027330469 42
-0.98281735 1.1607102 0.082900152 33
-0.99066406 1.1627103 0.13910057 82
-0.96775573 1.1628009 0.027365373 61
-0.97750789 1.1653248 0.082690813 69
-0.99114317 1.1688536 0.13927488 89
-0.97224754 1.1693542 0.027470088 60
-0.9684611 1.1683607 0.08227212 98
-0.97246748 1.1694119 0.13770607 92
-0.95338231 1.1703 0.027155945 78
-0.95734066 1.1713541 0.081748761 92
-0.95944148 1.1719134 0.1366602 100
-0.95590788 1.1763251 0.027225753 93
-0.95792979 1.1768707 0.081853434 100
-0.96194762 1.1779547 0.13700883 100
-0.95055109 1.1807858 0.027155945 96
-0.93909103 1.1776485 0.08091139 100
-0.96620721 1.1850718 0.13753176 98
-0.94532663 1.1846907 0.027086135 96
-0.9396556 1.1831181 0.081016064 100
-0.96866232 1.1911623 0.13788038 89
-0.95157033 1.1920724 0.027225753 92
-0.93820447 1.1883154 0.081016064 88
-0.95375651 1.1926869 0.1366602 99
-0.95208579 1.1975969 0.027260659 70
-0.94257194 1.1948886 0.081330076 78
-0.94659787 1.1960347 0.13613728 100
-0.95242971 1.2036541 0.027295563 52
-0.94484252 1.2014641 0.081539422 36
-0.94885474 1.2026222 0.13648589 98
-0.93946689 1.2052684 0.027086135 48
-0.93381804 1.2036177 0.081016064 24
-0.94932431 1.2081491 0.1366602 84
-0.93019217 1.2084529 0.026946515 75
-0.91689879 1.2045152 0.080178685 26
-0.94579798 1.2130755 0.13648589 85
-0.93064553 1.2139332 0.026981421 74
-0.92118913 1.211098 0.080492698 32
-0.93477815 1.2151723 0.13561434 99
-0.91577047 1.2147763 0.026737086 81
-0.91780704 1.2153943 0.080388032 88
-0.92566758 1.2177795 0.1349171 100
-0.9064849 1.217795 0.026597468 85
-0.92571014 1.2237058 0.08091139 100
-0.92401654 1.2231851 0.1349171 99
-0.90865225 1.2243196 0.026667276 89
-0.9049682 1.2231722 0.079864666 91
-0.92044336 1.2279921 0.13474278 68
-0.91079146 1.2308661 0.026737086 88
-0.89948803 1.2272999 0.079655327 72
-0.92635506 1.2357763 0.13544002 47
-0.90925509 1.2357078 0.026737086 81
-0.8998664 1.2327113 0.07976 82
-0.89633137 1.2315831 0.13282534 46
-0.89231604 1.2361333 0.026457848 81
-0.90386218 1.2398648 0.080074012 90
-0.90410906 1.2399447 0.13369691 45
-0.87952095 1.2366872 0.02624842 96
-0.90436023 1.2447964 0.080178685 100
-0.91217834 1.2473487 0.13456847 59
-0.88539547 1.2444338 0.026388038 100
-0.89502484 1.2476165 0.07976 100
-0.9085272 1.2520794 0.13439415 78
-0.88752359 1.2507097 0.026457848 96
-0.8876664 1.2507575 0.07944598 100
-0.90683562 1.2571676 0.13439415 84
-0.88954037 1.2572575 0.026527658 93
-0.88778645 1.2566638 0.079550654 100
-0.8993786 1.2605876 0.13387123 78
-0.86899668 1.2555544 0.02617861 96
-0.88049561 1.2594892 0.079236634 100
-0.89020342 1.2628111 0.13317397 100
-0.86342829 1.2594434 0.0261088 88
-0.89001578 1.2686502 0.079864666 100
-0.8883875 1.2680863 0.13317397 97
-0.86934716 1.2667702 0.02624842 79
-0.86950308 1.2668247 0.078817949 87
-0.90553325 1.2794353 0.1349171 56
-0.87128681 1.273304 0.02631823 85
-0.85261089 1.2666906 0.077980578 53
-0.89990002 1.2834365 0.13456847 38
-0.86593288 1.2764199 0.02624842 92
-0.85668546 1.2731123 0.07829459 19
-0.89077586 1.285305 0.13387123 38
-0.85654563 1.2788848 0.0261088 96
-0.87173504 1.2843802 0.079236634 48
-0.86077446 1.2804147 0.13125655 22
-0.83982521 1.2780538 0.025829561 96
-0.86814564 1.2884064 0.079131968 89
-0.8609454 1.2857742 0.13143086 15
-0.84920746 1.2873049 0.026038991 100
-0.8512494 1.2880599 0.07829459 100
-0.88147062 1.299233 0.1335226 5
-0.84364682 1.290786 0.025969181 100
-0.83259445 1.2866559 0.077352546 85
-0.87214917 1.3014369 0.13282534 1
-0.84546989 1.2973042 0.026038991 100
-0.83255976 1.2924259 0.077457212 44
-0.85528165 1.3010117 0.13143086 1
-0.83268827 1.2971679 0.025829561 79
-0.84406716 1.3015063 0.078189917 55
-0.84439152 1.30163 0.1305593 13
-0.82888097 1.301513 0.025794657 74
-0.84024614 1.3058939 0.078085244 59
-0.84986991 1.3096035 0.13125655 56
-0.82711083 1.3060825 0.025794657 75
-0.8310166 1.307603 0.077666558 68
-0.85364288 1.316411 0.13177948 100
-0.83071905 1.313323 0.025899371 93
-0.8178857 1.308273 0.077038527 65
-0.84606868 1.3193631 0.13125655 100
-0.82890981 1.3178988 0.025899371 100
-0.82908589 1.3179686 0.077771232 85
-0.82757503 1.3173683 0.12968774 97
-0.81594986 1.3180009 0.025689943 100
-0.82170027 1.3203079 0.077457212 95
-0.83129972 1.324159 0.13021068 100
-0.80661541 1.3197615 0.025550323 100
-0.82717508 1.3280932 0.077875905 95
-0.82935697 1.3289773 0.13021068 100
-0.80478495 1.3242571 0.025550323 100
-0.81422561 1.3281194 0.077247873 100
-0.82196361 1.3312851 0.12968774 100
-0.80994004 1.3327496 0.025689943 100
-0.7935192 1.3259544 0.076201156 100
-0.82338136 1.3383117 0.13003637 100
-0.78350061 1.3218088 0.17719802 26
-0.81175679 1.3387976 0.025759751 100
-0.800883 1.3342557 0.076724514 100
-0.81413537 1.3397911 0.12933913 100
-0.77616829 1.3239324 0.17646681 22
-0.79512209 1.3370955 0.025480513 100
-0.7934832 1.3364046 0.076410495 100
-0.79938716 1.3388937 0.12811895 100
-0.79261583 1.3360388 0.17890419 21
-0.78587395 1.3384211 0.025340894 85
-0.80078667 1.3447666 0.076933853 67
-0.80299312 1.3457055 0.12864187 97
-0.76698548 1.330384 0.17573559 16
-0.81317621 1.3559486 0.025899371 63
-0.81885511 1.3583896 0.078085244 53
-0.81368715 1.3561683 0.12986206 28
-0.77221769 1.3383429 0.17671055 5
-0.80939108 1.35967 0.025864467 88
-0.80223805 1.3565671 0.077247873 100
-0.83732551 1.3717873 0.13230242 61
-0.78489488 1.3490441 0.17866045 14
-0.80162257 1.3624768 0.025759751 100
-0.80546349 1.3641605 0.077561885 100
-0.82223111 1.3715106 0.13108224 100
-0.78811592 1.3565564 0.17939167 31
-0.794164 1.3645291 0.025655037 100
-0.80531234 1.3694601 0.077666558 100
-0.80382997 1.3688045 0.12951343 100
-0.77527088 1.3561726 0.17792924 35
-0.79390651 1.3700328 0.025689943 100
-0.81597763 1.3798872 0.078399263 100
-0.80173141 1.3735266 0.12951343 100
-0.76959139 1.3591765 0.17744176 30
-0.79373258 1.3753073 0.025724847 100
-0.80666357 1.3811324 0.077980578 100
-0.80698901 1.381279 0.13021068 100
-0.74953109 1.355396 0.17500438 20
-0.79696566 1.3827124 0.025829561 100
-0.79896063 1.3836198 0.077666558 100
-0.81924802 1.3928483 0.13160518 100
-0.7600252 1.3659087 0.17671055 16
-0.80401379 1.3913457 0.026004085 100
-0.80780989 1.3930877 0.07829459 100
-0.8099317 1.3940614 0.13090792 100
-0.77427965 1.377701 0.17890419 15
-0.79436094 1.3931762 0.025864467 100
-0.80178326 1.3966168 0.078085244 100
-0.80391032 1.3976028 0.1305593 100
-0.78994662 1.39113 0.18134159 10
-0.79228705 1.3976308 0.025864467 100
-0.82140881 1.4112477 0.079341307 100
-0.80182165 1.4020891 0.1305593 100
-0.75910789 1.3821168 0.17744176 9
-0.79370505 1.4040191 0.025934275 100
-0.80471188 1.4092126 0.078503937 100
-0.814022 1.4136056 0.13195379 100
-0.76055378 1.388377 0.17792924 3
-0.79159516 1.4084716 0.025934275 100
-0.80078131 1.4128432 0.078399263 100
-0.80828208 1.4164129 0.13160518 100
-0.77642053 1.4012499 0.18036664 1
-0.79656881 1.4166131 0.026073895 100
-0.80573088 1.4210126 0.078817949 100
-0.79524118 1.4159756 0.1305593 100
-0.79261738 1.4202034 0.026038991 100
-0.81075484 1.428987 0.079236634 100
-0.8002643 1.4239066 0.13125655 100
-0.78651816 1.4235969 0.025969181 100
-0.81359714 1.4368393 0.079550654 100
-0.80132324 1.4308369 0.13160518 100
-0.78793031 1.4297942 0.026038991 100
-0.79883927 1.435174 0.078817949 100
-0.81341976 1.4423642 0.13299966 100
-0.79636127 1.4398046 0.02624842 100
-0.79472095 1.4389886 0.078713275 100
-0.81819981 1.4506691 0.13369691 100
-0.80116409 1.4480879 0.026388038 100
-0.78880745 1.4418867 0.078503937 100
-0.80513114 1.4500788 0.13265105 100
-0.79165238 1.4491875 0.02624842 100
-0.80605525 1.4564788 0.079655327 100
-0.80097133 1.4539051 0.13247673 100
-0.78571159 1.4520478 0.02617861 100
-0.8107658 1.4648412 0.080074012 100
-0.80389923 1.4613349 0.13299966 100
-0.79754466 1.4640311 0.026457848 100
-0.8047809 1.4677579 0.079864666 100
-0.81033403 1.470618 0.13387123 100
-0.78801566 1.4650435 0.02631823 100
-0.7952475 1.4688001 0.07944598 100
-0.81848866 1.4808729 0.1349171 100
-0.8032946 1.4789897 0.026667276 100
-0.79456919 1.4744184 0.079550654 100
-0.80540973 1.4800978 0.13387123 100
-0.79020303 1.4781042 0.026457848 89
-0.79386801 1.4800407 0.079655327 100
-0.79763788 1.4820325 0.13334829 100
-0.80582041 1.4921172 0.13439415 42
0.12599093 1.2956679 0.13127659 5
0.15624294 1.261665 0.010995016 12
0.15048018 1.2688607 0.033495013 28
0.13401788 1.2894163 0.058220036 22
0.16226631 1.254144 0.098240845 12
0.14746433 1.2726264 0.12517071 24
0.22718495 1.1730832 0.11922406 8
0.15148777 1.2676026 0.17082056 7
0.156717 1.2646017 0.011029921 76
0.17086971 1.2468029 0.031924933 91
0.15815389 1.2627946 0.055082429 50
0.1497052 1.2734199 0.078971334 14
0.18240014 1.232302 0.093547814 26
0.15655258 1.2648084 0.122881 91
0.15082246 1.2720149 0.17185585 29
0.16216317 1.2612629 0.010925206 100
0.16139811 1.2622319 0.032866981 100
0.15864187 1.2657232 0.055256739 99
0.15884516 1.2654657 0.077508904 29
0.16810375 1.253738 0.097615108 37
0.15828219 1.2661788 0.122881 100
0.18895113 1.2273313 0.13452072 38
0.14659196 1.2809865 0.17444403 42
0.16872993 1.2562518 0.010785587 100
0.1654973 1.2603744 0.032657638 100
0.15414104 1.2748576 0.056128297 100
0.17273909 1.2511387 0.075071514 30
0.17702326 1.2456748 0.095737889 25
0.17446652 1.2489356 0.11830158 100
0.18565992 1.2346601 0.13632034 45
0.14709666 1.2838416 0.17496167 35
0.1692012 1.2591577 0.010820492 100
0.17825335 1.2475296 0.031715591 92
0.15590572 1.2762364 0.056128297 97
0.16710439 1.2618511 0.076533951 29
0.17625907 1.2500913 0.096363634 25
0.18096459 1.2440468 0.1167751 100
0.18967825 1.2328537 0.13542053 30
0.14533263 1.289818 0.1765146 41
0.17702532 1.2525728 0.010645968 66
0.18236527 1.2456638 0.031506244 62
0.15767521 1.2776089 0.056128297 48
0.17974904 1.2490487 0.074340299 46
0.1706892 1.2607708 0.098240845 24
0.17781925 1.2515457 0.11830158 19
0.18891272 1.2371924 0.13632034 22
0.14006132 1.3003986 0.17962041 39
0.17140809 1.2633905 0.010855397 65
0.16822177 1.2675431 0.032866981 29
0.17036551 1.2647493 0.054559495 50
0.17900658 1.2534881 0.074827775 45
0.19284767 1.23545 0.092922069 53
0.17591697 1.2575145 0.11944643 12
0.19054571 1.2384499 0.13632034 22
0.1560277 1.2834346 0.17340876 57
0.17806503 1.2584112 0.010715778 39
0.16520777 1.275295 0.03328567 28
0.17097431 1.2677225 0.054733805 50
0.1831865 1.251686 0.074340299 46
0.19216245 1.239899 0.093547814 52
0.19554785 1.2354535 0.11372216 13
0.20171022 1.2273612 0.13272113 39
0.17780918 1.2587472 0.16460891 69
0.17977217 1.2597065 0.010715778 39
0.16456494 1.2798214 0.033495013 28
0.17752019 1.2626853 0.054036561 51
0.18487012 1.2529634 0.074340299 46
0.19142231 1.2442967 0.094173551 52
0.19717476 1.2366879 0.11372216 13
0.20213363 1.2301288 0.13317102 46
0.17369229 1.2677486 0.16719711 67
0.18620077 1.2545351 0.010576159 54
0.19503838 1.2427645 0.030982886 31
0.17078215 1.2750708 0.055256739 49
0.17813048 1.2652837 0.076046467 89
0.19536924 1.2423239 0.093547814 65
0.20226061 1.2331454 0.1125773 13
0.20717156 1.2266046 0.13182132 47
0.17998463 1.2628142 0.16512655 61
0.1855042 1.2590086 0.010645968 53
0.1871419 1.2568115 0.03182026 30
0.1761196 1.2715991 0.054733805 50
0.20121574 1.2379301 0.071659178 80
0.20410332 1.234056 0.091670595 54
0.19801295 1.2422268 0.1144854 13
0.21808442 1.2152989 0.12822211 32
0.17477998 1.2733963 0.16823238 67
0.19078177 1.2554556 0.010541254 81
0.19953552 1.2436255 0.030878214 63
0.1731323 1.2793075 0.055431053 74
0.19104347 1.2551019 0.07409656 61
0.20337528 1.2384365 0.092296332 80
0.20316684 1.238718 0.11334054 13
0.21732253 1.2195878 0.1291219 32
0.18458322 1.2638324 0.16460891 69
0.19011083 1.2599298 0.010611063 81
0.19646132 1.2512846 0.031296901 62
0.1855281 1.2661684 0.053862248 77
0.20214057 1.2435532 0.072146654 47
0.20384309 1.2412355 0.092609204 93
0.21410328 1.227268 0.1102876 14
0.22235495 1.2160347 0.1277722 16
0.19317135 1.2557633 0.16150309 70
0.19889247 1.2514886 0.010401634 83
0.20285058 1.2460607 0.030878214 63
0.19078398 1.2626081 0.053339314 78
0.20145649 1.2479725 0.072634131 78
0.20549014 1.2424409 0.092609204 100
0.2110745 1.2347828 0.11181407 14
0.23080304 1.2077283 0.12507279 16
0.18803972 1.2663715 0.16460891 69
0.19823018 1.2559509 0.010471444 82
0.21505469 1.2327088 0.029936166 66
0.19016913 1.2670869 0.053687938 100
0.20545503 1.2459702 0.072146654 95
0.20829967 1.2420405 0.092296332 100
0.21845496 1.2280115 0.10990598 14
0.23690367 1.2025256 0.12327318 17
0.19317293 1.2629373 0.163056 70
0.19517484 1.2636096 0.010611063 94
0.21425939 1.2370604 0.030145511 98
0.18135321 1.2828374 0.055256739 99
0.20935264 1.2438865 0.071659178 80
0.20986688 1.243171 0.092296332 100
0.21195418 1.2402673 0.1125773 13
0.22241545 1.2257142 0.12957181 16
0.19142675 1.2688237 0.16460891 69
0.19922304 1.2615896 0.010541254 81
0.21009129 1.2463585 0.03066887 96
0.19471827 1.2679027 0.053513627 100
0.20870283 1.2483044 0.072146654 79
0.22069973 1.2314916 0.089793384 100
0.20561534 1.2526313 0.11524864 20
0.2319316 1.2157508 0.12642249 16
0.20102492 1.2590644 0.16098544 80
0.20325279 1.2595475 0.010471444 82
0.20713851 1.2540615 0.031087559 94
0.19876164 1.2658882 0.053165004 100
0.20807973 1.2527326 0.072634131 78
0.21888733 1.2374742 0.090731993 100
0.20957166 1.2506263 0.1144854 27
0.23011038 1.2216291 0.1277722 16
0.19491792 1.2713149 0.16460891 85
0.2141647 1.247668 0.010192205 99
0.21227643 1.2503538 0.030773543 64
0.20507842 1.2605917 0.052467756 100
0.20748344 1.257171 0.073121607 78
0.2159766 1.245091 0.091983467 93
0.20560563 1.2598419 0.11639348 79
0.22608474 1.2307138 0.13002171 32
0.19667 1.2725513 0.16460891 93
0.20896772 1.2586765 0.010401634 97
0.21738428 1.2466161 0.030459527 97
0.19539079 1.2781314 0.054210871 100
0.22281861 1.2388291 0.07019674 82
0.21763703 1.246254 0.091983467 93
0.20619404 1.262651 0.1167751 100
0.23215589 1.2254494 0.12822211 81
0.19621521 1.27695 0.16564418 83
0.20839825 1.2631516 0.010471444 82
0.22018728 1.2461325 0.030354854 97
0.19489765 1.2826416 0.054559495 100
0.22219643 1.243232 0.070684217 65
0.22267595 1.2425396 0.091044858 100
0.21685919 1.250937 0.11372216 89
0.22930899 1.2329639 0.13002171 96
0.19908699 1.2765938 0.16512655 76
0.20559004 1.2709322 0.010611063 94
0.22185132 1.2472808 0.030354854 97
0.21023473 1.2641767 0.052467756 100
0.21935168 1.2509165 0.071659178 80
0.23104233 1.2339128 0.089167647 100
0.21186632 1.2618036 0.11601187 100
0.22761482 1.238898 0.13137141 86
0.21180239 1.2618966 0.15995017 80
0.21410373 1.262221 0.010401634 97
0.22239354 1.2500731 0.030459527 65
0.20971569 1.2686511 0.05281638 100
0.2299839 1.2389503 0.069709264 66
0.23377708 1.2333918 0.088854775 98
0.22797126 1.2418995 0.11105084 98
0.2259582 1.2448494 0.13272113 94
0.22223291 1.2503085 0.15580906 83
0.22143093 1.2551121 0.01022711 42
0.23639163 1.2330235 0.029308135 34
0.21369296 1.2665367 0.052467756 80
0.22494355 1.2499259 0.071171694 81
0.23207328 1.2393993 0.089793384 100
0.23182237 1.2397697 0.1102876 85
0.23308182 1.2379103 0.13047162 96
0.21307799 1.2674447 0.16098544 72
0.21197018 1.2728518 0.010576159 40
0.22686729 1.2506909 0.030354854 32
0.21098211 1.2743217 0.053165004 52
0.23105064 1.2444677 0.07019674 99
0.22820351 1.2487032 0.09135773 100
0.23346412 1.2408775 0.1102876 92
0.2390658 1.2325445 0.128672 97
0.21481645 1.2686177 0.16098544 72
0.21355161 1.2739112 0.010576159 40
0.22394285 1.258348 0.030773543 32
0.22031251 1.2637852 0.051944822 54
0.22923595 1.2504203 0.070927955 97
0.23848408 1.236569 0.088854775 100
0.22949421 1.2500335 0.11219569 84
0.24376675 1.228657 0.1273223 97
0.21423912 1.2728815 0.16202073 70
0.206476 1.2884182 0.010855397 39
0.21682364 1.2728024 0.031610917 30
0.22093761 1.2665939 0.052119136 54
0.23420444 1.2465727 0.07019674 82
0.24775264 1.2261269 0.086664692 86
0.23117179 1.2511493 0.11219569 91
0.24536961 1.2297231 0.1273223 100
0.22239918 1.2643882 0.15891489 73
0.22586778 1.2628815 0.010296919 42
0.20980147 1.2873123 0.032448292 29
0.23252571 1.2527574 0.05055033 56
0.23150697 1.2543064 0.071171694 97
0.2417489 1.2387323 0.088854775 98
0.23608944 1.2473383 0.11105084 84
0.24055168 1.2405529 0.13002171 96
0.22837281 1.2590723 0.15684435 74
0.2341477 1.2539623 0.010087491 43
0.22252512 1.271771 0.031401575 31
0.2353017 1.2521942 0.05037602 56
0.240794 1.2437786 0.069465525 99
0.24662584 1.2348428 0.087916173 84
0.23883057 1.2467871 0.11066922 85
0.24006596 1.2448941 0.13092151 96
0.23219362 1.2569565 0.15580906 83
0.24687308 1.2383837 0.0097384425 45
0.25700876 1.2227222 0.028261416 35
0.22633043 1.2701256 0.052119136 54
0.24369401 1.2432959 0.069221787 67
0.24197337 1.2459545 0.089793384 83
0.2449303 1.2413855 0.10914274 85
0.24930325 1.2346286 0.1277722 89
0.22461921 1.2727697 0.1604678 72
0.23554257 1.2596297 0.0101573 57
0.24779791 1.2405474 0.029308135 68
0.22592485 1.2746053 0.052467756 53
0.23998439 1.2527137 0.070440479 98
0.25217637 1.23373 0.087290429 85
0.24127302 1.2507071 0.11105084 84
0.24987388 1.2373151 0.12822211 100
0.22637618 1.2739024 0.1604678 72
0.23716798 1.2606699 0.0101573 71
0.24721253 1.2449152 0.029517479 67
0.23402652 1.2655971 0.051421888 82
0.24585551 1.2470436 0.069465525 49
0.25583971 1.2313837 0.086664692 71
0.24497968 1.2484174 0.1102876 78
0.25666335 1.2300918 0.12597258 99
0.23324171 1.2668281 0.15787962 65
0.24636656 1.2499297 0.0099129668 87
0.24887216 1.2459693 0.029517479 67
0.23575842 1.266697 0.051421888 82
0.24115461 1.2581677 0.070927955 48
0.25533977 1.2357464 0.087290429 57
0.24350256 1.2544565 0.11143246 91
0.25931305 1.2294662 0.12552269 90
0.2349779 1.2679307 0.15787962 65
0.24902326 1.2492404 0.0098780617 73
0.24938995 1.2486565 0.029622151 100
0.23316869 1.2744853 0.052119136 81
0.24910969 1.2491028 0.069465525 49
0.25688586 1.2367209 0.087290429 57
0.25241977 1.2438322 0.10876112 72
0.25772902 1.2353784 0.12687239 99
0.23560339 1.2706087 0.15839726 73
0.25492838 1.2434996 0.0097384425 75
0.2510626 1.2497029 0.029622151 100
0.23914659 1.2688246 0.051421888 82
0.25708318 1.2400417 0.068003096 51
0.25851679 1.2377412 0.087290429 71
0.2457689 1.2581978 0.11181407 98
0.26450855 1.2281263 0.12462288 83
0.23428759 1.2766218 0.15995017 64
0.25124031 1.2529786 0.0099129668 87
0.25475639 1.2472945 0.029412808 100
0.23765808 1.2749358 0.051944822 81
0.24506775 1.2629573 0.071171694 32
0.26214784 1.2353454 0.086664692 71
0.25152069 1.2525253 0.1102876 71
0.26910481 1.2240987 0.12327318 93
0.23596933 1.2776659 0.15995017 64
0.25083598 1.2574271 0.0099827768 87
0.25642425 1.2483222 0.029412808 100
0.24776018 1.2624385 0.05055033 84
0.2519823 1.2555594 0.069953002 66
0.26480725 1.2346637 0.086351827 58
0.2511529 1.2569108 0.11105084 84
0.26457539 1.2350416 0.12597258 99
0.2417855 1.2721732 0.15787962 65
0.25262451 1.2585204 0.0099827768 87
0.25817937 1.249395 0.029412808 100
0.25371099 1.2567356 0.049853086 85
0.25273177 1.2583442 0.07019674 99
0.26548511 1.2373933 0.086664692 71
0.26110616 1.2445869 0.10799789 79
0.26729503 1.2344201 0.12552269 82
0.24563712 1.269999 0.15684435 66
0.26156822 1.2475733 0.0097384425 75
0.25882199 1.2521204 0.029517479 100
0.25335175 1.2611778 0.050201707 85
0.26162201 1.2474842 0.068490572 50
0.26507589 1.2417654 0.087290429 57
0.26276451 1.2455925 0.10799789 79
0.27093282 1.2320678 0.12462288 92
0.24738428 1.2710584 0.15684435 66
0.25698474 1.258818 0.0099478718 87
0.26144922 1.2513702 0.029412808 100
0.24781162 1.274121 0.051421888 82
0.26524824 1.2450325 0.068003096 51
0.26257941 1.2494848 0.08854191 70
0.26434323 1.2465423 0.10799789 79
0.2794801 1.2212906 0.12147357 77
0.24706104 1.2753731 0.15787962 65
0.2576707 1.2615566 0.0099827768 87
0.26823571 1.2437913 0.028889447 100
0.25466517 1.2666105 0.05055033 84
0.26082015 1.2562608 0.069465525 66
0.27132279 1.2386004 0.086351827 58
0.25998738 1.2576611 0.1102876 85
0.28205314 1.2205571 0.12102367 86
0.2576707 1.2615566 -0.0099827768 75
0.25475168 1.2664649 0.15477379 67
0.25735608 1.2660186 0.010052586 86
0.26481682 1.2533729 0.029412808 100
0.26146251 1.2590584 0.049678773 86
0.26050186 1.2606866 0.069953002 49
0.27697527 1.232765 0.085100345 58
0.26069379 1.2603613 0.11066922 92
0.27867633 1.2298818 0.12327318 85
0.26041308 1.2608371 0.15270324 76
0.26919037 1.2497789 0.0097035384 90
0.26247036 1.2612604 0.029831495 99
0.26015216 1.2652211 0.050201707 85
0.26422191 1.2582678 0.069465525 66
0.27360317 1.2422394 0.086664692 71
0.27331594 1.2427301 0.10647142 73
0.28028327 1.230826 0.12327318 85
0.26407984 1.2585105 0.15166797 69
0.27488312 1.2438388 0.0095639192 91
0.27020404 1.2518977 0.029203463 100
0.27088624 1.2507226 0.048632905 88
0.26991498 1.2523955 0.068490572 50
0.27525327 1.2432013 0.086664692 57
0.27398199 1.2453909 0.10685304 81
0.27797955 1.2385057 0.12507279 92
0.25996673 1.2695296 0.15477379 67
0.27554077 1.2465291 0.0095988233 61
0.26989424 1.2563329 0.029412808 100
0.26759404 1.2603266 0.049504463 86
0.27358207 1.2499299 0.068003096 51
0.27789262 1.2424457 0.086351827 58
0.27172369 1.2531564 0.10837951 79
0.28058919 1.2377638 0.12462288 83
0.25978383 1.2738869 0.15580906 67
0.27720582 1.2474842 0.0095988233 76
0.27555665 1.2503709 0.028994121 100
0.25942376 1.278609 0.051247578 82
0.27919796 1.2439973 0.067028143 51
0.28248316 1.238247 0.085413218 58
0.27049023 1.2592388 0.10952436 85
0.28899056 1.2268569 0.12147357 86
0.26927 1.2613747 -0.0098780617 87
0.26537782 1.2681874 0.15373851 76
0.26408556 1.2745299 0.010122396 85
0.2732963 1.2582765 0.029412808 100
0.27102402 1.2622862 0.049504463 86
0.2769393 1.251848 0.068003096 51
0.28217146 1.2426152 0.086038955 58
0.27219969 1.2602116 0.10952436 85
0.29250845 1.2243743 0.12057377 69
0.27394468 1.2571323 -0.0097733475 77
0.26330867 1.2759008 0.15580906 67
0.27573195 1.2581408 0.0097733475 89
0.28095779 1.24884 0.028784776 100
0.27770996 1.2546204 0.048632905 88
0.27676246 1.2563068 0.068490572 50
0.28777593 1.2367051 0.084787481 59
0.277845 1.2543801 0.10799789 79
0.28940269 1.2338097 0.12282328 85
0.27084261 1.2668428 0.15270324 68
0.2813313 1.2521082 0.0096337283 90
0.27679738 1.260244 0.029412808 100
0.27455384 1.2642698 0.049504463 86
0.28039432 1.2537895 0.068003096 51
0.28556025 1.2445196 0.086038955 72
0.28144884 1.2518973 0.10723466 88
0.29671508 1.224503 0.12012386 86
0.27163821 1.2695018 0.15322088 76
0.28196386 1.2547464 0.0096686333 75
0.28422335 1.2506602 0.028784776 100
0.27715853 1.263437 0.049330149 87
0.28584239 1.2477322 0.067028143 51
0.29095873 1.2384791 0.084787481 59
0.28874838 1.2424766 0.10494494 75
0.29633769 1.2287512 0.12102367 94
0.27797019 1.2619691 0.15063268 70
0.28750369 1.2486657 0.0095290141 76
0.2916649 1.2410777 0.028156744 100
0.27217653 1.276615 0.05055033 84
0.2922841 1.2399485 0.065809444 52
0.29544511 1.2341844 0.083848871 59
0.28567922 1.2519927 0.10685304 81
0.29981464 1.2262166 0.12012386 86
0.27981147 1.2626926 -0.0098082526 88
0.27597353 1.2696911 0.15270324 68
0.28344375 1.2601192 0.0097384425 90
0.28949392 1.2489948 0.028575432 100
0.2825138 1.2618291 0.048981529 87
0.28728715 1.2530524 0.067515619 51
0.29612318 1.2368054 0.084161744 59
0.28267336 1.2615359 0.10876112 79
0.29954654 1.230511 0.12102367 86
0.28535455 1.2566059 -0.0096686333 100
0.27956542 1.2672504 0.15166797 69
0.28800398 1.2557666 0.0096337283 90
0.2911675 1.2499012 0.028575432 100
0.28612381 1.2592527 0.048632905 88
0.29368657 1.2452306 0.06629692 35
0.29587877 1.2411661 0.084787481 59
0.29557431 1.2417306 0.10418171 75
0.28680512 1.2579894 0.14856213 71
0.28772944 1.2601591 0.0097035384 90
0.28899124 1.2578009 0.028994121 100
0.28492779 1.2653952 0.049155839 87
0.2980735 1.2408271 0.065565705 53
0.29806623 1.2408407 0.1038001 76
0.28477916 1.2656729 0.15063268 70
0.29787734 1.2451737 0.0093893949 93
0.2963123 1.2481233 0.028366089 100
0.28198949 1.2751174 0.050027397 85
0.29320562 1.2539785 0.067271881 86
0.29631415 1.2481198 0.08572609 58
0.29419026 1.2521226 0.1060898 73
0.2828812 1.2734368 -0.0099478718 86
0.28741646 1.2648892 0.15011504 78
0.29598185 1.2532183 0.0095290141 76
0.28485802 1.2743793 0.049853086 85
0.29783687 1.2496896 0.066540658 69
0.29512984 1.2548392 0.10647142 73
0.28574669 1.2726886 -0.0099129668 97
0.28841972 1.2676038 0.15063268 78
0.29397303 1.2611952 0.0096686333 75
0.29982391 1.2499701 0.028366089 100
0.29951295 1.2505666 0.047412723 60
0.29767776 1.2540874 0.067028143 51
0.2950089 1.2592077 0.10723466 73
0.29120016 1.266515 -0.0097733475 99
0.29283705 1.2633746 0.14907977 78
0.2983585 1.2567124 0.0095639192 91
0.29836282 1.2567041 0.047935657 89
0.28733769 1.2780284 -0.0099827768 100
0.29891077 1.2556443 0.14649157 72
0.29945239 1.2587712 0.028784776 100
0.2991676 1.2593268 0.067515619 51
0.29355755 1.2702709 0.15063268 78
0.29171574 1.2780068 0.15270324 68
0.29978338 1.2664206 0.0097035384 100
0.29349062 1.2789054 0.15270324 76
0.29981753 1.2709124 0.0097733475 100
0.29534999 1.2798572 -0.0099478718 100
