# .PCD v0.7 - Point Cloud Data file format
VERSION 0.7
FIELDS x y z intensity
SIZE 4 4 4 4
TYPE F F F F
COUNT 1 1 1 1
WIDTH 736
HEIGHT 1
VIEWPOINT 0 0 0 1 0 0 0
POINTS 736
DATA ascii
-1.1682209 0.15442152 0.061756428 21
-1.1665007 0.16290304 0.020558935 20
-1.0820009 0.15110254 0.057255536 29
-1.1837701 0.16931868 0.020873077 30
-1.0526146 0.15412277 0.01856936 6
-1.0105674 0.15139097 0.01783636 5
-1.0297711 0.15812898 0.018185407 2
0.056639194 0.0044538379 0.047730394 64
0.05240953 0.0034849644 0.015951499 100
0.053015769 0.0044188499 0.047835063 48
0.04768163 0.001791954 0.016021309 25
0.04720062 0.0010562539 0.048149079 31
0.050504237 0.011899173 0.015846785 9
0.044187069 0.0078247786 0.047939736 100
0.044728398 0.014664054 0.047625721 67
0.043342412 0.018000126 0.047521047 39
0.030357599 0.0050822496 0.048463095 17
0.031833231 0.018593967 0.047835063 9
0.040737271 0.036720872 0.046788346 10
0.028890729 0.025502264 0.047625721 9
-1.0468612 1.1336772 0.028587041 3
-1.0293365 1.1296861 0.08488892 5
-1.0332563 1.1305789 0.14206386 6
-1.0201919 1.1336621 0.028133279 8
-1.0046585 1.1300646 0.083632857 13
-1.0144551 1.1323335 0.14049506 19
-0.99561781 1.1333753 0.027714422 18
-1.0054002 1.1356751 0.08373753 78
-1.0248818 1.1402552 0.14154093 71
-0.99822992 1.1396972 0.02778423 38
-0.9924584 1.138319 0.083109498 100
-1.021642 1.1452876 0.14136662 100
-0.98727816 1.1424748 0.027609708 45
-0.98540527 1.1420209 0.082795486 100
-1.0068343 1.1472131 0.14014643 84
-0.98001176 1.1469398 0.027504992 30
-0.99560112 1.1507803 0.083423518 100
-0.9937672 1.1503285 0.13910057 91
-0.97487324 1.1510417 0.027435184 25
-0.98657924 1.1539669 0.083004825 61
-0.99443048 1.1559289 0.13927488 87
-0.96972448 1.1551139 0.027365373 35
-0.98142534 1.158079 0.082795486 35
-0.99314219 1.1610482 0.13927488 75
-0.97812289 1.1626396 0.027539898 52
-0.97432667 1.1616641 0.082481466 46
-0.98797756 1.1651716 0.13892625 91
-0.96492583 1.1657382 0.027330469 66
-0.97080976 1.1672752 0.082376793 90
-0.9767403 1.1688244 0.1380547 91
-0.95580322 1.1689752 0.027190849 74
-0.96941382 1.1725814 0.082376793 98
-0.96956104 1.1726204 0.13753176 98
-0.94667655 1.1721534 0.027051231 83
-0.9564262 1.1747731 0.081748761 98
-0.96044976 1.1758542 0.13683452 100
-0.94719309 1.1779009 0.027086135 92
-0.94344193 1.1768789 0.081120729 100
-0.9686355 1.1837428 0.13770607 99
-0.95347017 1.1852541 0.027225753 89
-0.93623704 1.1804944 0.080806717 100
-0.9671821 1.1890414 0.13770607 92
-0.95201153 1.1904998 0.027225753 96
-0.93864173 1.1867567 0.081016064 92
-0.95611697 1.1916491 0.13683452 94
-0.93913943 1.1919454 0.027016325 88
-0.94116837 1.1925204 0.081225403 84
-0.94136637 1.1925764 0.13561434 100
-0.94150156 1.1982447 0.027086135 56
-0.94544345 1.1993765 0.081539422 52
-0.94179732 1.1983296 0.13578865 100
-0.94575793 1.2051241 0.027190849 42
-0.92092246 1.1978993 0.080283359 22
-0.95942396 1.2090995 0.13753176 87
-0.93655735 1.2080815 0.027051231 64
-0.92133564 1.2035958 0.080388032 26
-0.94450408 1.2104234 0.13631158 82
-0.93110961 1.2123826 0.026981421 74
-0.91208166 1.2066991 0.079969339 28
-0.9390617 1.2147577 0.13596296 92
-0.914244 1.212918 0.026702182 75
-0.92775375 1.2170045 0.08091139 64
-0.92224365 1.2153379 0.13456847 100
-0.91284531 1.2175159 0.026702182 83
-0.91679269 1.2187235 0.080388032 100
-0.92464787 1.2211266 0.1349171 99
-0.90936416 1.2220278 0.026667276 92
-0.91140181 1.2226589 0.080178685 92
-0.92687052 1.2274503 0.13526571 80
-0.90769762 1.2273736 0.026667276 85
-0.89829892 1.2244246 0.079550654 80
-0.92898589 1.2340531 0.13561434 59
-0.91371566 1.2348803 0.026806897 83
-0.90622169 1.2325003 0.080074012 70
-0.91406471 1.2349912 0.13439415 40
-0.89685398 1.2350912 0.026527658 83
-0.9064998 1.2381918 0.080178685 80
-0.89725822 1.2352211 0.13299966 48
-0.88761526 1.2376643 0.026388038 93
-0.90675598 1.243891 0.080283359 100
-0.90888816 1.2445846 0.13421984 57
-0.88597411 1.2426797 0.026388038 99
-0.89181298 1.2446017 0.079550654 100
-0.91668504 1.2527889 0.13509139 73
-0.88810986 1.2489531 0.026457848 100
-0.88446277 1.2477385 0.079236634 100
-0.91121024 1.2566465 0.13474278 82
-0.89030391 1.2549957 0.026527658 96
-0.88665634 1.2537674 0.07944598 100
-0.89448279 1.2564029 0.13334829 82
-0.87345904 1.2548622 0.02624842 96
-0.88874012 1.2600672 0.079655327 100
-0.89466208 1.2620845 0.1335226 95
-0.86797661 1.2585254 0.02617861 99
-0.88513237 1.2644359 0.079550654 100
-0.89293557 1.2671243 0.1335226 100
-0.86626273 1.2634721 0.02617861 79
-0.86265117 1.2622136 0.078399263 100
-0.90812463 1.2780581 0.13509139 75
-0.87396175 1.2717354 0.026353134 75
-0.85904068 1.2664779 0.07829459 63
-0.91010052 1.284469 0.13544002 40
-0.87596911 1.2780452 0.026422944 88
-0.85165483 1.2693825 0.077980578 27
-0.89515799 1.2848818 0.13421984 35
-0.8572548 1.2769203 0.0261088 96
-0.87245184 1.2823946 0.079236634 27
-0.87460715 1.2831709 0.13247673 30
-0.85171872 1.280461 0.026038991 96
-0.86502451 1.2853065 0.078922622 74
-0.87842351 1.2901859 0.13299966 18
-0.84617525 1.2839692 0.025969181 100
-0.85197133 1.2861028 0.07829459 100
-0.86912006 1.2924157 0.13230242 13
-0.84812099 1.2902343 0.026038991 100
-0.83705825 1.2861179 0.077561885 100
-0.88782829 1.3050091 0.13421984 1
-0.84638816 1.2948678 0.026038991 100
-0.82973045 1.2886065 0.077247873 46
-0.87112623 1.3041662 0.13282534 1
-0.83333129 1.2954782 0.025829561 92
-0.84284848 1.2990935 0.078085244 53
-0.83758992 1.297096 0.12986206 7
-0.82962173 1.2995871 0.025794657 74
-0.84472221 1.3053837 0.07829459 63
-0.86364239 1.3126464 0.13247673 39
-0.82403594 1.3029535 0.025724847 74
-0.83725864 1.3080821 0.077980578 72
-0.85059422 1.3132547 0.13143086 90
-0.83706182 1.3135836 0.026004085 88
-0.82235497 1.3078201 0.077247873 63
-0.85981959 1.3225021 0.13247673 100
-0.83329672 1.3176858 0.025969181 99
-0.82604033 1.3148129 0.077561885 76
-0.83750516 1.3193521 0.1305593 100
-0.8204276 1.3175771 0.025759751 100
-0.82803136 1.3206153 0.077771232 91
-0.82282132 1.3185335 0.12933913 97
-0.80367309 1.3163698 0.025480513 100
-0.82424885 1.3246746 0.077666558 97
-0.830136 1.3270508 0.13021068 100
-0.80916446 1.3241115 0.025620133 100
-0.81860536 1.3279603 0.077457212 97
-0.835563 1.3348737 0.13090792 100
-0.79740077 1.3193154 0.17866045 22
-0.81461829 1.3318979 0.025759751 100
-0.79264063 1.3228483 0.076096483 100
-0.82437116 1.3359137 0.13003637 100
-0.78079051 1.3179688 0.17671055 22
-0.80516464 1.3338231 0.025620133 100
-0.80166954 1.3323689 0.076724514 100
-0.81676918 1.3386512 0.12951343 100
-0.78060597 1.3236053 0.17695428 18
-0.79581386 1.3354516 0.025480513 100
-0.80522221 1.3394046 0.077038527 99
-0.81110221 1.3418751 0.12916481 100
-0.79330641 1.3343982 0.17890419 17
-0.79393142 1.3399115 0.025480513 96
-0.79781026 1.3415563 0.076724514 92
-0.80736405 1.3456078 0.1289905 100
-0.77315181 1.3310995 0.17646681 18
-0.80663997 1.3508961 0.025759751 63
-0.80315107 1.3494022 0.0771432 40
-0.80900961 1.3519108 0.12933913 50
-0.74563736 1.3247756 0.17305447 11
-0.81755573 1.3609443 0.026004085 72
-0.81222278 1.3586397 0.077771232 74
-0.82536191 1.3643174 0.13108224 28
-0.79116875 1.3495419 0.17939167 8
-0.80632025 1.3617163 0.025829561 100
-0.80466777 1.3609953 0.077457212 100
-0.81232184 1.3643346 0.13003637 93
-0.798235 1.3581889 0.18061037 28
-0.79509622 1.362417 0.025655037 100
-0.80808014 1.3681355 0.077771232 100
-0.81570917 1.3714955 0.1305593 100
-0.794357 1.3620914 0.18036664 35
-0.78753835 1.3646715 0.025550323 100
-0.80963391 1.3744953 0.077980578 100
-0.80631894 1.3730214 0.12986206 100
-0.76688749 1.35549 0.17695428 28
-0.79822522 1.3750682 0.025794657 100
-0.80751556 1.3792375 0.077980578 100
-0.81147665 1.3810152 0.1305593 100
-0.75578028 1.3560193 0.17573559 22
-0.79792637 1.3805957 0.025829561 100
-0.79810351 1.3806759 0.077561885 100
-0.80570573 1.3841197 0.13021068 100
-0.77180904 1.3687649 0.17817298 21
-0.80306131 1.388623 0.025969181 100
-0.81049496 1.3920217 0.078399263 100
-0.79992992 1.3871913 0.12986206 100
-0.7787376 1.3775022 0.17939167 15
-0.7918151 1.3891532 0.025794657 100
-0.81556946 1.4001142 0.078817949 100
-0.80138534 1.3935692 0.13021068 100
-0.77480644 1.381305 0.17914793 14
-0.7860201 1.3921449 0.025724847 100
-0.81517214 1.4057202 0.078922622 100
-0.80281287 1.3999648 0.1305593 100
-0.76906544 1.3842497 0.17866045 10
-0.78565007 1.3976552 0.025759751 100
-0.81113714 1.4096322 0.078817949 100
-0.8006056 1.4046831 0.1305593 100
-0.76691335 1.3888503 0.17866045 5
-0.79790586 1.409168 0.026038991 100
-0.80167753 1.4109566 0.078399263 100
-0.80918342 1.4145157 0.13160518 100
-0.77012604 1.3959951 0.17939167 1
-0.80468577 1.4181848 0.026213514 100
-0.80123359 1.416533 0.078503937 100
-0.79973632 1.4158165 0.13090792 100
-0.78992206 1.41659 0.025969181 100
-0.81167358 1.4270864 0.079236634 100
-0.79758722 1.4202888 0.13090792 100
-0.78765684 1.4212632 0.025969181 100
-0.81296319 1.433584 0.07944598 100
-0.80247456 1.4284775 0.13160518 100
-0.78896505 1.4276917 0.026038991 100
-0.79988247 1.4330543 0.078817949 100
-0.81447417 1.4402218 0.13299966 100
-0.79741174 1.4376889 0.02624842 100
-0.79755968 1.4377623 0.078817949 100
-0.81212634 1.4449806 0.13299966 100
-0.80580479 1.447753 0.026457848 100
-0.79879361 1.4442482 0.079027295 100
-0.80085129 1.4452767 0.1321281 100
-0.79271764 1.4470793 0.02624842 100
-0.80713195 1.4543478 0.079655327 100
-0.79848593 1.4499881 0.1321281 100
-0.79391068 1.4535754 0.02631823 100
-0.80829519 1.460892 0.079864666 100
-0.80498344 1.4592074 0.13299966 100
-0.79151648 1.4582622 0.02631823 100
-0.80232126 1.4638057 0.079655327 100
-0.8149783 1.4702994 0.13421984 100
-0.79253644 1.4650133 0.026388038 100
-0.79622191 1.4669211 0.07944598 100
-0.81594115 1.4771295 0.13456847 100
-0.80073804 1.4752485 0.026597468 100
-0.80086285 1.4753137 0.079864666 100
-0.80286759 1.4763603 0.1335226 100
-0.79131371 1.4759982 0.026457848 93
-0.80381864 1.4825802 0.080178685 100
-0.80404395 1.4826987 0.13387123 100
-0.78530854 1.4788008 0.026388038 44
-0.79603058 1.4844923 0.079864666 44
-0.79802829 1.4855525 0.1335226 86
0.13802603 1.2829421 0.011483683 12
0.13852796 1.2823172 0.03443706 27
0.098359555 1.3323301 0.063100755 19
0.13446912 1.2873707 0.12898688 17
0.19733545 1.2090969 0.13002171 8
0.10845327 1.3197626 0.1889379 6
0.15968165 1.2592936 0.010925206 39
0.17510325 1.2399614 0.031506244 31
0.16235015 1.2559483 0.054385185 51
0.14148742 1.2821014 0.080433764 13
0.15826908 1.2610643 0.099492319 12
0.14598143 1.2764678 0.12593393 60
0.20000872 1.2087405 0.12957181 16
0.15485325 1.2653463 0.16978529 14
0.16015041 1.2622206 0.010960111 100
0.17054576 1.2490956 0.032029606 100
0.16157475 1.2604222 0.054733805 100
0.15929988 1.2632945 0.077265166 29
0.17960897 1.2376524 0.094486415 26
0.15750328 1.2655629 0.122881 100
0.18581337 1.2298188 0.13542053 38
0.15298644 1.2712657 0.1713382 43
0.16796657 1.2556522 0.010785587 100
0.16102296 1.2644792 0.032971654 100
0.15334848 1.2742352 0.056128297 100
0.15971053 1.2661476 0.077508904 29
0.17627653 1.2450883 0.095737889 25
0.17735615 1.243716 0.11715672 100
0.18734017 1.231024 0.13542053 45
0.15703967 1.2695429 0.17030293 43
0.17221034 1.2538968 0.010715778 100
0.17881605 1.2454357 0.031610917 92
0.15519926 1.2756855 0.056128297 97
0.16641802 1.2613159 0.076533951 29
0.17802033 1.246455 0.095737889 25
0.16942963 1.2574584 0.12020966 100
0.18903235 1.2323501 0.13542053 30
0.14817372 1.2846844 0.17496167 35
0.16769031 1.2630484 0.010890301 91
0.17794695 1.2498207 0.03182026 61
0.15199485 1.2832901 0.056825545 95
0.16804937 1.2625853 0.076533951 29
0.17960235 1.2476859 0.095737889 25
0.17826632 1.249409 0.11791996 52
0.20131469 1.2196844 0.13137141 31
0.14159623 1.2967007 0.17858514 40
0.17071953 1.2628615 0.010855397 65
0.17118165 1.262261 0.032552965 59
0.17453545 1.2579029 0.053862248 51
0.18559575 1.2435304 0.073365346 46
0.1897887 1.2380818 0.093547814 52
0.18481523 1.2445446 0.11639348 13
0.19464588 1.23177 0.13452072 23
0.14942032 1.290539 0.17599694 48
0.1747846 1.2609389 0.010785587 65
0.18009296 1.2539934 0.031924933 30
0.16889635 1.2686433 0.054908119 50
0.17993551 1.2541994 0.074827775 45
0.20333812 1.2235789 0.090419121 55
0.19592819 1.2332742 0.11334054 13
0.19854581 1.2298493 0.13362093 31
0.16874507 1.2688411 0.16823238 60
0.18625414 1.2495649 0.010506349 40
0.16738555 1.2744415 0.033180997 28
0.17795077 1.2605122 0.053862248 51
0.19011009 1.2444813 0.073121607 78
0.19306526 1.2405851 0.093547814 65
0.21067935 1.2173626 0.10914274 14
0.20023361 1.2311344 0.13362093 46
0.17174342 1.2686961 0.16771474 75
0.18544012 1.253963 0.010576159 54
0.15343833 1.2964463 0.03454173 27
0.17478433 1.2681088 0.054559495 50
0.18929675 1.2488432 0.073609084 77
0.18868506 1.2496552 0.095112152 51
0.20035228 1.2341667 0.11295892 13
0.20879978 1.2229525 0.13092151 40
0.16874984 1.2761197 0.16978529 66
0.18713167 1.2552326 0.010576159 54
0.20073116 1.2370472 0.030564198 32
0.17652535 1.2694156 0.054559495 50
0.18978158 1.2516892 0.073852822 62
0.1974597 1.2414218 0.093234941 53
0.19844738 1.2401011 0.11410378 13
0.21738535 1.214777 0.12822211 32
0.17514667 1.2712591 0.16771474 67
0.18039688 1.267671 0.010820492 78
0.19751862 1.2446166 0.030982886 31
0.17699561 1.2722509 0.054733805 75
0.19729871 1.2449126 0.072634131 78
0.20962486 1.2283156 0.090419121 68
0.20351985 1.2365359 0.11295892 13
0.21421456 1.2221354 0.13002171 32
0.18602553 1.260092 0.16357364 77
0.18934169 1.2593639 0.010611063 81
0.19570574 1.2507286 0.031296901 62
0.18356711 1.2671992 0.054036561 77
0.1966863 1.2493982 0.073121607 62
0.20896307 1.2327403 0.091044858 81
0.20756164 1.2346419 0.11219569 14
0.21356168 1.2265006 0.13092151 32
0.17865524 1.2738638 0.16771474 82
0.19805264 1.2508751 0.010401634 83
0.2031998 1.2438424 0.030773543 64
0.18639463 1.2668037 0.053862248 100
0.19593316 1.2537709 0.073609084 62
0.19999942 1.2482152 0.093860678 100
0.21490186 1.2278535 0.1102876 14
0.21622831 1.2260412 0.13047162 16
0.18603295 1.2672979 0.16512655 76
0.19981751 1.2521617 0.010401634 97
0.21198091 1.2354141 0.030145511 65
0.19055957 1.2649089 0.053513627 100
0.20470783 1.2454283 0.072146654 79
0.2075586 1.2415032 0.092296332 100
0.21773592 1.2274902 0.10990598 14
0.22362784 1.2193776 0.12822211 8
0.18331712 1.2748809 0.16719711 67
0.19439992 1.2630517 0.010611063 81
0.21586278 1.2332927 0.029936166 66
0.18287903 1.2790258 0.054908119 100
0.20048031 1.254621 0.073365346 93
0.20912406 1.2426362 0.092296332 100
0.21006748 1.241328 0.11295892 13
0.23423925 1.207813 0.12462288 8
0.18838355 1.2713935 0.16564418 68
0.19620943 1.2643517 0.010611063 81
0.20942649 1.2458835 0.03066887 96
0.18938529 1.2738872 0.054210871 100
0.20572475 1.251056 0.072634131 78
0.21315789 1.2406696 0.091670595 100
0.21293986 1.2409743 0.1125773 13
0.2562604 1.1804425 0.11652464 17
0.20483959 1.2522928 0.15891489 73
0.20016748 1.2622622 0.010541254 95
0.21447739 1.2421262 0.030354854 97
0.20029145 1.2620877 0.05281638 100
0.20502204 1.2554312 0.073121607 62
0.20899907 1.249835 0.093234941 100
0.20995441 1.2484906 0.11410378 20
0.22940138 1.2211261 0.1277722 16
0.2019645 1.2597336 0.16098544 72
0.20419329 1.2602122 0.010471444 96
0.21152231 1.2498227 0.030773543 96
0.19971433 1.2665616 0.053165004 100
0.20328578 1.2614987 0.073852822 100
0.21523076 1.2445657 0.091983467 100
0.20823166 1.2544875 0.11524864 54
0.23210135 1.2206501 0.1273223 24
0.2036761 1.2609454 0.16098544 72
0.20811534 1.2580806 0.010401634 83
0.21311533 1.2509425 0.030773543 64
0.19450447 1.2775116 0.054210871 100
0.21858421 1.243135 0.070927955 65
0.21340638 1.250527 0.092922069 100
0.20308203 1.2652662 0.11753834 99
0.23024341 1.2264901 0.128672 56
0.2041977 1.2636734 0.16150309 78
0.20753804 1.2625546 0.010471444 82
0.22505751 1.2373569 0.029831495 99
0.19855294 1.2754778 0.053862248 100
0.20890573 1.2605876 0.073365346 100
0.22297937 1.2403458 0.090731993 95
0.21153736 1.2568026 0.11524864 100
0.22961393 1.2308035 0.12957181 88
0.19599774 1.2791529 0.16616182 76
0.20690113 1.2669789 0.010541254 95
0.22433972 1.2417191 0.03004084 99
0.2092866 1.2635236 0.052467756 100
0.22068459 1.2470136 0.071171694 81
0.22790772 1.2365508 0.089793384 100
0.21649969 1.2530754 0.11410378 89
0.22892949 1.2350708 0.13047162 96
0.21085864 1.2612464 0.15995017 72
0.21089867 1.2648743 0.010471444 82
0.22373039 1.2461481 0.030250182 98
0.21326381 1.2614228 0.052119136 100
0.21786335 1.2547103 0.072146654 63
0.22842166 1.2393018 0.090106249 96
0.22262692 1.2477585 0.1125773 100
0.22835177 1.2394038 0.13137141 94
0.21694344 1.2560527 0.15787962 81
0.21479133 1.2626895 0.010401634 83
0.22980511 1.2406223 0.029831495 66
0.21489528 1.2625368 0.052119136 100
0.22393912 1.2492441 0.071171694 81
0.22442377 1.2485317 0.091670595 100
0.22642174 1.2455951 0.11181407 100
0.23210254 1.2372454 0.13047162 88
0.21638367 1.260349 0.15891489 73
0.21548057 1.2655722 0.010436539 41
0.22594503 1.2500697 0.030354854 32
0.21335864 1.2687157 0.05264207 53
0.21459159 1.2668892 0.073609084 93
0.23060063 1.2431726 0.090419121 100
0.23475748 1.2370145 0.10952436 92
0.23708805 1.2335619 0.1291219 96
0.21061727 1.2727768 0.16253836 70
0.21489921 1.2700011 0.010506349 40
0.22531489 1.2544599 0.030564198 32
0.21168661 1.2747946 0.053165004 52
0.22508246 1.2548068 0.071659178 80
0.23327124 1.2425883 0.090106249 96
0.22428486 1.2559968 0.11372216 89
0.24188179 1.2297406 0.1277722 97
0.21551299 1.2690853 0.16098544 72
0.21673405 1.2712259 0.010506349 40
0.21161085 1.2789311 0.032029606 30
0.21684852 1.2710538 0.05264207 53
0.231258 1.2493821 0.070684217 81
0.24484906 1.2289414 0.087290429 99
0.22715533 1.2555525 0.11334054 82
0.23925295 1.2373579 0.12957181 96
0.22055337 1.2654817 0.15943253 73
0.21949968 1.2706594 0.010471444 27
0.20229715 1.2967188 0.033076324 29
0.22839069 1.2571909 0.051073264 55
0.22628769 1.2603766 0.072146654 79
0.24637264 1.2299509 0.087290429 99
0.23850158 1.2418743 0.10990598 85
0.2343629 1.2481438 0.13227122 100
0.22113395 1.2681837 0.15995017 72
0.23338789 1.2534657 0.010087491 43
0.22173733 1.271256 0.031401575 31
0.23345309 1.253366 0.05055033 56
0.23787507 1.2466137 0.069953002 99
0.23940271 1.2442811 0.089793384 100
0.24345991 1.2380856 0.10876112 94
0.24572617 1.2346251 0.12822211 97
0.22613722 1.2645373 0.15839726 73
0.22845292 1.2645719 0.010296919 28
0.22340137 1.2723417 0.031401575 31
0.2285417 1.2644354 0.051596198 54
0.23837528 1.2493104 0.07019674 82
0.24528414 1.2386838 0.08854191 84
0.24501383 1.2390996 0.10876112 87
0.25045523 1.2307302 0.12687239 90
0.22251391 1.2737068 0.16098544 72
0.23035431 1.265803 0.010296919 56
0.24697712 1.2400193 0.029308135 34
0.22180587 1.2790625 0.05299069 52
0.24344489 1.2454982 0.069465525 66
0.24708599 1.2398504 0.08854191 98
0.24149829 1.2485175 0.11066922 85
0.2522265 1.231877 0.12687239 99
0.22131005 1.2798315 0.16253836 70
0.22984427 1.2702287 0.010366729 69
0.24746078 1.2427038 0.029412808 67
0.23745814 1.2583325 0.05072464 56
0.24609348 1.2448401 0.069221787 67
0.25290516 1.2341971 0.087290429 85
0.24414513 1.2478843 0.1102876 85
0.2527093 1.2345033 0.1273223 97
0.23862341 1.2565117 0.15477379 75
0.24025413 1.2578931 0.010087491 57
0.24170199 1.2556126 0.030145511 98
0.23818219 1.2611568 0.050898954 83
0.23826027 1.2610338 0.071415432 48
0.25460854 1.2352829 0.087290429 71
0.24168971 1.2556319 0.11181407 98
0.25545824 1.2339445 0.12687239 82
0.23626697 1.2641735 0.15684435 66
0.25466791 1.2386165 0.0096686333 75
0.24224916 1.258322 0.030250182 98
0.23875037 1.2638736 0.051073264 83
0.25047427 1.2452707 0.068978049 50
0.25615308 1.2362599 0.087290429 71
0.25272259 1.2417033 0.10837951 87
0.25492033 1.238216 0.1277722 89
0.23584741 1.2684798 0.15787962 65
0.2456179 1.2565461 0.010017681 87
0.2544629 1.2424076 0.029203463 100
0.23721975 1.2699703 0.051596198 54
0.25205195 1.2462615 0.068978049 50
0.25351021 1.2439305 0.08854191 70
0.24387607 1.2593304 0.11219569 91
0.26267585 1.2292795 0.12507279 92
0.23340383 1.2760699 0.15995017 64
0.24617806 1.2592516 0.010052586 86
0.25181648 1.2501719 0.029622151 100
0.23993051 1.2693121 0.051421888 82
0.25153849 1.2506196 0.069465525 49
0.25925189 1.2381985 0.087290429 57
0.25896469 1.2386611 0.10723466 81
0.27036881 1.2202967 0.12237337 85
0.23712206 1.2738347 0.15891489 65
0.24692461 1.2620646 0.010087491 71
0.25253099 1.2529621 0.029726824 100
0.24176267 1.2704453 0.051421888 82
0.24705577 1.2618515 0.070927955 48
0.26304176 1.2358972 0.086664692 57
0.24729967 1.2614555 0.11219569 91
0.26793319 1.2279556 0.12417299 83
0.24504957 1.2651088 0.15580906 67
0.25377327 1.2545363 0.0099129668 87
0.2468417 1.2658741 0.030459527 97
0.2506986 1.2595656 0.050201707 85
0.25904283 1.245917 0.068490572 50
0.26458833 1.2368462 0.086664692 57
0.26224363 1.2406814 0.10723466 81
0.27046984 1.2272258 0.12372308 83
0.24467775 1.2694138 0.15684435 66
0.26392788 1.2419894 0.0096337283 90
0.2570298 1.2533704 0.029622151 100
0.25051516 1.2641189 0.05055033 100
0.25161204 1.2623092 0.070684217 32
0.26433519 1.2413173 0.087290429 71
0.25998262 1.2484986 0.10876112 87
0.2681872 1.2349619 0.12552269 90
0.24459496 1.2738867 0.15787962 65
0.26446381 1.2446489 0.0096686333 90
0.2565752 1.2577622 0.029831495 99
0.25523654 1.2599875 0.050027397 85
0.25836268 1.2547909 0.069465525 49
0.26589972 1.242262 0.087290429 57
0.26663113 1.2410462 0.10685304 66
0.27475336 1.2275445 0.12327318 85
0.25025097 1.268275 0.15580906 67
0.26911476 1.2404423 0.0095639192 91
0.26126593 1.253588 0.029517479 100
0.24971333 1.2729369 0.051247578 82
0.26200718 1.2523465 0.068978049 50
0.27151799 1.2364173 0.086038955 72
0.25913671 1.2571541 0.1102876 85
0.27527314 1.2301279 0.12372308 83
0.24992424 1.2725837 0.15684435 66
0.25844321 1.2620152 0.0099827768 87
0.27407122 1.2356422 0.028366089 100
0.24935135 1.2773581 0.051596198 82
0.26765624 1.2464678 0.068003096 51
0.27508029 1.2339394 0.085413218 58
0.26275545 1.2547381 0.10952436 78
0.27779394 1.22936 0.12327318 76
0.25947127 1.2602803 0.15270324 68
0.2664957 1.2528352 0.0097733475 89
0.26582983 1.2539692 0.029412808 100
0.26349625 1.2579435 0.049504463 100
0.26957116 1.2475973 0.068003096 68
0.27094367 1.2452599 0.087290429 71
0.26370957 1.2575802 0.10990598 85
0.28062683 1.2287685 0.12282328 93
0.26144171 1.2614425 0.15270324 68
0.27514595 1.2416782 0.0095290141 76
0.26542518 1.2583601 0.029622151 100
0.25909722 1.2692196 0.05055033 100
0.27515423 1.2416641 0.067028143 51
0.27351576 1.2444758 0.086977564 57
0.27323559 1.2449567 0.10685304 88
0.27724394 1.2380779 0.12507279 83
0.25918245 1.2690734 0.15477379 67
0.27070525 1.2529737 0.0097384425 60
0.26904586 1.2558432 0.029412808 100
0.26274908 1.266732 0.050201707 85
0.27473235 1.2460098 0.067515619 51
0.28201288 1.2334199 0.084787481 59
0.26989806 1.2543696 0.10876112 87
0.2875776 1.2237971 0.12102367 86
0.25697064 1.2767243 0.15684435 66
0.26633653 1.2643036 0.0099478718 73
0.2805995 1.2394494 0.028366089 100
0.25943953 1.2763221 0.051073264 100
0.27433628 1.2503635 0.068003096 51
0.2835511 1.234306 0.084787481 59
0.26955146 1.2587013 0.10952436 78
0.28908387 1.2246647 0.12102367 86
0.26633653 1.2643036 -0.0099478718 86
0.2624988 1.2709911 0.15477379 67
0.27120253 1.2601745 0.0098431576 88
0.27055478 1.2613134 0.029622151 100
0.26631096 1.2687747 0.050201707 85
0.2693128 1.263497 0.069709264 33
0.28533587 1.2353256 0.084787481 73
0.27143002 1.2597746 0.10952436 85
0.2889047 1.2290511 0.12192347 76
0.2702139 1.2619127 -0.0098780617 87
0.26633477 1.2687329 0.15373851 68
0.27774391 1.252389 0.0096686333 90
0.28200233 1.2448438 0.028575432 100
0.27482149 1.2575669 0.048981529 87
0.27387792 1.2592388 0.068978049 50
0.28396764 1.2413616 0.08572609 58
0.27884546 1.2504373 0.10723466 88
0.2904284 1.2299144 0.12192347 85
0.2679902 1.2696708 0.15373851 68
0.28244326 1.2481484 0.0095639192 91
0.27594215 1.2597665 0.029412808 100
0.2785562 1.2550949 0.048632905 88
0.28148904 1.2498536 0.067515619 51
0.28569704 1.2423335 0.08572609 58
0.28348425 1.2462881 0.1060898 81
0.29116419 1.2325633 0.12237337 85
0.27076682 1.2690152 0.15322088 76
0.28208894 1.2525296 0.0096337283 90
0.28726289 1.2432109 0.028366089 100
0.27629772 1.26296 0.049330149 87
0.2840454 1.2490058 0.067271881 34
0.29014149 1.2380263 0.084787481 59
0.28220612 1.2523185 0.10723466 88
0.29553741 1.2283077 0.12102367 86
0.27336091 1.2682495 0.15270324 68
0.27895197 1.2622203 0.0098082526 74
0.28698948 1.2476242 0.028575432 100
0.27513698 1.2691482 0.049853086 85
0.28667659 1.2481924 0.067028143 51
0.29082394 1.2406609 0.085100345 58
0.2895734 1.2429318 0.10494494 75
0.29901877 1.2257792 0.12012386 77
0.27509364 1.2692269 -0.0099478718 86
0.27510181 1.269212 0.15270324 68
0.27770942 1.2683809 0.0099129668 87
0.28857478 1.2484938 0.028575432 100
0.27774897 1.2683085 0.049678773 86
0.2844567 1.2560312 0.068003096 51
0.29806879 1.2311167 0.083223134 60
0.28361276 1.2575759 0.10799789 79
0.27770942 1.2683809 -0.0099129668 97
0.28231624 1.259949 0.14959741 70
0.29104936 1.2483203 0.0094941091 92
0.28661054 1.2565196 0.028994121 100
0.28725272 1.2553334 0.048284281 88
0.28632489 1.2570472 0.068003096 51
0.28735623 1.2551422 0.10723466 81
0.28343317 1.2623887 -0.0097733475 88
0.28787836 1.2541777 0.14752686 71
0.29547551 1.2438915 0.0093893949 77
0.29011542 1.2538712 0.028784776 100
0.28509268 1.2632229 0.048981529 87
0.2935771 1.247426 0.066540658 52
0.29670149 1.2416089 0.084787481 59
0.29639801 1.2421739 0.10418171 75
0.28765723 1.2584481 0.14856213 71
0.29251552 1.2536469 0.0095639192 91
0.2975221 1.2442427 0.028156744 100
0.28783849 1.2624319 0.048807215 58
0.29906014 1.2413538 0.065565705 53
0.29657513 1.2460214 0.085413218 58
0.29720771 1.2448332 0.10456333 75
0.2849977 1.2677679 -0.0098431576 87
0.27673945 1.2832799 0.15580906 75
0.29038528 1.2615709 0.0097035384 90
0.28389019 1.2738693 0.049853086 57
0.29877049 1.2456939 0.066053182 52
0.29053208 1.2612931 0.10799789 79
0.28478208 1.2721804 -0.0099129668 87
0.28205177 1.2773502 0.15373851 76
0.29303047 1.2607027 0.0096686333 90
0.28472632 1.2765601 0.050027397 85
0.29030246 1.2659121 0.068734311 84
0.29224861 1.2621957 0.10799789 72
0.29395816 1.2589312 -0.0096337283 100
0.29368275 1.2594571 0.1480445 79
0.29384121 1.2633371 0.048632905 88
0.29660895 1.2580068 0.067515619 51
0.29013741 1.2704704 -0.0098431576 97
0.29450259 1.2620634 0.14856213 71
0.29558811 1.264183 0.068246834 68
0.29799026 1.259517 0.14752686 71
0.29910311 1.2615643 0.048284281 59
0.29550979 1.2686043 0.068734311 84
0.29091811 1.2776005 0.15270324 68
0.29719821 1.2695955 0.0097733475 100
0.29812181 1.2677703 0.048807215 58
0.29994059 1.2641759 0.068003096 100
0.29358673 1.2767327 -0.0099129668 100
0.29530823 1.2733306 0.15115032 77
0.29894367 1.2704749 0.0097733475 100
0.29624024 1.2803009 -0.0099478718 100
0.29979134 1.2775962 -0.0098780617 100
