# .PCD v0.7 - Point Cloud Data file format
VERSION 0.7
FIELDS x y z intensity
SIZE 4 4 4 4
TYPE F F F F
COUNT 1 1 1 1
WIDTH 730
HEIGHT 1
VIEWPOINT 0 0 0 1 0 0 0
POINTS 730
DATA ascii
-1.1041594 0.151251 0.058406927 27
-1.1822289 0.16594104 0.020838173 22
-1.1076074 0.15546694 0.058616269 30
-1.1143463 0.16038123 0.019651409 4
-1.0406096 0.1532927 0.018359931 6
-1.012359 0.15292418 0.017871264 4
-1.0375378 0.1602485 0.018325027 1
0.054566741 0.0044697523 0.015916595 121
0.051073939 0.010457635 0.047625721 26
0.05063042 0.015534818 0.047416378 100
0.040242732 0.0056511164 0.048149079 79
0.033121884 0.00080418587 0.048567768 50
0.037158489 0.012536228 0.047939736 27
0.039019585 0.020930707 0.047521047 19
0.033014178 0.01778096 0.047835063 18
0.030391634 0.019590139 0.047835063 9
0.014062703 0.0017518401 0.049091127 7
0.018274844 0.013431609 0.048463095 8
-1.0082858 1.1231759 0.08373753 3
-1.0375192 1.1298015 0.14241248 6
-1.0362244 1.135334 0.028412517 8
-1.0070436 1.1286132 0.08373753 7
-1.0323706 1.1344464 0.14206386 11
-1.0174155 1.1367682 0.028098375 11
-1.0077269 1.1345012 0.083842203 58
-1.0252688 1.1386058 0.14154093 52
-1.0004973 1.1388087 0.027819136 36
-0.9927792 1.1369728 0.083109498 100
-1.0180924 1.1429939 0.14101799 95
-0.97587508 1.1385843 0.027400278 42
-0.99731308 1.1437627 0.083423518 100
-1.0032239 1.1451905 0.13979781 84
-0.97464448 1.1436422 0.027400278 38
-0.99994487 1.1498425 0.083632857 100
-1.0019712 1.1503391 0.13979781 84
-0.97721201 1.1499275 0.027470088 23
-0.97535127 1.1494646 0.082376793 80
-0.99870068 1.1552732 0.13962349 82
-0.97774798 1.1560123 0.027504992 26
-0.98363227 1.1574991 0.082900152 37
-1.0011415 1.1619231 0.13997212 68
-0.97445422 1.1608461 0.027470088 46
-0.96872753 1.1593779 0.082167454 36
-0.9804644 1.162387 0.13822901 82
-0.96146888 1.1631448 0.027260659 63
-0.97702378 1.1671908 0.082690813 75
-0.97715706 1.1672254 0.1380547 91
-0.95622021 1.1673981 0.027190849 72
-0.96790332 1.1704805 0.08227212 100
-0.98154062 1.1740786 0.13857763 98
-0.95296234 1.1718742 0.027155945 81
-0.95113117 1.1713846 0.081434749 92
-0.97249311 1.1770965 0.13788038 100
-0.95927042 1.1792111 0.027295563 92
-0.94393796 1.1750541 0.081120729 100
-0.9729858 1.1829299 0.1380547 100
-0.95790511 1.1842139 0.027295563 93
-0.93680876 1.1784189 0.080806717 100
-0.96392316 1.1858671 0.13735744 92
-0.94103879 1.1851836 0.027016325 93
-0.9507665 1.1878923 0.081644088 94
-0.96054298 1.1906146 0.13718314 94
-0.93565816 1.1895589 0.026946515 92
-0.94538063 1.1923045 0.081434749 86
-0.94940418 1.1934408 0.13631158 99
-0.9610998 1.2024448 0.027435184 56
-0.93237633 1.1942247 0.080806717 68
-0.95366353 1.2003167 0.13683452 100
-0.95581609 1.2063403 0.027365373 44
-0.92328805 1.1969146 0.080388032 26
-0.95414191 1.2058551 0.13700883 92
-0.94469017 1.2087775 0.027190849 57
-0.91795605 1.2009296 0.080178685 22
-0.94496447 1.2088581 0.13631158 84
-0.91631502 1.206013 0.026702182 75
-0.9221862 1.2077589 0.080492698 26
-0.93960398 1.2129381 0.13596296 91
-0.91286927 1.2105521 0.026667276 81
-0.9321236 1.2163507 0.081120729 42
-0.93232542 1.2164115 0.13544002 98
-0.91897351 1.2179891 0.026806897 88
-0.90954214 1.2151129 0.079969339 94
-0.93266386 1.2221642 0.13561434 100
-0.9135794 1.2219341 0.026737086 88
-0.90416282 1.2190263 0.07976 95
-0.93298024 1.2279248 0.13578865 89
-0.91962737 1.2294267 0.026876707 89
-0.90258664 1.2240996 0.07976 76
-0.92186457 1.2301261 0.1349171 64
-0.90657562 1.230934 0.026667276 83
-0.90860945 1.2315776 0.080178685 64
-0.91075176 1.2322556 0.13404553 47
-0.89361209 1.2321038 0.026457848 79
-0.91277725 1.2382387 0.080492698 76
-0.90351814 1.2352748 0.1335226 46
-0.89769739 1.238989 0.026562562 88
-0.89213353 1.2371866 0.07944598 100
-0.91136223 1.2434158 0.13439415 49
-0.89406866 1.2436687 0.026527658 99
-0.89230925 1.2430916 0.079550654 100
-0.9171899 1.2512527 0.13509139 71
-0.8924064 1.2487066 0.026527658 100
-0.88685793 1.2468652 0.079341307 100
-0.91550106 1.2563713 0.13509139 82
-0.87943619 1.2496701 0.02631823 100
-0.89473611 1.2548043 0.079864666 100
-0.89499134 1.25489 0.13334829 90
-0.87017888 1.2520857 0.02617861 89
-0.88925248 1.2585604 0.079655327 100
-0.89706331 1.2612118 0.13369691 78
-0.86848742 1.2570401 0.02617861 99
-0.87620431 1.2596898 0.079027295 100
-0.89722425 1.266907 0.13387123 94
-0.87433487 1.2646126 0.02631823 83
-0.86693925 1.2620444 0.07860861 100
-0.90865582 1.2765307 0.13509139 87
-0.87439901 1.2704926 0.026353134 75
-0.86324197 1.2665724 0.078503937 80
-0.90490979 1.2812132 0.1349171 47
-0.86699039 1.2734532 0.02624842 81
-0.86150008 1.2715025 0.078503937 40
-0.88809711 1.2809523 0.1335226 39
-0.85778481 1.2754464 0.0261088 96
-0.85418993 1.2741556 0.078189917 19
-0.88076931 1.2836986 0.13299966 33
-0.85601193 1.2803574 0.0261088 93
-0.85617632 1.2804171 0.078399263 57
-0.87896746 1.2886899 0.13299966 18
-0.85422188 1.2852621 0.0261088 100
-0.84876102 1.2832584 0.078085244 100
-0.87714809 1.2936747 0.13299966 13
-0.85616452 1.2915516 0.02617861 100
-0.8525787 1.2902215 0.078399263 100
-0.86970741 1.2965746 0.13247673 3
-0.83579212 1.2889537 0.025829561 100
-0.83223337 1.287621 0.077352546 55
-0.87177783 1.3024297 0.13282534 1
-0.8264913 1.2909565 0.025689943 93
-0.84909767 1.2995123 0.078399263 48
-0.84382302 1.297516 0.130385 3
-0.82653219 1.2964725 0.025724847 71
-0.83231694 1.2986851 0.077561885 55
-0.85127777 1.3059368 0.13125655 22
-0.83214706 1.3041577 0.025864467 72
-0.83046311 1.303507 0.077561885 76
-0.84382313 1.3086703 0.13073361 60
-0.83586222 1.3111613 0.025969181 81
-0.82673198 1.307596 0.077457212 68
-0.85306984 1.3178806 0.13177948 100
-0.8228038 1.3115923 0.025759751 99
-0.83227867 1.3153303 0.077875905 70
-0.82520169 1.3125383 0.12933913 97
-0.81347448 1.3134196 0.025620133 100
-0.8340773 1.321631 0.078085244 91
-0.82700104 1.3188107 0.12968774 99
-0.81156927 1.3181756 0.025620133 100
-0.81732136 1.3204916 0.077247873 91
-0.82877344 1.3251021 0.13003637 100
-0.8096475 1.3229251 0.025620133 100
-0.81539148 1.3252609 0.077247873 100
-0.83605546 1.3336643 0.13090792 100
-0.77949113 1.3106614 0.17622307 13
-0.81510812 1.3307068 0.025759751 100
-0.8042075 1.3262295 0.076724514 99
-0.81749254 1.3316863 0.12933913 100
-0.7775957 1.3152989 0.17622307 15
-0.80215806 1.3306353 0.025550323 100
-0.80789047 1.3330121 0.077038527 100
-0.80457968 1.3316393 0.12829325 100
-0.80695337 1.3326235 0.18036664 26
-0.79281467 1.3322623 0.025410704 100
-0.80223233 1.3362057 0.07682918 100
-0.81915098 1.3432899 0.12986206 100
-0.76836008 1.3220228 0.17549185 16
-0.78716022 1.3353887 0.025340894 100
-0.79104978 1.3370333 0.076305822 96
-0.81163627 1.3457379 0.12933913 100
-0.77191025 1.3289406 0.17622307 20
-0.80908662 1.3502604 0.025794657 71
-0.79640967 1.3448479 0.076724514 47
-0.81694776 1.3536167 0.13003637 84
-0.78090507 1.3382282 0.1776855 15
-0.82174355 1.3613338 0.026073895 64
-0.81090182 1.3566601 0.077666558 57
-0.82953924 1.3646944 0.13143086 18
-0.80078858 1.3523005 0.18061037 5
-0.80316895 1.3589363 0.025759751 100
-0.81067699 1.3622041 0.077771232 100
-0.80005199 1.3575797 0.12881619 61
-0.79692763 1.35622 0.18036664 19
-0.78645891 1.3572209 0.025480513 100
-0.81225866 1.368557 0.077980578 100
-0.80893725 1.3670976 0.12986206 100
-0.78760356 1.3577238 0.17939167 38
-0.7917127 1.3651257 0.025620133 100
-0.80650955 1.3716888 0.077771232 100
-0.81777221 1.3766844 0.13090792 100
-0.78372926 1.3615844 0.17914793 40
-0.80240291 1.3755257 0.025864467 100
-0.80257815 1.3756042 0.077666558 100
-0.81564623 1.3814552 0.13090792 100
-0.76535016 1.3589356 0.17695428 22
-0.80756992 1.3835369 0.026004085 100
-0.80409592 1.3819668 0.077875905 100
-0.81350356 1.3862185 0.13090792 100
-0.76690418 1.3651586 0.17744176 20
-0.79450387 1.3832927 0.025794657 100
-0.80740291 1.3891765 0.078189917 100
-0.79684252 1.3843594 0.12951343 100
-0.79010361 1.3812854 0.18085411 15
-0.78872198 1.3863096 0.025724847 100
-0.81067604 1.3964167 0.078503937 100
-0.80916828 1.3957224 0.13090792 100
-0.76271719 1.3743377 0.17744176 11
-0.7920031 1.3935065 0.025829561 100
-0.80304724 1.3986378 0.078189917 100
-0.81058961 1.402142 0.13125655 100
-0.76059967 1.3789163 0.17744176 13
-0.79706079 1.4015828 0.025969181 100
-0.80084461 1.403357 0.078189917 100
-0.8083747 1.4068875 0.13125655 100
-0.76565546 1.3868582 0.17841671 7
-0.80218989 1.409466 0.0261088 100
-0.8041535 1.4103947 0.078503937 100
-0.80265301 1.409685 0.13090792 100
-0.77616447 1.3971583 0.18012288 3
-0.7909258 1.4098761 0.025934275 100
-0.80912012 1.4185582 0.078922622 100
-0.80041188 1.4144027 0.13090792 100
-0.78688234 1.4136853 0.025899371 100
-0.8122465 1.4258978 0.079236634 100
-0.80174452 1.4208412 0.13125655 100
-0.79901677 1.4253383 0.02617861 100
-0.79737324 1.4245399 0.078503937 100
-0.81021708 1.4307793 0.13230242 100
-0.79672104 1.4300432 0.02617861 100
-0.79866713 1.4309971 0.078713275 100
-0.81148046 1.4372771 0.13265105 100
-0.79799396 1.4365128 0.02624842 100
-0.80172271 1.4383565 0.079027295 100
-0.80914289 1.4420254 0.13265105 100
-0.79208022 1.439429 0.02617861 99
-0.80116874 1.4439623 0.079131968 100
-0.80678886 1.4467657 0.13265105 100
-0.78259009 1.4405143 0.026038991 100
-0.8059445 1.4522655 0.079550654 100
-0.80441815 1.4514976 0.13265105 100
-0.79094046 1.4505923 0.02624842 100
-0.79999262 1.4551866 0.079341307 100
-0.81091434 1.4607298 0.1335226 100
-0.79567653 1.4589138 0.026388038 100
-0.79581481 1.4589846 0.079236634 100
-0.81558889 1.4691079 0.13421984 100
-0.79681712 1.4654419 0.026457848 100
-0.80404943 1.4691763 0.079864666 100
-0.80251843 1.4683857 0.13317397 100
-0.78728706 1.4664443 0.02631823 100
-0.80868632 1.4775888 0.080283359 100
-0.80360657 1.4749432 0.1335226 100
-0.78851122 1.4727341 0.026388038 100
-0.80633241 1.4820905 0.080283359 100
-0.80655354 1.4822066 0.13404553 100
-0.78074831 1.474595 0.026283324 67
-0.78089207 1.4746711 0.078922622 72
-0.80582005 1.4878697 0.13421984 92
0.097967058 1.3320147 0.063100755 19
0.12057307 1.3039086 0.13318467 10
0.18725815 1.2209986 0.13362093 7
0.15568197 1.2637769 0.011029921 25
0.15740871 1.2616146 0.032971654 29
0.17204204 1.2432903 0.05299069 26
0.13626441 1.2880921 0.081408724 13
0.14568534 1.2762949 0.10262101 11
0.14939162 1.2716539 0.12478908 48
0.18397048 1.2283531 0.13542053 15
0.16182697 1.2560819 0.16667947 7
0.1697481 1.2494147 0.010680873 93
0.16772911 1.2519602 0.032238949 90
0.15008944 1.2742 0.056302611 96
0.1688242 1.2505795 0.075315252 30
0.17191735 1.2466797 0.096363634 25
0.17179751 1.2468307 0.11830158 100
0.18185946 1.2341448 0.13677025 30
0.1490351 1.2755291 0.17289113 28
0.16400081 1.2601652 0.010890301 100
0.18300614 1.2360312 0.031087559 100
0.15554982 1.2708969 0.055779677 100
0.17296034 1.2487879 0.074827775 30
0.17358357 1.2479966 0.096363634 37
0.16253257 1.2620298 0.12173614 100
0.19433275 1.221648 0.13272113 39
0.15199736 1.275408 0.17237349 42
0.1643104 1.2629504 0.010925206 100
0.18077984 1.2419008 0.031401575 100
0.15466994 1.2752719 0.056128297 100
0.16712695 1.2593505 0.076290213 29
0.17752159 1.2460651 0.095737889 25
0.16891935 1.2570597 0.12020966 100
0.19335172 1.2258327 0.13362093 31
0.14882541 1.2827418 0.17444403 42
0.16358 1.2674522 0.010995016 100
0.17140222 1.2573824 0.032343622 90
0.15888056 1.2735019 0.055779677 98
0.1785796 1.2481426 0.074340299 30
0.17676201 1.2504826 0.096363634 37
0.18025684 1.2459835 0.11715672 100
0.18777221 1.2363087 0.13632034 30
0.14587721 1.2902416 0.1765146 41
0.17028958 1.2625303 0.010855397 52
0.18660501 1.2413672 0.03119223 63
0.16802746 1.2654645 0.054733805 75
0.1742745 1.2573614 0.07555899 30
0.17852557 1.2518473 0.096363634 37
0.181155 1.2484366 0.13946965 22
0.15368426 1.2840695 0.1739264 49
0.17678767 1.2574358 0.010715778 53
0.16267204 1.2758716 0.033390339 28
0.17572874 1.2588189 0.053862248 51
0.18313348 1.2491479 0.07409656 46
0.19333529 1.2358238 0.092922069 53
0.1883629 1.2423179 0.11563025 13
0.19222116 1.2372788 0.13587044 30
0.16478661 1.2731099 0.16978529 59
0.17123064 1.2682874 0.010925206 52
0.18619594 1.2486 0.031506244 31
0.16296887 1.2791562 0.055953987 48
0.1908147 1.2425238 0.072877869 63
0.17942315 1.2575098 0.096989371 50
0.19238994 1.2404515 0.11486702 13
0.20446807 1.2245622 0.13182132 47
0.17589769 1.2621478 0.16564418 68
0.18011415 1.2599649 0.010715778 53
0.16853109 1.2753083 0.033180997 28
0.17306247 1.2693058 0.054733805 50
0.19118759 1.2452966 0.073121607 78
0.19532409 1.2398173 0.093234941 53
0.19040334 1.2463355 0.11601187 13
0.21302217 1.2163737 0.1291219 32
0.17520383 1.2664692 0.16667947 67
0.17960081 1.2645828 0.010785587 52
0.15610722 1.295953 0.03443706 27
0.17617679 1.2691548 0.054559495 50
0.19301525 1.2466708 0.073121607 62
0.20660368 1.2285266 0.090731993 54
0.20047298 1.2367127 0.11334054 13
0.21006599 1.2239035 0.13092151 40
0.18174502 1.2617196 0.16460891 69
0.19317681 1.2497628 0.010436539 82
0.19837928 1.2427678 0.030878214 31
0.18259022 1.2639968 0.053862248 51
0.18512052 1.2605947 0.075071514 75
0.19987395 1.2407582 0.092922069 53
0.20905244 1.2284174 0.11105084 14
0.21157303 1.2250283 0.13092151 32
0.18568346 1.2598379 0.16357364 69
0.1865392 1.2622664 0.010680873 80
0.20833603 1.2327451 0.030145511 65
0.18668368 1.2620707 0.053513627 78
0.19744718 1.2474928 0.072877869 47
0.20151934 1.2419775 0.092922069 79
0.20832241 1.2327635 0.11181407 14
0.21432096 1.2246392 0.13047162 32
0.1828056 1.267323 0.16564418 68
0.18817362 1.263469 0.010680873 80
0.20396742 1.2419288 0.03066887 64
0.18360499 1.2696998 0.054210871 100
0.20255396 1.2438567 0.072146654 63
0.20308641 1.2431304 0.092922069 79
0.20637619 1.2386438 0.11295892 13
0.21813506 1.2226067 0.12957181 16
0.19016841 1.2607484 0.163056 70
0.19007108 1.2648546 0.010680873 80
0.2128309 1.2335628 0.03004084 66
0.18552637 1.2711029 0.054210871 100
0.19620246 1.2564248 0.073852822 100
0.20606759 1.2428615 0.092609204 93
0.20471379 1.2447228 0.11410378 13
0.24050817 1.1955103 0.12147357 17
0.18864641 1.2668133 0.16460891 85
0.1893723 1.2692876 0.010750682 92
0.20735332 1.2443929 0.03066887 64
0.19185647 1.2658483 0.053513627 100
0.20362905 1.2495492 0.072634131 63
0.21226406 1.237594 0.09135773 100
0.20973852 1.2410907 0.11295892 13
0.22936955 1.2139115 0.12642249 8
0.19595161 1.2601786 0.16202073 78
0.20035389 1.2574812 0.010471444 96
0.21125647 1.2422807 0.030459527 97
0.19350272 1.2670331 0.053513627 100
0.20290723 1.2539213 0.073121607 78
0.21381652 1.2387114 0.09135773 100
0.21816808 1.2326444 0.11066922 14
0.24901602 1.1896359 0.11922406 17
0.19870499 1.2597802 0.16150309 70
0.20197237 1.258638 0.010471444 82
0.21282449 1.2434014 0.030459527 97
0.19515291 1.2682126 0.053513627 100
0.20681712 1.2518358 0.072634131 94
0.2130807 1.2430416 0.091983467 100
0.2048977 1.2545307 0.11563025 20
0.22892913 1.2207901 0.1277722 16
0.19808963 1.2640893 0.16253836 70
0.20615882 1.2567042 0.010401634 97
0.20888257 1.2528487 0.030982886 95
0.19247007 1.2760806 0.054210871 100
0.21210596 1.248286 0.071902916 64
0.21489951 1.2443318 0.091983467 100
0.20336232 1.2606627 0.1167751 53
0.23403567 1.2172447 0.12642249 24
0.20110407 1.2638592 0.16202073 70
0.19858742 1.2709382 0.010680873 93
0.22424972 1.2343566 0.029726824 100
0.18957341 1.2837877 0.054908119 100
0.20685375 1.2591546 0.073365346 100
0.21987763 1.240589 0.091044858 100
0.20048138 1.2682383 0.11830158 91
0.23663968 1.2166947 0.12597258 49
0.20052481 1.2681764 0.163056 78
0.20262352 1.2688797 0.010611063 94
0.21902487 1.2453252 0.030354854 97
0.20047715 1.2719622 0.053513627 100
0.21877238 1.2456877 0.071171694 81
0.2215223 1.2417386 0.091044858 100
0.21119758 1.2565662 0.11524864 100
0.22817874 1.2321789 0.13002171 80
0.21109724 1.2567103 0.15891489 73
0.21565217 1.2535806 0.010262015 84
0.22287461 1.2431345 0.030145511 98
0.20667598 1.2665632 0.05281638 100
0.22035164 1.2467835 0.071171694 97
0.22982889 1.2330762 0.089167647 98
0.22286159 1.2431533 0.11181407 98
0.22417185 1.2412583 0.13227122 86
0.21051577 1.2610096 0.15995017 72
0.21968922 1.2515048 0.010192205 99
0.22574076 1.2426833 0.03004084 66
0.20173585 1.277676 0.053862248 100
0.22659314 1.2414408 0.07019674 82
0.22705853 1.2407624 0.090419121 96
0.23126149 1.2346355 0.10952436 99
0.22920841 1.2376283 0.13092151 96
0.21450335 1.2590644 0.15891489 73
0.21565911 1.2608612 0.010366729 69
0.22843438 1.2421052 0.029936166 66
0.20454291 1.2771814 0.053687938 78
0.23262829 1.235948 0.069221787 67
0.22862139 1.2418306 0.090419121 100
0.22617278 1.2454256 0.11181407 98
0.23734313 1.2290258 0.12822211 81
0.21068931 1.2681576 0.16150309 70
0.21298182 1.2687106 0.010506349 40
0.22010222 1.2581741 0.030878214 63
0.20863527 1.2751426 0.053339314 78
0.22544631 1.2502661 0.071171694 81
0.23256502 1.239732 0.089793384 100
0.22571895 1.2498627 0.1125773 89
0.23684537 1.233398 0.1291219 96
0.21035406 1.2725992 0.16253836 70
0.21686578 1.2665044 0.010436539 41
0.22172287 1.2592654 0.030878214 31
0.21142235 1.2746173 0.053165004 52
0.22040457 1.2612302 0.072634131 63
0.23522505 1.2391417 0.089480512 97
0.22403044 1.2558262 0.11372216 89
0.23512647 1.2392886 0.13047162 96
0.22063351 1.2608891 0.15839726 73
0.21203938 1.2777098 0.010645968 40
0.21687803 1.2704408 0.031506244 31
0.22762641 1.2542939 0.050898954 55
0.22770712 1.2541726 0.071415432 96
0.23804125 1.2386479 0.089167647 100
0.23125264 1.2488463 0.11181407 84
0.23144946 1.2485505 0.13272113 100
0.22136444 1.263701 0.15891489 73
0.23357064 1.2487986 0.010017681 29
0.20972979 1.2848728 0.032343622 30
0.22154456 1.2669955 0.052119136 54
0.23259792 1.2502704 0.070684217 81
0.23959705 1.2396798 0.089167647 98
0.24041945 1.2384354 0.10914274 85
0.24270818 1.2349722 0.128672 97
0.22300342 1.2647882 0.15891489 73
0.22199607 1.2699084 0.010436539 27
0.21143904 1.2859983 0.032343622 30
0.22319445 1.268082 0.052119136 54
0.23854828 1.2446814 0.069709264 83
0.23790529 1.2456614 0.090106249 96
0.23766649 1.2460253 0.11066922 92
0.24425176 1.2359887 0.128672 97
0.21934706 1.2739458 0.16150309 70
0.23020434 1.2609401 0.01022711 28
0.23713472 1.2503008 0.03004084 33
0.21506077 1.284188 0.053687938 52
0.24012408 1.2457116 0.069709264 99
0.24164072 1.2433833 0.089480512 97
0.23496053 1.2536385 0.11219569 100
0.24686235 1.2353672 0.12822211 97
0.22102004 1.2750394 0.16150309 70
0.23417649 1.2587497 0.0101573 42
0.24756905 1.2380242 0.029203463 34
0.2418184 1.2469236 0.049678773 57
0.24186975 1.2468442 0.069709264 66
0.25088257 1.2328964 0.087290429 85
0.24312842 1.2448963 0.10990598 85
0.25068533 1.2332016 0.1273223 97
0.22811574 1.2681291 0.15891489 73
0.23480505 1.2615325 0.010192205 85
0.24165776 1.250846 0.029936166 66
0.23810759 1.2563823 0.05055033 56
0.2371068 1.257943 0.071171694 65
0.25036758 1.2372634 0.087916173 70
0.23948917 1.2542279 0.11181407 100
0.24914825 1.2391649 0.128672 97
0.238199 1.2562399 0.15477379 75
0.24618471 1.2474459 0.0098780617 59
0.25084382 1.2401242 0.029203463 68
0.23552877 1.2641917 0.051247578 55
0.25053477 1.2406099 0.068490572 50
0.25412145 1.2349734 0.087290429 71
0.25382918 1.2354326 0.10723466 73
0.25078779 1.2402122 0.128672 81
0.23367539 1.2671044 0.15787962 73
0.24571782 1.2518852 0.0099478718 87
0.25568575 1.2360992 0.028889447 100
0.23406446 1.2703404 0.051770512 81
0.24793991 1.2483661 0.069465525 49
0.25152761 1.2426844 0.08854191 70
0.24078086 1.2597039 0.1125773 96
0.25659275 1.2346629 0.12687239 99
0.23334968 1.2714725 0.15891489 65
0.24209303 1.2614172 0.010122396 85
0.25519362 1.2405087 0.029098792 100
0.2368708 1.2697518 0.051596198 54
0.25171953 1.2460533 0.068978049 50
0.2615701 1.2303319 0.086038955 72
0.24978891 1.2491345 0.10990598 85
0.2623553 1.2290788 0.12507279 92
0.23920497 1.2660265 0.15684435 66
0.24908942 1.2539978 0.0099478718 87
0.25472873 1.2449273 0.029308135 100
0.24598092 1.2589976 0.05037602 84
0.25128686 1.2504632 0.069465525 49
0.26526469 1.2279807 0.085413218 73
0.24420714 1.2618506 0.1125773 96
0.2629306 1.231735 0.12552269 90
0.24297833 1.2638271 0.15580906 67
0.25384665 1.2498877 0.0098431576 88
0.25630528 1.2459037 0.029308135 100
0.24655783 1.2616986 0.05055033 84
0.25079674 1.2548299 0.069953002 49
0.25848565 1.2423707 0.087916173 70
0.26233667 1.2361305 0.10647142 81
0.26343992 1.2343428 0.12597258 90
0.24461761 1.2648425 0.15580906 67
0.25552356 1.2509186 0.0098431576 88
0.2537964 1.2537394 0.029726824 100
0.24411431 1.2695514 0.051247578 82
0.25663739 1.2490995 0.068978049 50
0.26529402 1.2349622 0.086351827 58
0.2547386 1.2522006 0.10990598 92
0.26099199 1.2419879 0.1277722 89
0.24432915 1.2692006 0.15684435 66
0.25512752 1.2553617 0.0099129668 87
0.26170889 1.2445287 0.029098792 100
0.24275646 1.2757244 0.051770512 81
0.25315806 1.2586033 0.07019674 99
0.2658931 1.2376413 0.086664692 57
0.26355913 1.2414831 0.10723466 73
0.26668862 1.2363319 0.12597258 99
0.24807969 1.2669624 0.15580906 67
0.25888816 1.2529627 0.0098431576 88
0.26542914 1.242111 0.028889447 100
0.24349511 1.2785002 0.051944822 81
0.26408836 1.2443354 0.068003096 51
0.26752722 1.2386303 0.086664692 71
0.25912568 1.2525687 0.10952436 85
0.27737221 1.2222972 0.12192347 93
0.24582708 1.2746314 0.15787962 65
0.25236517 1.2677057 0.010122396 85
0.26912901 1.2396731 0.028680105 100
0.25140744 1.2693073 0.050898954 83
0.26370817 1.2487379 0.068490572 50
0.27322015 1.232832 0.085413218 58
0.2638348 1.2485262 0.10837951 72
0.27595213 1.2282635 0.12327318 76
0.24957344 1.2723742 0.15684435 66
0.26838893 1.2446644 0.0096337283 90
0.26669383 1.2475216 0.029098792 100
0.25925177 1.2600654 0.049853086 85
0.2613295 1.2565633 0.069465525 49
0.27584532 1.2320964 0.085100345 58
0.26350343 1.2528992 0.10914274 78
0.27755344 1.2292173 0.12327318 76
0.25724316 1.263451 0.15373851 68
0.26903319 1.247368 0.0096686333 90
0.26836243 1.2485076 0.029098792 100
0.26096418 1.2610774 0.049853086 85
0.26705736 1.2507249 0.068490572 50
0.27144811 1.2432649 0.086977564 57
0.27116582 1.2437446 0.10685304 81
0.27125028 1.2436011 0.12687239 90
0.25896743 1.2644699 0.15373851 76
0.25960994 1.2673415 0.010052586 100
0.27406272 1.2425886 0.028680105 100
0.2546432 1.2758479 0.051247578 100
0.26773617 1.2534239 0.068734311 50
0.27210578 1.2459403 0.087290429 57
0.26787159 1.2531921 0.10876112 79
0.28076601 1.2311082 0.12327318 68
0.26162654 1.2638876 -0.0099827768 75
0.26459157 1.2588096 0.15166797 77
0.26635909 1.2597002 0.0098780617 73
0.27771613 1.2400924 0.02847076 100
0.25840795 1.2734276 0.050898954 83
0.27141526 1.2509708 0.068246834 85
0.2826795 1.2315233 0.084474608 59
0.26955995 1.2541739 0.10876112 87
0.28628412 1.2253 0.12147357 77
0.25661698 1.2765198 0.15684435 66
0.26508152 1.2658889 0.0099827768 87
0.2753787 1.247967 0.028889447 100
0.26413733 1.2675322 0.050201707 100
0.26815113 1.2605463 0.069465525 49
0.28330803 1.2341664 0.084787481 73
0.2780982 1.2432339 0.1060898 66
0.28787503 1.2262177 0.12147357 77
0.26416135 1.2674904 0.15373851 76
0.27572569 1.2512443 0.0096686333 75
0.27309299 1.2558637 0.029308135 100
0.26784888 1.2650651 0.049853086 85
0.27871156 1.2460053 0.067271881 34
0.28982049 1.2265134 0.083223134 60
0.27489117 1.2527086 0.10799789 87
0.28753924 1.2305161 0.12237337 76
0.26781279 1.2651284 0.15270324 68
0.28331175 1.2417541 0.009459204 77
0.27675644 1.25335 0.029098792 100
0.27055919 1.2643125 0.049678773 86
0.27353644 1.259046 0.068978049 50
0.2826665 1.2428954 0.086038955 58
0.28623939 1.2365752 0.10418171 82
0.28147626 1.245001 0.12597258 82
0.26669073 1.2711556 0.15425615 75
0.27420202 1.2618685 0.0098431576 100
0.27942213 1.2525587 0.028994121 100
0.27618411 1.2583336 0.048981529 87
0.27912867 1.253082 0.068003096 51
0.28238663 1.2472718 0.086664692 57
0.2782678 1.2546175 0.10799789 87
0.29171371 1.2306374 0.12192347 85
0.2712763 1.2670863 0.15270324 68
0.27592066 1.2628281 0.0098431576 88
0.28596187 1.2447729 0.02847076 100
0.27208021 1.2697338 0.050027397 85
0.28274623 1.2505549 0.067515619 51
0.28885472 1.2395711 0.085100345 58
0.28186947 1.2521315 0.10723466 73
0.29427037 1.2298331 0.12147357 86
0.27494875 1.2645757 -0.0098780617 87
0.27113527 1.2714329 0.15373851 68
0.27860841 1.2620308 0.0098082526 89
0.28762072 1.2456917 0.02847076 100
0.28056222 1.2584887 0.048807215 58
0.28250781 1.2549613 0.068003096 51
0.29812789 1.2266421 0.082597397 60
0.28355405 1.2530644 0.10723466 81
0.29681823 1.2290165 0.12102367 86
0.27764261 1.2637819 -0.0098431576 97
0.27475336 1.2690201 0.15270324 68
0.28128725 1.2612208 0.0097733475 89
0.28736576 1.2501091 0.028680105 100
0.28035665 1.262922 0.049155839 87
0.28610763 1.252409 0.067515619 51
0.29687935 1.2327178 0.083536007 60
0.2880685 1.2488244 0.1060898 81
0.29935727 1.2281879 0.12057377 77
0.27552915 1.271747 -0.0099827768 86
0.28484112 1.2547243 0.1480445 79
0.29349273 1.2428212 0.0093893949 77
0.28713846 1.254534 0.028889447 100
0.28967953 1.24985 0.047761347 90
0.29157954 1.2463478 0.066540658 69
0.29755414 1.2353348 0.083848871 59
0.28974149 1.2497358 0.1060898 81
0.29724115 1.2359116 0.12237337 76
0.27824387 1.2709295 0.15270324 68
0.29040766 1.2525187 0.0095639192 91
0.29261646 1.2484131 0.02847076 100
0.28191653 1.2683017 0.049504463 86
0.29700586 1.2402543 0.065565705 53
0.29730821 1.2396923 0.084474608 59
0.29141769 1.2506413 0.1060898 73
0.2836552 1.26507 0.15063268 70
0.28926975 1.2587149 0.0096686333 75
0.29992869 1.2387357 0.027842728 100
0.2845954 1.2674766 0.049330149 87
0.28556743 1.2656546 0.068978049 50
0.29987907 1.2388287 0.084161744 59
0.29217288 1.2532732 0.10647142 73
0.2855047 1.2657721 -0.0098082526 99
0.27538231 1.2847457 0.1563267 74
0.28910708 1.2631571 0.0097384425 75
0.29596266 1.2501984 0.02847076 100
0.29006025 1.2613554 0.048632905 88
0.29101229 1.2595558 0.068003096 51
0.29110721 1.2593764 0.10761628 72
0.29004216 1.2613896 -0.0097035384 89
0.2907314 1.2600868 0.14856213 71
0.2945458 1.2569815 0.0095988233 76
0.29578483 1.2546195 0.028680105 100
0.29547912 1.2552023 0.047935657 89
0.28903416 1.2674885 0.068978049 50
0.29555303 1.2550614 0.10647142 81
0.28618547 1.2729191 -0.0099129668 87
0.29244369 1.2609888 0.14856213 71
0.29932123 1.25196 0.02847076 100
0.29810029 1.2543075 0.067028143 51
0.29415914 1.2618849 0.14856213 71
0.29328221 1.2675947 0.0097733475 100
0.29878765 1.2569234 0.047935657 59
0.29402021 1.2661642 0.14959741 70
0.29866329 1.2613665 0.0096337283 100
0.28960112 1.2790831 0.050027397 57
0.29869074 1.2613128 0.067759357 68
0.2904675 1.2773893 -0.0099478718 100
0.29223472 1.2739344 0.15166797 69
0.29857117 1.2658077 0.0097035384 100
0.29491425 1.2774022 -0.0099129668 100
0.29490307 1.2818689 -0.0099827768 100
