# .PCD v0.7 - Point Cloud Data file format
VERSION 0.7
FIELDS x y z intensity
SIZE 4 4 4 4
TYPE F F F F
COUNT 1 1 1 1
WIDTH 725
HEIGHT 1
VIEWPOINT 0 0 0 1 0 0 0
POINTS 725
DATA ascii
-1.1519819 0.16559269 0.0203146 33
-1.0564363 0.15562415 0.01863917 6
-1.0123857 0.1527475 0.017871264 5
-1.061253 0.16391133 0.018743884 1
0.057187945 0.0064765215 0.047625721 61
0.053436816 0.0065271258 0.047730394 45
0.047490418 0.0032536983 0.04804441 28
0.041996896 0.00074195862 0.016091119 8
0.043389201 0.0083549023 0.047939736 100
0.046293318 0.018423498 0.047416378 69
0.040188015 0.015309632 0.047730394 28
0.03980428 0.020396054 0.047521047 19
0.023636401 0.002415359 0.048777111 16
0.0266366 0.012473524 0.048253752 8
0.030971766 0.024049938 0.047625721 9
0.028371096 0.02586621 0.047625721 9
-1.0301208 1.1263855 0.14171524 3
-1.0366061 1.1336727 0.028412517 6
-1.0113118 1.1278749 0.083946876 5
-1.0075049 1.1270024 0.13979781 6
-1.0178626 1.134853 0.028098375 10
-1.0101163 1.1330504 0.083946876 31
-1.0179558 1.1348747 0.14084367 39
-0.9951089 1.135533 0.027714422 30
-0.98739558 1.1337082 0.082795486 91
-1.0224245 1.1419952 0.14136662 84
-0.98805493 1.1392543 0.027609708 38
-0.99394935 1.1406695 0.083214171 100
-1.0250571 1.1481377 0.14171524 95
-0.99834746 1.1477327 0.027819136 37
-0.97511727 1.1420655 0.08227212 100
-0.99849743 1.1477693 0.13944919 91
-0.98932189 1.1509436 0.027679516 22
-0.97775251 1.1480806 0.082481466 100
-0.99336809 1.151945 0.13910057 91
-0.96658224 1.1512206 0.027295563 26
-0.98410457 1.1556251 0.082900152 45
-0.99582237 1.1585705 0.13944919 82
-0.9614343 1.1552597 0.027225753 39
-0.97701126 1.1592302 0.082586139 36
-0.99452537 1.1636946 0.13944919 80
-0.96775573 1.1628009 0.027365373 61
-0.97364086 1.164324 0.082481466 68
-0.98728544 1.1678553 0.13892625 89
-0.976116 1.170369 0.027539898 60
-0.97232479 1.1693745 0.082481466 100
-0.97632176 1.170423 0.1380547 92
-0.95338231 1.1703 0.027155945 81
-0.95155066 1.1698123 0.081434749 94
-0.96714264 1.173964 0.13735744 100
-0.95204657 1.1752832 0.027155945 89
-0.95600146 1.1763504 0.081748761 96
-0.96387118 1.1784737 0.13718314 100
-0.95055109 1.1807858 0.027155945 89
-0.94679648 1.179758 0.081330076 100
-0.97005063 1.186124 0.13788038 98
-0.94918066 1.1857595 0.027155945 96
-0.9338817 1.1815169 0.080702044 100
-0.97442216 1.1927596 0.13840333 91
-0.95157033 1.1920724 0.027225753 92
-0.93628174 1.1877749 0.08091139 88
-0.95375651 1.1926869 0.1366602 100
-0.94823915 1.196502 0.027190849 70
-0.93680912 1.1932482 0.081016064 76
-0.94468158 1.1954892 0.13596296 100
-0.95235401 1.2039163 0.027295563 49
-0.93133539 1.1978456 0.080806717 38
-0.94686514 1.2023309 0.13631158 100
-0.92979437 1.2027221 0.026911611 50
-0.92032355 1.1999526 0.080283359 22
-0.94733554 1.2078515 0.13648589 84
-0.92827481 1.2078849 0.026911611 71
-0.91498369 1.2039479 0.080074012 26
-0.94961864 1.2142073 0.13683452 85
-0.92298371 1.2116361 0.026841801 75
-0.91162354 1.20823 0.079969339 34
-0.93286973 1.2146001 0.13544002 98
-0.91385692 1.2141956 0.026702182 75
-0.91589588 1.2148143 0.080283359 88
-0.92566758 1.2177795 0.1349171 99
-0.90855271 1.2178736 0.026632372 83
-0.92395908 1.2226044 0.080806717 100
-0.92607921 1.2232554 0.13509139 98
-0.90483385 1.2231302 0.026597468 88
-0.90306133 1.2225782 0.07976 89
-0.9242478 1.229177 0.13509139 66
-0.9108718 1.2306111 0.026737086 88
-0.89385337 1.2252452 0.079341307 72
-0.92263597 1.2343204 0.13509139 47
-0.91687518 1.2381396 0.026876707 83
-0.9017691 1.2333186 0.079864666 74
-0.90771979 1.2352177 0.13387123 43
-0.89620322 1.2371109 0.026527658 85
-0.90014297 1.2383834 0.079864666 97
-0.90419108 1.2396909 0.13369691 45
-0.88712472 1.2391696 0.026388038 100
-0.90625888 1.2454162 0.080283359 100
-0.91028434 1.2467303 0.13439415 63
-0.88168067 1.2429287 0.02631823 100
-0.88941878 1.2454848 0.07944598 100
-0.90861136 1.2518249 0.13439415 78
-0.88752359 1.2507097 0.026457848 100
-0.8800897 1.2482238 0.079027295 100
-0.91061467 1.2584313 0.13474278 85
-0.89341384 1.2582879 0.026597468 99
-0.88219553 1.2544929 0.079236634 100
-0.89946419 1.2603346 0.13387123 78
-0.87278062 1.2568493 0.02624842 93
-0.88616472 1.2614291 0.079550654 100
-0.89397365 1.2641011 0.1335226 100
-0.86351365 1.2591968 0.0261088 89
-0.88066572 1.2651328 0.079341307 100
-0.89224011 1.2691386 0.1335226 97
-0.87312204 1.2680914 0.02631823 77
-0.86761791 1.266165 0.078713275 87
-0.90929431 1.2807517 0.13526571 56
-0.87325984 1.2737231 0.026353134 75
-0.85646325 1.2677785 0.078189917 55
-0.89998966 1.2831835 0.13456847 36
-0.86772722 1.2773407 0.026283324 90
-0.86223906 1.2753767 0.07860861 19
-0.89068586 1.2855566 0.13387123 40
-0.85278481 1.2775241 0.026038991 96
-0.8604663 1.2803032 0.07860861 48
-0.87201566 1.2844818 0.13230242 22
-0.84733778 1.2808 0.025969181 100
-0.86251801 1.2863492 0.078817949 89
-0.8609454 1.2857742 0.13143086 15
-0.84554631 1.2856746 0.025969181 100
-0.84946638 1.287123 0.078189917 100
-0.87408739 1.2962208 0.13282534 5
-0.84364682 1.290786 0.025969181 100
-0.83259445 1.2866559 0.077352546 74
-0.87214917 1.3014369 0.13282534 1
-0.84182042 1.2956475 0.025969181 100
-0.82330877 1.2886562 0.076933853 51
-0.84791869 1.2979506 0.13073361 1
-0.83642524 1.2985927 0.025899371 77
-0.84593338 1.3022177 0.07829459 53
-0.8332215 1.2973711 0.12951343 13
-0.82897371 1.3012723 0.025794657 74
-0.84406716 1.3070873 0.07829459 63
-0.84810489 1.3086429 0.13108224 52
-0.82524735 1.3053572 0.025759751 78
-0.81984931 1.3032558 0.077038527 74
-0.8610695 1.3193021 0.13247673 100
-0.83081394 1.313082 0.025899371 93
-0.81612092 1.3073032 0.076933853 69
-0.84616452 1.3191195 0.13125655 100
-0.82890981 1.3178988 0.025899371 100
-0.8272298 1.3172312 0.077666558 85
-0.82757503 1.3173683 0.12968774 99
-0.81585413 1.3182392 0.025689943 100
-0.81789714 1.3190594 0.077247873 95
-0.82380694 1.3214314 0.12951343 100
-0.80281311 1.3184955 0.025480513 100
-0.82152492 1.3260822 0.077561885 97
-0.82925934 1.329218 0.13021068 100
-0.80829245 1.3262457 0.025620133 100
-0.81033415 1.3270817 0.077038527 100
-0.82545513 1.3332741 0.13003637 100
-0.80994004 1.3327496 0.025689943 100
-0.79167372 1.3251908 0.076096483 100
-0.81969935 1.3367879 0.12968774 100
-0.79267186 1.3256038 0.17841671 22
-0.80796736 1.3374932 0.025689943 100
-0.78972763 1.3298707 0.076096483 100
-0.8103593 1.3384928 0.1289905 100
-0.77790314 1.3249294 0.17671055 16
-0.79880732 1.3386492 0.025550323 100
-0.79164284 1.3356287 0.076305822 96
-0.79938716 1.3388937 0.12811895 100
-0.78712827 1.3337253 0.17817298 19
-0.79313439 1.3417873 0.025480513 89
-0.79884857 1.34422 0.07682918 63
-0.80105942 1.3451612 0.12846756 95
-0.77236706 1.3329465 0.17646681 16
-0.81317621 1.3559486 0.025899371 59
-0.81518525 1.3568121 0.077875905 53
-0.81734806 1.3577418 0.13021068 26
-0.7795127 1.3414786 0.1776855 5
-0.81479138 1.3622956 0.025969181 94
-0.80213565 1.3568032 0.077247873 100
-0.83539277 1.3712362 0.1321281 67
-0.76840478 1.3421645 0.17646681 11
-0.80528551 1.3640826 0.025829561 100
-0.80546349 1.3641605 0.077561885 100
-0.82223111 1.3715106 0.13108224 100
-0.79175216 1.3581502 0.17987914 33
-0.79588884 1.3655729 0.025689943 100
-0.80703408 1.3705049 0.077771232 100
-0.80008143 1.3674283 0.12916481 100
-0.77516848 1.3564039 0.17792924 28
-0.7884286 1.3675871 0.025585229 100
-0.81780142 1.3807015 0.078503937 100
-0.80173141 1.3735266 0.12951343 100
-0.77140397 1.3599858 0.1776855 35
-0.79180378 1.3747203 0.025689943 100
-0.80291516 1.3797278 0.077771232 100
-0.81414801 1.3847903 0.13090792 100
-0.76209742 1.3613322 0.17671055 22
-0.79332525 1.3810563 0.025759751 100
-0.79896063 1.3836198 0.077666558 100
-0.81199378 1.3895483 0.13090792 100
-0.76544601 1.3683746 0.17744176 16
-0.80208796 1.3907478 0.025969181 100
-0.80588597 1.3924913 0.078189917 100
-0.80258006 1.3909736 0.13021068 100
-0.77236956 1.3771038 0.17866045 14
-0.79073244 1.3914943 0.025794657 100
-0.80721945 1.3991368 0.078399263 100
-0.80029505 1.395927 0.13021068 100
-0.78994662 1.39113 0.18134159 10
-0.79036623 1.3970177 0.025829561 100
-0.81225139 1.4072556 0.078817949 100
-0.80171126 1.4023249 0.1305593 100
-0.75900096 1.3823452 0.17744176 7
-0.790088 1.4023125 0.025864467 100
-0.80109936 1.4075081 0.07829459 100
-0.80681449 1.4102048 0.13125655 100
-0.76055378 1.388377 0.17792924 3
-0.79870564 1.4121442 0.026073895 100
-0.79165262 1.4087861 0.077875905 100
-0.81176704 1.418363 0.13195379 100
-0.79064888 1.4083081 0.18231654 1
-0.79656881 1.4166131 0.026073895 100
-0.80212992 1.4192836 0.07860861 100
-0.80601746 1.4211502 0.13160518 100
-0.79250389 1.4204377 0.026038991 100
-0.8052476 1.4266119 0.078922622 100
-0.80015022 1.4241424 0.13125655 100
-0.78651816 1.4235969 0.025969181 100
-0.80642027 1.4333296 0.079131968 100
-0.80490285 1.4325876 0.13195379 100
-0.78781515 1.4300277 0.026038991 100
-0.79693204 1.4345256 0.078713275 100
-0.80258173 1.4373131 0.13195379 100
-0.79278058 1.4380232 0.02617861 100
-0.79114455 1.4372094 0.078503937 100
-0.81463212 1.4488943 0.13334829 100
-0.80116409 1.4480879 0.026388038 100
-0.80308801 1.4490535 0.079341307 100
-0.80869251 1.4518661 0.13299966 100
-0.78808421 1.4473813 0.02617861 100
-0.80070943 1.4537725 0.079341307 100
-0.80630416 1.4566047 0.13299966 100
-0.78927344 1.4538667 0.02624842 100
-0.80720824 1.4630246 0.079864666 100
-0.80567366 1.4622411 0.13317397 100
-0.7904337 1.4603686 0.02631823 100
-0.79767853 1.4641001 0.07944598 100
-0.81387657 1.4724426 0.13421984 100
-0.79866296 1.4705744 0.026527658 100
-0.78993028 1.466038 0.079131968 100
-0.81495243 1.4790361 0.13456847 100
-0.79266661 1.4734218 0.026457848 93
-0.79456919 1.4744184 0.079550654 100
-0.8089394 1.4819471 0.13421984 100
-0.78666693 1.4762359 0.026388038 83
-0.79563397 1.4809737 0.07976 100
-0.79763788 1.4820325 0.13334829 100
-0.79715306 1.4871991 0.1335226 43
0.12106061 1.3017803 0.13280307 5
0.15624294 1.261665 0.010995016 25
0.15048018 1.2688607 0.033495013 28
0.15145427 1.2676444 0.055779677 24
0.14744848 1.2726462 0.10199527 11
0.14255536 1.2787559 0.12669717 23
0.15148777 1.2676026 0.17082056 7
0.15173873 1.2708625 0.01116954 75
0.16714054 1.2514927 0.032238949 90
0.15691388 1.2643541 0.055256739 74
0.15464711 1.2672048 0.077996381 14
0.1774824 1.2384866 0.094799288 25
0.15655258 1.2648084 0.122881 85
0.18493125 1.2291188 0.13542053 15
0.15082246 1.2720149 0.17185585 29
0.16464135 1.2581239 0.010855397 100
0.1700612 1.2512586 0.032134276 100
0.15740731 1.267287 0.055431053 99
0.16253531 1.2607915 0.076777689 29
0.16810375 1.253738 0.097615108 37
0.15828219 1.2661788 0.122881 100
0.1925737 1.2227426 0.13317102 38
0.16335076 1.2597586 0.16719711 45
0.17128202 1.2531706 0.010715778 100
0.16927922 1.2557259 0.032343622 100
0.14931273 1.2811991 0.056825545 100
0.16180167 1.2652657 0.077265166 29
0.17710629 1.2457399 0.095737889 25
0.17091674 1.2536366 0.11944643 100
0.18453884 1.2362574 0.13677025 45
0.1591039 1.2687075 0.16978529 36
0.16314605 1.2671148 0.010995016 100
0.17343026 1.2538993 0.032134276 90
0.15966493 1.2715881 0.055605363 98
0.17328593 1.2540848 0.075315252 30
0.18119556 1.2439208 0.095112152 25
0.17743015 1.2487594 0.11791996 100
0.19095588 1.2313786 0.13497064 38
0.14898267 1.2853149 0.17496167 35
0.17457959 1.2557373 0.010715778 79
0.18236527 1.2456638 0.031506244 62
0.15402001 1.2823381 0.056651235 47
0.17974904 1.2490487 0.074340299 46
0.17310518 1.2576449 0.097615108 24
0.18262157 1.2453321 0.1167751 19
0.19487125 1.2294829 0.13407083 23
0.14833099 1.289699 0.17599694 27
0.17140809 1.2633905 0.010855397 52
0.17186934 1.2627895 0.032552965 29
0.16793972 1.2679107 0.054908119 50
0.17900658 1.2534881 0.074827775 45
0.19044259 1.2385843 0.093547814 52
0.18308789 1.2481692 0.11715672 13
0.19173202 1.2369039 0.13587044 22
0.15720373 1.2819021 0.17289113 64
0.17555621 1.2615278 0.010785587 39
0.17601243 1.2609289 0.032343622 30
0.17571691 1.2613168 0.054036561 51
0.18310243 1.251622 0.074340299 46
0.1992628 1.2304084 0.091670595 54
0.1942769 1.2369533 0.11410378 13
0.19572583 1.2350513 0.13497064 45
0.17187047 1.266366 0.16719711 60
0.18209919 1.2564521 0.010645968 40
0.17049977 1.2717893 0.032971654 29
0.16661778 1.2769222 0.055605363 49
0.18598327 1.2513164 0.07409656 92
0.19968048 1.2332054 0.091983467 53
0.1876193 1.2491531 0.1167751 13
0.19735134 1.2362851 0.13497064 38
0.18176258 1.2568972 0.16357364 69
0.17908308 1.2641946 0.010785587 39
0.17953497 1.2635925 0.032343622 30
0.17804626 1.265576 0.054210871 51
0.18179175 1.2605857 0.075315252 100
0.19663745 1.2408059 0.093234941 53
0.20116293 1.2347763 0.11295892 13
0.21076062 1.2219887 0.13047162 40
0.17775136 1.2659689 0.16616182 68
0.18319997 1.2622793 0.010715778 39
0.20274019 1.2360545 0.030459527 32
0.17025501 1.2796526 0.055605363 49
0.1953671 1.2459499 0.072877869 94
0.19710276 1.2436204 0.093547814 65
0.20278746 1.2359911 0.11295892 13
0.21466911 1.2200449 0.12957181 32
0.17833063 1.2688143 0.16667947 67
0.18364498 1.2651004 0.010750682 92
0.18765536 1.2596806 0.031924933 30
0.18853885 1.2584867 0.053165004 79
0.1886819 1.2582934 0.074584037 76
0.20572528 1.2352606 0.091670595 81
0.19382453 1.2513435 0.11639348 13
0.21848166 1.2180213 0.128672 32
0.18688145 1.2607266 0.16357364 69
0.19484621 1.2534833 0.010471444 82
0.20000851 1.2464557 0.030982886 63
0.18316904 1.2693799 0.054210871 100
0.19156376 1.2579517 0.074340299 46
0.20384309 1.2412355 0.092609204 93
0.2164278 1.2241035 0.10952436 14
0.22004756 1.2191758 0.128672 24
0.1897403 1.2604342 0.163056 70
0.20360532 1.2450256 0.010262015 84
0.20402735 1.244447 0.030773543 64
0.18256664 1.2738769 0.054559495 100
0.20145649 1.2479725 0.072634131 94
0.20781788 1.2392488 0.091983467 93
0.22264194 1.21892 0.10799789 14
0.23884037 1.1967063 0.12192347 17
0.18576324 1.2694933 0.16564418 68
0.19823018 1.2559509 0.010471444 96
0.21154127 1.2375624 0.030250182 65
0.185496 1.2735425 0.054385185 76
0.21011105 1.2395382 0.071171694 65
0.1990332 1.2548416 0.094799288 100
0.20348939 1.2486856 0.11486702 13
0.22776219 1.2151541 0.12687239 8
0.18864179 1.2691967 0.16512655 68
0.19508868 1.2635477 0.010611063 81
0.22234023 1.2256511 0.029412808 67
0.18591651 1.2763028 0.054559495 100
0.20926994 1.2438269 0.071659178 64
0.2097843 1.2431116 0.092296332 100
0.20957971 1.2433962 0.11334054 13
0.25874305 1.1750286 0.11517494 18
0.18795612 1.2734663 0.16616182 68
0.19681364 1.2647836 0.010611063 81
0.21116853 1.2446736 0.030564198 97
0.19231626 1.2710841 0.053862248 100
0.20054618 1.2595546 0.073852822 93
0.21602851 1.2378652 0.091044858 100
0.20210925 1.2573649 0.11639348 19
0.24091136 1.2030065 0.12282328 17
0.19420528 1.2684376 0.16409127 69
0.20779181 1.2529604 0.010331824 98
0.21513692 1.2425942 0.030354854 97
0.2055864 1.2560729 0.052119136 100
0.19307584 1.2737291 0.075802729 100
0.21766371 1.2390281 0.091044858 100
0.20835274 1.2521688 0.11486702 33
0.22327167 1.2311136 0.13047162 24
0.20264861 1.260219 0.16098544 80
0.21408135 1.2476094 0.010192205 99
0.2110436 1.2519284 0.030878214 95
0.20270041 1.2637908 0.05281638 100
0.21425045 1.2473691 0.071659178 64
0.21816653 1.2418011 0.09135773 94
0.20326126 1.2629935 0.11715672 79
0.22712544 1.2290633 0.12957181 40
0.19880503 1.2693293 0.16357364 69
0.20659304 1.2618964 0.010471444 96
0.22416085 1.2367321 0.029831495 66
0.19530213 1.2780695 0.054210871 100
0.21932781 1.2436551 0.070927955 97
0.21529236 1.2494354 0.092609204 93
0.20835572 1.2593715 0.11601187 100
0.22984535 1.2285897 0.1291219 80
0.19944432 1.2721362 0.16409127 69
0.21059009 1.2598047 0.010401634 83
0.23147991 1.2296585 0.029308135 100
0.19707778 1.2793045 0.054210871 100
0.22098318 1.2448064 0.070927955 48
0.22821903 1.2343643 0.089480512 100
0.21677527 1.2508789 0.11372216 89
0.2292282 1.232908 0.13002171 88
0.20119923 1.2733568 0.16409127 69
0.2055026 1.2708721 0.010611063 94
0.22516352 1.2422867 0.03004084 66
0.20789033 1.2674006 0.05281638 100
0.21926776 1.2508588 0.071659178 64
0.22424474 1.2436225 0.091044858 100
0.21845588 1.2520392 0.11372216 89
0.23526338 1.2276024 0.12822211 89
0.21390608 1.2586541 0.15891489 73
0.22078258 1.2522531 0.010192205 85
0.22681409 1.2434177 0.03004084 66
0.20513532 1.2751739 0.053513627 100
0.22206751 1.2503707 0.071415432 48
0.23146871 1.2365994 0.089480512 97
0.22788891 1.2418433 0.11105084 84
0.22257915 1.2496213 0.13407083 100
0.21561384 1.2598244 0.15891489 73
0.21685952 1.2616767 0.010366729 41
0.2172654 1.2610776 0.031087559 31
0.21695909 1.2615297 0.051944822 81
0.22263283 1.2531559 0.071659178 80
0.22866723 1.2442498 0.090731993 95
0.23063916 1.2413396 0.11066922 92
0.23190707 1.2394682 0.13092151 96
0.21515843 1.2641872 0.15995017 72
0.21634603 1.2661552 0.010436539 41
0.22121069 1.2589214 0.030878214 31
0.21534139 1.2676492 0.052467756 53
0.22210583 1.2575903 0.072146654 63
0.22701764 1.2502862 0.091670595 100
0.22790411 1.248968 0.11219569 100
0.2378976 1.2341073 0.1291219 96
0.21688551 1.2653531 0.15995017 72
0.21594715 1.2707018 0.010506349 40
0.23187256 1.2468317 0.03004084 33
0.21053308 1.2788167 0.053513627 52
0.23050538 1.2488809 0.070684217 81
0.23974326 1.2350345 0.08854191 100
0.23619929 1.2403464 0.10990598 85
0.2374377 1.2384902 0.13002171 100
0.21763116 1.2681777 0.1604678 72
0.21990496 1.2685301 0.010436539 41
0.18722758 1.3178816 0.03443706 27
0.21781108 1.2716925 0.05264207 53
0.2343708 1.2466829 0.07019674 82
0.242459 1.2344676 0.088229038 98
0.23025587 1.2528975 0.1125773 82
0.24122664 1.2363288 0.1291219 96
0.22470486 1.261281 0.15787962 73
0.23592338 1.2479541 0.0099827768 29
0.22862819 1.2590559 0.03066887 32
0.22503513 1.2645236 0.051770512 54
0.23167604 1.2544177 0.071171694 81
0.24625182 1.2322366 0.087603301 99
0.2438032 1.2359629 0.10837951 87
0.23964578 1.2422895 0.13047162 96
0.22748265 1.2607991 0.15736198 74
0.23103967 1.2590976 0.010192205 28
0.20633531 1.2969795 0.032971654 29
0.22349828 1.2706616 0.052293446 53
0.23120022 1.2588513 0.071659178 96
0.24139288 1.2432218 0.089480512 97
0.24650401 1.2353843 0.10799789 87
0.23810276 1.2482669 0.13182132 94
0.22814253 1.26354 0.15787962 73
0.23149073 1.2617756 0.01022711 42
0.24056467 1.2477655 0.029831495 33
0.2239897 1.2733572 0.052467756 53
0.24352881 1.2431889 0.069221787 83
0.23965955 1.2491629 0.090419121 82
0.24263129 1.2445747 0.10990598 85
0.2491411 1.2345235 0.1277722 97
0.22864443 1.2661703 0.15839726 73
0.24402127 1.2460624 0.0098780617 44
0.25087333 1.2354015 0.028994121 68
0.23328945 1.2627597 0.051247578 55
0.24410909 1.2459257 0.069465525 49
0.24987844 1.2369494 0.087916173 84
0.23898226 1.2539024 0.11181407 84
0.25287169 1.2322923 0.12687239 99
0.22620028 1.2737894 0.1604678 72
0.23493171 1.2639872 0.01022711 70
0.24390763 1.2499141 0.029831495 66
0.24358255 1.2504238 0.049853086 85
0.24790719 1.2436433 0.068978049 50
0.25575918 1.2313323 0.086664692 86
0.24911907 1.2417432 0.10876112 79
0.25343931 1.2349696 0.1273223 97
0.23211616 1.2684016 0.15839726 73
0.24735221 1.2481869 0.0098780617 88
0.24665284 1.2492919 0.029726824 100
0.24632692 1.2498069 0.049678773 86
0.24106944 1.2581139 0.070927955 48
0.25948417 1.2290183 0.086038955 72
0.24446794 1.2527441 0.11105084 84
0.25506416 1.236002 0.1273223 97
0.23695728 1.264611 0.15684435 66
0.25335979 1.2425185 0.0097384425 75
0.25478315 1.2402513 0.029098792 100
0.23961282 1.2644161 0.051073264 83
0.24708238 1.2525178 0.069953002 49
0.25906789 1.2334261 0.086664692 71
0.25041476 1.2472097 0.10952436 85
0.25470185 1.2403808 0.12822211 97
0.23671791 1.2690274 0.15787962 65
0.24972448 1.2520376 0.0099129668 87
0.25431439 1.2446694 0.029308135 100
0.22869921 1.28579 0.053165004 79
0.24457017 1.260312 0.070927955 48
0.26068732 1.2344388 0.086664692 71
0.25415844 1.2449198 0.10876112 72
0.26149741 1.2331383 0.12597258 99
0.23846176 1.2701179 0.15787962 65
0.25027293 1.2547317 0.0099478718 73
0.25589007 1.2456473 0.029308135 100
0.23669836 1.276685 0.052119136 81
0.25246176 1.2511917 0.069465525 66
0.26119018 1.2370758 0.086977564 57
0.25057241 1.2542473 0.11066922 85
0.26713431 1.2274626 0.12417299 100
0.23402596 1.2810069 0.16098544 64
0.2446467 1.2677062 0.010192205 85
0.25650772 1.2483735 0.029412808 100
0.24576232 1.2658877 0.050898954 83
0.24791467 1.2623796 0.070927955 48
0.26385534 1.2363973 0.086664692 57
0.2471312 1.2636566 0.1125773 82
0.26669472 1.2317693 0.12507279 92
0.24389365 1.2689335 0.15684435 66
0.2504591 1.2618843 0.010052586 86
0.25497928 1.2544616 0.029726824 100
0.2432633 1.2737007 0.051596198 82
0.25367904 1.2565968 0.069953002 49
0.26643097 1.2356565 0.086351827 58
0.26102331 1.2445365 0.10799789 72
0.26924112 1.2310418 0.12462288 92
0.249569 1.263346 0.15477379 67
0.25838256 1.2526577 0.0098431576 88
0.257705 1.2537791 0.029622151 100
0.25532669 1.2577153 0.049853086 85
0.25024661 1.2661234 0.071171694 32
0.26499355 1.2417157 0.087290429 57
0.25963575 1.2505834 0.10914274 85
0.26682118 1.2386909 0.12642249 82
0.25329095 1.2610847 0.15373851 68
0.25809789 1.2571539 0.0099129668 87
0.26769269 1.2411412 0.028784776 100
0.24687555 1.2758827 0.051596198 82
0.26329052 1.2484879 0.068490572 50
0.26875505 1.2393682 0.086664692 57
0.25938094 1.2550125 0.10990598 85
0.27354908 1.2313675 0.12417299 92
0.25509286 1.2621689 0.15373851 68
0.26388747 1.2512941 0.0097733475 89
0.26831841 1.2438406 0.028889447 100
0.24660707 1.2803631 0.051944822 81
0.26496249 1.2494857 0.068490572 50
0.26837635 1.2437431 0.087290429 57
0.26308215 1.2526489 0.10914274 85
0.27814862 1.2273043 0.12282328 93
0.24694103 1.2798012 0.15891489 65
0.25854477 1.2643981 0.010017681 87
0.26701415 1.2500314 0.029203463 100
0.25657418 1.2677408 0.05055033 84
0.26268938 1.2573676 0.069465525 49
0.27613366 1.2345619 0.085413218 58
0.26585007 1.2520061 0.10876112 79
0.27982655 1.2282976 0.12282328 85
0.26362237 1.2557849 -0.0098431576 87
0.25666013 1.2675951 0.15477379 67
0.26330084 1.2602339 0.0099129668 87
0.26969978 1.2492921 0.029098792 100
0.26635993 1.2550031 0.049155839 100
0.25637531 1.272076 0.071415432 48
0.27576247 1.2389255 0.086038955 58
0.26654321 1.2546897 0.10914274 78
0.2833955 1.2258735 0.12192347 85
0.26229987 1.2619455 0.15270324 68
0.26793939 1.2559934 0.0098082526 74
0.26928559 1.2536739 0.029308135 100
0.25596854 1.2766193 0.051247578 82
0.26601341 1.2593119 0.069465525 49
0.27236116 1.2483747 0.087603301 57
0.27307948 1.2471371 0.10723466 88
0.28099591 1.2334969 0.12372308 83
0.26005393 1.2695801 0.15477379 67
0.27562395 1.246577 0.0095988233 76
0.27396518 1.2494581 0.028994121 100
0.26469734 1.2655559 0.050027397 85
0.27366585 1.2499781 0.068003096 51
0.2760039 1.2459171 0.086977564 57
0.26984894 1.2566079 0.10914274 78
0.28553239 1.2293665 0.12237337 85
0.26372731 1.2672408 0.15373851 68
0.27034745 1.2596872 0.0098431576 88
0.2786119 1.2452157 0.028680105 100
0.26544085 1.2682788 0.050201707 85
0.27731183 1.2474922 0.067515619 51
0.28452414 1.234863 0.084787481 59
0.27349642 1.2541732 0.10837951 87
0.29003671 1.2252102 0.12102367 86
0.27034745 1.2596872 -0.0098431576 87
0.25971657 1.2783024 0.15684435 66
0.27591649 1.2536528 0.0097035384 90
0.27821985 1.2495883 0.028889447 100
0.2700417 1.2640196 0.049678773 86
0.27302447 1.2587562 0.068978049 50
0.29093674 1.2271478 0.083223134 60
0.27316764 1.2585034 0.10914274 78
0.28962609 1.2294606 0.12192347 85
0.27197284 1.2606119 -0.0098431576 87
0.268071 1.2674971 0.15322088 68
0.27368709 1.2615794 0.0098431576 88
0.27989557 1.2505341 0.028889447 100
0.26981536 1.2684674 0.050027397 85
0.27473223 1.25972 0.068978049 50
0.29059824 1.2314932 0.083848871 59
0.28064638 1.2491983 0.10685304 81
0.28836688 1.235463 0.12327318 76
0.27832863 1.2533218 0.14856213 71
0.28505921 1.2450286 0.0094941091 92
0.285382 1.2444499 0.02847076 100
0.2695289 1.2728739 0.05037602 84
0.27829158 1.2571628 0.068490572 50
0.29020563 1.2358013 0.084474608 59
0.28128064 1.2518035 0.10723466 81
0.28706416 1.2414339 0.12462288 100
0.27616885 1.2609687 0.15063268 70
0.28688514 1.2460425 0.0094941091 92
0.28334108 1.2524545 0.028889447 100
0.27820846 1.2617408 0.049155839 87
0.28592578 1.2477782 0.067028143 51
0.28817379 1.243711 0.08572609 58
0.2821829 1.25455 0.10761628 87
0.29641777 1.2287955 0.12102367 86
0.2677764 1.2806151 0.1563267 74
0.27884996 1.2644459 0.0098431576 88
0.29070455 1.2428288 0.028261416 100
0.27026048 1.2801089 0.050898954 83
0.2856026 1.2521324 0.067515619 51
0.29354545 1.2376485 0.084474608 59
0.2847352 1.2537141 0.10723466 81
0.27411571 1.2730789 0.15373851 68
0.28057754 1.2653894 0.0098431576 88
0.2866312 1.2542584 0.028889447 100
0.28346571 1.2600789 0.048807215 88
0.28159663 1.2635156 0.068978049 50
0.29423562 1.2402761 0.084787481 59
0.28548732 1.2563617 0.10761628 79
0.28153294 1.2636327 -0.0098082526 88
0.28325737 1.260462 0.14959741 70
0.28791919 1.255721 0.0096337283 90
0.29013532 1.2516137 0.028680105 100
0.28603843 1.2592067 0.048632905 88
0.28511992 1.2609088 0.068490572 50
0.29176292 1.2485973 0.10570818 81
0.28305054 1.2647442 0.15063268 70
0.29261458 1.2514331 0.0095290141 76
0.2901032 1.2561307 0.028889447 100
0.28604007 1.2637306 0.048981529 87
0.29262233 1.2514187 0.067028143 51
0.29947004 1.2386103 0.084161744 59
0.29915625 1.2391973 0.10341848 76
0.29917315 1.2391655 0.12282328 76
0.27948728 1.2759874 0.15373851 68
0.29327554 1.2540507 0.0095639192 91
0.2839447 1.2716439 0.049678773 86
0.29235998 1.2557769 0.067515619 51
0.29427439 1.2521673 0.1060898 73
0.28297701 1.2734684 0.15270324 68
0.29217443 1.2602534 0.0096686333 75
0.29899606 1.2472821 0.028261416 100
0.2894069 1.2655159 0.048981529 87
0.29960111 1.2461317 0.066053182 52
0.29595903 1.253057 0.1060898 73
0.28658974 1.2708726 -0.0098780617 87
0.28113928 1.2812366 0.15477379 75
0.29380158 1.2611058 0.0096686333 75
0.29197302 1.2646109 0.048807215 58
0.29659066 1.2557594 0.067271881 51
0.29393011 1.2608594 0.10761628 72
0.29010195 1.2681975 -0.0098082526 99
0.29087779 1.2667103 0.15011504 78
0.29966688 1.254389 0.028575432 100
0.29936251 1.2549781 0.047761347 60
0.29572353 1.2620194 0.068003096 51
0.28834444 1.2762978 -0.0099478718 100
0.29722166 1.2591206 0.14752686 71
0.29735655 1.2628598 0.068003096 68
0.29443878 1.2685518 0.15011504 78
0.29530537 1.271163 0.15063268 70
0.29978338 1.2664206 0.0097035384 100
0.29531693 1.2752819 0.049504463 57
0.29528311 1.2753491 -0.0098780617 100
0.29522964 1.2754551 0.15166797 77
0.29892403 1.2727013 -0.0098082526 100
0.29615456 1.2824907 -0.0099827768 100
