# .PCD v0.7 - Point Cloud Data file format
VERSION 0.7
FIELDS x y z intensity
SIZE 4 4 4 4
TYPE F F F F
COUNT 1 1 1 1
WIDTH 731
HEIGHT 1
VIEWPOINT 0 0 0 1 0 0 0
POINTS 731
DATA ascii
-1.1663295 0.1641245 0.020558935 24
-1.1083527 0.15991352 0.019546695 4
-1.0365995 0.1530717 0.018290121 6
-1.0221914 0.1547744 0.018045789 4
-1.0849096 0.16795287 0.019162742 1
0.093932211 0.0025047064 0.046788346 10
0.05204922 0.00028526783 0.04804441 50
0.049977422 0.0087882876 0.047730394 25
0.047190785 0.010626078 0.047730394 100
0.041350842 0.0073127747 0.04804441 72
0.037444651 0.0075246096 0.048149079 53
0.039397955 0.015843928 0.047730394 28
0.034517586 0.014330983 0.047939736 18
0.028621614 0.011105955 0.048253752 8
0.021295607 0.0064538717 0.048672438 8
0.011384249 0.0036273003 0.049091127 7
-1.0237441 1.127257 0.084574908 5
-1.0412796 1.1312377 0.14276111 6
-1.0399938 1.1367867 0.028482327 7
-1.0010798 1.1278099 0.083423518 7
-1.0283604 1.1341031 0.14171524 13
-1.0096271 1.1349458 0.027958754 12
-1.0018928 1.133136 0.083528183 58
-1.0291488 1.1395137 0.14188954 52
-1.0044527 1.1394628 0.027888946 36
-0.99284321 1.1367035 0.083109498 100
-1.0200958 1.1431808 0.1411923 100
-0.98760265 1.1411331 0.027609708 37
-0.99737829 1.1434927 0.083423518 100
-0.99941581 1.1439846 0.13944919 91
-0.97852892 1.1445942 0.027470088 33
-0.9960652 1.1488918 0.083423518 100
-1.0039062 1.1508133 0.13997212 87
-0.98109311 1.150893 0.027539898 23
-0.97341317 1.1489824 0.08227212 76
-0.99483377 1.1543112 0.13927488 87
-0.97587651 1.155256 0.027470088 27
-0.98176342 1.1567425 0.082795486 39
-1.0050735 1.1626278 0.14032075 69
-0.97064811 1.1595875 0.027400278 50
-0.98233885 1.1625826 0.082900152 31
-0.98632294 1.1636033 0.13875194 85
-0.96347278 1.163384 0.027295563 61
-0.97902614 1.1674266 0.082795486 78
-0.97722644 1.1669588 0.1380547 91
-0.95242232 1.1661156 0.027121039 72
-0.97762948 1.1727616 0.082795486 91
-0.98161107 1.1738113 0.13857763 94
-0.95103043 1.1713576 0.027121039 83
-0.95499009 1.1724164 0.081644088 92
-0.97249311 1.1770965 0.13788038 100
-0.9554103 1.1781646 0.027225753 89
-0.94008261 1.1740088 0.08091139 100
-0.97683173 1.1839726 0.13840333 100
-0.95012003 1.182357 0.027155945 93
-0.94058913 1.1797371 0.081016064 100
-0.96577173 1.1866593 0.13753176 98
-0.94481891 1.1865174 0.027086135 92
-0.94684559 1.1870821 0.081434749 92
-0.9508732 1.1882043 0.13631158 92
-0.93565816 1.1895589 0.026946515 92
-0.94922477 1.1933901 0.081644088 84
-0.95323902 1.1945238 0.1366602 99
-0.95333463 1.2005064 0.027295563 61
-0.93614239 1.1955831 0.081016064 64
-0.95167297 1.2000306 0.1366602 100
-0.96334571 1.2090948 0.027504992 40
-0.92313892 1.1974288 0.080388032 24
-0.95398968 1.2063801 0.13700883 92
-0.93302578 1.2059157 0.026981421 59
-0.91205698 1.1997522 0.079864666 27
-0.94098812 1.2082562 0.13596296 84
-0.9238289 1.2088073 0.026841801 74
-0.91629058 1.206563 0.080178685 28
-0.93372053 1.2117524 0.13544002 89
-0.9090398 1.2093989 0.026597468 81
-0.92256159 1.2134709 0.080597371 46
-0.93041772 1.215837 0.13526571 99
-0.91514808 1.2168224 0.026737086 89
-0.90954214 1.2151129 0.079969339 94
-0.92885238 1.2210019 0.13526571 99
-0.91740078 1.223114 0.026806897 85
-0.90034622 1.2178478 0.079550654 95
-0.93298024 1.2279248 0.13578865 89
-0.91581017 1.2282335 0.026806897 88
-0.90068036 1.2235036 0.079655327 80
-0.91996294 1.2295316 0.13474278 66
-0.90276259 1.2297274 0.026597468 89
-0.91241783 1.2327828 0.080388032 66
-0.90505308 1.2304522 0.1335226 46
-0.88972265 1.2311358 0.026388038 85
-0.91459757 1.2391032 0.080597371 72
-0.90723175 1.2367439 0.13387123 43
-0.89571327 1.238625 0.026527658 85
-0.89395183 1.2380542 0.079550654 100
-0.91127962 1.2436709 0.13439415 49
-0.89026839 1.2424222 0.026457848 96
-0.89041144 1.2424691 0.07944598 100
-0.91529673 1.2506318 0.1349171 70
-0.8924064 1.2487066 0.026527658 99
-0.89064902 1.2481234 0.079550654 100
-0.90415519 1.2526058 0.13404553 82
-0.88314384 1.2511926 0.026388038 100
-0.88897127 1.2531493 0.079550654 100
-0.8911292 1.2538737 0.13299966 84
-0.87009472 1.2523336 0.02617861 99
-0.89294952 1.2600962 0.079864666 100
-0.89886409 1.2621051 0.13387123 80
-0.86840242 1.2572877 0.02617861 99
-0.87611872 1.2599387 0.079027295 100
-0.8933689 1.2658648 0.1335226 100
-0.87802631 1.2661738 0.026388038 85
-0.86685342 1.2622917 0.07860861 100
-0.9123314 1.2780932 0.13544002 84
-0.88005894 1.2724813 0.026457848 81
-0.87077934 1.2692207 0.078922622 76
-0.90302998 1.2805526 0.13474278 45
-0.86330944 1.2718675 0.02617861 88
-0.85782331 1.2699194 0.07829459 40
-0.87692112 1.2767011 0.13247673 37
-0.85025662 1.2727435 0.025969181 99
-0.85418993 1.2741556 0.078189917 17
-0.88827008 1.2863917 0.13369691 33
-0.85216373 1.2792375 0.026038991 99
-0.85233265 1.2792989 0.078189917 59
-0.88636774 1.2916598 0.13369691 19
-0.85788625 1.2868856 0.02617861 100
-0.8486715 1.2835026 0.078085244 100
-0.86583477 1.2898037 0.13195379 13
-0.85241479 1.2901607 0.0261088 100
-0.84696096 1.2881379 0.078085244 100
-0.86970741 1.2965746 0.13247673 3
-0.84310073 1.2922451 0.025969181 100
-0.84327358 1.29231 0.077980578 55
-0.87159187 1.3029258 0.13282534 1
-0.83378929 1.2942709 0.025829561 99
-0.847045 1.299293 0.07829459 53
-0.85109144 1.3008261 0.13108224 3
-0.82634836 1.296953 0.025724847 74
-0.83772808 1.3013098 0.077875905 57
-0.84736925 1.3050011 0.13090792 22
-0.83569044 1.3060832 0.025934275 75
-0.82841402 1.3032682 0.077457212 72
-0.84920961 1.3113134 0.13125655 61
-0.83194834 1.3101889 0.025899371 78
-0.82096368 1.3058951 0.0771432 65
-0.84916717 1.3169196 0.13143086 100
-0.82633442 1.3135405 0.025829561 99
-0.83208817 1.3158127 0.077875905 72
-0.82501215 1.3130183 0.12933913 97
-0.80957001 1.3124135 0.025550323 100
-0.82646435 1.3191535 0.077666558 91
-0.83051056 1.3207679 0.13003637 99
-0.8152793 1.3196692 0.025689943 100
-0.81732136 1.3204916 0.077247873 95
-0.83246988 1.3265903 0.130385 100
-0.81705707 1.3259382 0.025759751 100
-0.81539148 1.3252609 0.077247873 100
-0.84343785 1.3366666 0.13160518 100
-0.80155736 1.319635 0.17914793 19
-0.81131107 1.3294249 0.025689943 100
-0.80595773 1.327225 0.07682918 100
-0.81923741 1.3326821 0.12951343 100
-0.78300887 1.3177942 0.17695428 18
-0.80565614 1.3326403 0.025620133 100
-0.80031508 1.3304236 0.076619841 100
-0.80438358 1.3321121 0.12829325 100
-0.78292209 1.3232049 0.17719802 16
-0.79271656 1.3324966 0.025410704 100
-0.80581778 1.3379852 0.077038527 100
-0.80618733 1.33814 0.12864187 100
-0.78291112 1.3283889 0.17744176 18
-0.79811162 1.3402966 0.025550323 100
-0.78911144 1.3364892 0.076201156 96
-0.80419594 1.3428705 0.12864187 100
-0.76998442 1.328398 0.17597933 22
-0.80173033 1.3471196 0.025655037 71
-0.78722543 1.3409268 0.076201156 45
-0.80778593 1.349705 0.12916481 78
-0.74804324 1.324198 0.17329821 15
-0.81439823 1.3581674 0.025934275 67
-0.81457001 1.3582414 0.077875905 59
-0.83685774 1.3678493 0.1321281 18
-0.79349691 1.3491572 0.17963541 5
-0.7992968 1.3578113 0.025689943 100
-0.80680817 1.3610836 0.077561885 100
-0.8035 1.3596425 0.12916481 61
-0.77670401 1.3479691 0.1776855 16
-0.78818697 1.358259 0.025515418 100
-0.81398255 1.3695984 0.078085244 100
-0.81248087 1.3689383 0.13021068 100
-0.78750092 1.3579574 0.17939167 38
-0.78988475 1.3643148 0.025585229 100
-0.80103236 1.3692594 0.077457212 100
-0.81412977 1.3750689 0.1305593 100
-0.76739782 1.3543406 0.17695428 37
-0.79885811 1.3736559 0.025794657 100
-0.80268377 1.3753681 0.077666558 100
-0.81575292 1.3812169 0.13090792 100
-0.76364094 1.3578951 0.17671055 22
-0.80756992 1.3835369 0.026004085 100
-0.79681581 1.3786767 0.077457212 100
-0.80260998 1.3812953 0.12986206 100
-0.77052206 1.3667936 0.17792924 16
-0.79097193 1.3813988 0.025724847 100
-0.80205911 1.3864539 0.077875905 100
-0.79694968 1.3841243 0.12951343 100
-0.77395445 1.3736398 0.17866045 14
-0.78872198 1.3863096 0.025724847 100
-0.81793302 1.3997575 0.078922622 100
-0.80554873 1.3940561 0.1305593 100
-0.77173311 1.3784883 0.17866045 14
-0.79029828 1.3924301 0.025794657 100
-0.80859131 1.4009253 0.078503937 100
-0.81431407 1.4035829 0.13160518 100
-0.77330881 1.3845403 0.17914793 14
-0.79706079 1.4015828 0.025969181 100
-0.79722792 1.4016612 0.077980578 100
-0.81198269 1.4085791 0.13160518 100
-0.76385814 1.3860154 0.17817298 5
-0.8039977 1.4103209 0.026143705 100
-0.80054241 1.4086869 0.07829459 100
-0.80265301 1.409685 0.13090792 100
-0.77975351 1.3988556 0.18061037 3
-0.78720492 1.4083871 0.025864467 100
-0.80720443 1.4179349 0.078817949 100
-0.7967034 1.4129217 0.1305593 100
-0.78688234 1.4136853 0.025899371 100
-0.80864745 1.424165 0.079027295 100
-0.80892509 1.4242985 0.13195379 100
-0.79530531 1.4238255 0.0261088 100
-0.79725891 1.4247751 0.078503937 100
-0.81368572 1.4327586 0.13265105 100
-0.79672104 1.4300432 0.02617861 100
-0.79508024 1.4292392 0.078503937 100
-0.81505853 1.4390306 0.13299966 100
-0.79440886 1.4347402 0.02617861 100
-0.79456121 1.4348155 0.07860861 100
-0.80914289 1.4420254 0.13265105 100
-0.79219705 1.4391947 0.02617861 100
-0.80486113 1.4455088 0.079341307 100
-0.79977471 1.4429729 0.13195379 100
-0.78973538 1.4441097 0.02617861 100
-0.80059201 1.4495723 0.079236634 100
-0.79729909 1.4479156 0.13195379 100
-0.7910592 1.4503582 0.02624842 100
-0.80011219 1.454951 0.079341307 100
-0.81458849 1.4622953 0.13387123 100
-0.79923648 1.4607364 0.026457848 100
-0.79403704 1.4580746 0.079131968 100
-0.81913584 1.4709238 0.13456847 100
-0.80404633 1.4688754 0.026597468 100
-0.79884714 1.4661919 0.079550654 100
-0.81149262 1.4727187 0.13404553 100
-0.79083425 1.4682915 0.026388038 100
-0.80160064 1.4738986 0.079864666 100
-0.80360657 1.4749432 0.1335226 100
-0.78851122 1.4727341 0.026388038 100
-0.80456406 1.4811621 0.080178685 100
-0.80302542 1.4803543 0.13369691 100
-0.78239244 1.4757632 0.02631823 64
-0.78076905 1.4749033 0.078922622 70
-0.80569476 1.4881064 0.13421984 91
0.11924917 1.3053632 0.13356629 10
0.15541738 1.2604111 0.14531837 7
0.15550965 1.2636392 0.011029921 25
0.16471833 1.2521161 0.032343622 30
0.16192624 1.2556099 0.054385185 25
0.13360506 1.2910492 0.081896201 13
0.17263916 1.2422044 0.095737889 12
0.1516678 1.2684467 0.12402584 49
0.20205915 1.2053902 0.128672 16
0.14959699 1.2710378 0.17185585 7
0.16593564 1.2540478 0.010785587 100
0.16764498 1.2518934 0.032238949 90
0.15247822 1.2710085 0.055953987 97
0.14776489 1.2769489 0.07945881 14
0.17674538 1.2404239 0.095112152 38
0.17171428 1.2467648 0.11830158 100
0.17329967 1.2447666 0.13991955 29
0.14894688 1.2754593 0.17289113 35
0.16515273 1.258527 0.010855397 100
0.17550915 1.2453806 0.031715591 100
0.15546241 1.270828 0.055779677 100
0.16673473 1.2565188 0.076046467 29
0.16372094 1.2603446 0.098866582 36
0.16001689 1.2650466 0.12249938 100
0.18460658 1.2338322 0.13632034 38
0.14593181 1.2829262 0.17496167 49
0.16686034 1.2598674 0.010855397 100
0.18209267 1.240392 0.031296901 100
0.15230319 1.2784797 0.056476921 100
0.17699608 1.2469083 0.074340299 30
0.18977445 1.2305703 0.092609204 26
0.16416633 1.263312 0.12173614 100
0.19103014 1.2289649 0.13452072 38
0.14653456 1.2858553 0.17547931 42
0.16489327 1.2659402 0.010960111 100
0.18618679 1.2385184 0.031087559 63
0.16263437 1.2688491 0.055256739 99
0.17501056 1.2529111 0.075071514 30
0.17926896 1.2474272 0.095737889 25
0.17913583 1.2475986 0.11753834 86
0.19024402 1.2332935 0.13542053 30
0.14833769 1.2872605 0.17547931 42
0.17753088 1.2529631 0.010645968 66
0.17798468 1.2523748 0.031924933 61
0.17524147 1.2559317 0.053687938 52
0.16812798 1.2651554 0.076777689 43
0.17602876 1.2549108 0.096989371 37
0.17750123 1.2530016 0.14081936 21
0.1500552 1.2885895 0.17547931 42
0.17921901 1.2542603 0.010645968 66
0.16024363 1.2790432 0.033599682 28
0.16846135 1.2683104 0.054908119 50
0.1867539 1.2444193 0.073365346 46
0.18372816 1.2483711 0.095425025 51
0.20507219 1.2204946 0.1102876 21
0.19340587 1.2357316 0.13542053 30
0.16361216 1.2746438 0.17030293 58
0.18324772 1.2523037 0.010576159 40
0.18369454 1.2517161 0.031715591 30
0.17252785 1.2664011 0.054559495 50
0.18832913 1.2456213 0.073365346 62
0.18890357 1.2448659 0.094486415 52
0.18993115 1.2435145 0.11563025 13
0.20202962 1.2276043 0.13272113 39
0.17347312 1.2651579 0.16667947 67
0.18260878 1.2568371 0.010645968 40
0.20471209 1.2275476 0.03004084 33
0.168349 1.275733 0.055431053 49
0.19007477 1.2469437 0.073365346 46
0.19064644 1.2461863 0.094486415 52
0.18812126 1.2495325 0.1167751 13
0.20957848 1.221099 0.13047162 48
0.1752905 1.2665347 0.16667947 67
0.17463112 1.2708541 0.010925206 39
0.16790166 1.2798332 0.033390339 28
0.18675649 1.2546753 0.05299069 52
0.18808687 1.2529001 0.07409656 76
0.20644364 1.2284067 0.090731993 54
0.18853602 1.2523007 0.11715672 13
0.20757014 1.2269037 0.13182132 31
0.18041483 1.2631369 0.16512655 68
0.18243632 1.2642038 0.010750682 79
0.20076317 1.2395625 0.03066887 32
0.18734631 1.2576021 0.053165004 52
0.20407528 1.2351093 0.071171694 32
0.20223171 1.237588 0.092296332 66
0.2055375 1.2331433 0.11219569 14
0.21855092 1.2156463 0.12822211 32
0.18568346 1.2598379 0.16357364 69
0.18882942 1.2589859 0.010611063 81
0.20113558 1.2423246 0.030773543 64
0.17831177 1.2732257 0.054733805 75
0.19618446 1.249028 0.073121607 62
0.19791615 1.2466835 0.093860678 91
0.20707524 1.234283 0.11219569 14
0.21424162 1.2245805 0.13047162 32
0.18616208 1.2625972 0.16409127 69
0.19543716 1.2539169 0.010471444 82
0.2041322 1.2420497 0.03066887 64
0.19437745 1.2553632 0.05264207 79
0.21210536 1.2311677 0.07019674 82
0.19741407 1.2512187 0.094486415 91
0.21234152 1.2308453 0.11105084 14
0.22520363 1.2132907 0.12687239 16
0.18577263 1.2671072 0.16512655 68
0.19469079 1.2583239 0.010541254 95
0.20569947 1.243194 0.03066887 64
0.17606115 1.2839278 0.055605363 98
0.20662892 1.2419165 0.071659178 80
0.20714727 1.2412041 0.092296332 100
0.20347586 1.24625 0.1144854 13
0.24043393 1.1954563 0.12147357 17
0.19196951 1.262064 0.163056 70
0.1940558 1.2628033 0.010611063 81
0.2120311 1.2379166 0.030250182 65
0.17902398 1.2836149 0.055431053 74
0.2082783 1.2431123 0.071659178 96
0.21342069 1.2359927 0.091044858 100
0.20858899 1.2426822 0.11334054 13
0.23393369 1.2075925 0.12462288 16
0.19708276 1.2586125 0.16150309 70
0.20035389 1.2574812 0.010471444 96
0.2135846 1.2390348 0.030250182 65
0.20047012 1.2573192 0.052467756 100
0.20290723 1.2539213 0.073121607 78
0.21727046 1.2338959 0.090419121 100
0.21130258 1.2422163 0.11295892 13
0.23992971 1.2023041 0.12282328 17
0.19757906 1.2613499 0.16202073 70
0.19982389 1.2620178 0.010541254 95
0.21993843 1.2337558 0.029831495 66
0.19763741 1.26509 0.053165004 100
0.2161938 1.2390172 0.070684217 81
0.21324584 1.2431593 0.091983467 100
0.20506686 1.2546512 0.11563025 20
0.22230664 1.2304282 0.13047162 16
0.20162266 1.2594905 0.16098544 72
0.20607388 1.2566442 0.010401634 97
0.22032538 1.2364788 0.029936166 99
0.19928113 1.2662557 0.053165004 100
0.21775094 1.2401216 0.070684217 81
0.21595681 1.2426602 0.091670595 100
0.20894209 1.2525858 0.11486702 40
0.22945881 1.2235553 0.12822211 24
0.20101789 1.2637982 0.16202073 70
0.21007147 1.2545676 0.010331824 84
0.22310272 1.2359917 0.029831495 66
0.19643867 1.2740012 0.053862248 100
0.21027383 1.2542793 0.072634131 78
0.21760875 1.2438233 0.091670595 100
0.20273635 1.2650239 0.11753834 92
0.23663968 1.2166947 0.12597258 49
0.1983059 1.2713394 0.16409127 77
0.20710835 1.2622557 0.010471444 82
0.22008348 1.2436285 0.030250182 65
0.20038953 1.2719011 0.053513627 100
0.21868938 1.2456299 0.071171694 65
0.22934347 1.2303349 0.088854775 98
0.21447912 1.2516742 0.11410378 82
0.22475654 1.2369199 0.13137141 94
0.20880389 1.2598215 0.15995017 72
0.21346265 1.2569289 0.010331824 98
0.22295719 1.2431915 0.030145511 98
0.20676264 1.2666231 0.05281638 100
0.21027705 1.2615383 0.073365346 46
0.2242941 1.2412572 0.090731993 100
0.22517663 1.2399802 0.11105084 84
0.22757804 1.2365057 0.13092151 96
0.20840472 1.2642472 0.16098544 72
0.21507922 1.2580423 0.010331824 84
0.22565827 1.2426267 0.03004084 66
0.20502934 1.272687 0.053339314 100
0.22089472 1.249568 0.071415432 48
0.22474092 1.2439635 0.091044858 100
0.22673693 1.2410549 0.11105084 98
0.23022947 1.2359656 0.13047162 80
0.21223179 1.2621915 0.15995017 72
0.21470535 1.2626309 0.010401634 83
0.23084676 1.2389152 0.029726824 67
0.205841 1.2756548 0.053513627 100
0.22832322 1.242623 0.07019674 82
0.22545174 1.2468419 0.09135773 100
0.2274434 1.2439156 0.11143246 91
0.23092452 1.238801 0.13092151 96
0.20977625 1.269873 0.16202073 70
0.21746045 1.2620833 0.010366729 41
0.22681201 1.2482451 0.030250182 32
0.21198198 1.2701902 0.05281638 79
0.22989225 1.243687 0.07019674 82
0.23477709 1.2364585 0.089167647 100
0.22352043 1.2531159 0.11334054 96
0.23793653 1.2317834 0.128672 100
0.20927238 1.2741997 0.163056 70
0.21026921 1.276527 0.010645968 40
0.22180825 1.2593226 0.030878214 31
0.21594965 1.2680577 0.052467756 53
0.21496162 1.2695308 0.073852822 100
0.23970824 1.2326344 0.088229038 98
0.22520882 1.2542526 0.11334054 100
0.23955035 1.2328699 0.128672 97
0.21964312 1.2625508 0.15891489 73
0.22525108 1.2576777 0.01022711 28
0.20350659 1.2903316 0.032762308 29
0.22422895 1.2592126 0.051421888 55
0.21441945 1.2739437 0.074340299 100
0.24124408 1.2336609 0.088229038 100
0.23116907 1.2487906 0.11181407 98
0.23784664 1.2387629 0.13002171 96
0.2159245 1.2716835 0.16150309 70
0.22924519 1.2555277 0.0101573 28
0.2032142 1.2949309 0.032971654 29
0.22382775 1.2637281 0.051770512 54
0.23815277 1.2420443 0.069465525 99
0.23423481 1.2479749 0.090731993 100
0.23617256 1.2450417 0.11066922 92
0.23527017 1.2464076 0.13182132 94
0.22096008 1.2680689 0.15995017 72
0.21330965 1.2833427 0.010715778 39
0.21152911 1.2860575 0.032343622 30
0.22655952 1.263141 0.051596198 54
0.23754242 1.2463956 0.069953002 99
0.23365483 1.2523229 0.09135773 94
0.24313322 1.2378715 0.10876112 87
0.24540186 1.2344126 0.12822211 97
0.22261354 1.2691573 0.15995017 72
0.23264259 1.2577552 0.0101573 42
0.21342281 1.2872946 0.032343622 30
0.21858981 1.2793533 0.053165004 52
0.238208 1.2492015 0.07019674 66
0.24404323 1.2402332 0.088854775 98
0.24377939 1.2406387 0.10914274 85
0.24923164 1.232259 0.1273223 89
0.22444525 1.2703539 0.15995017 72
0.23426181 1.2588048 0.0101573 42
0.24765074 1.2380769 0.029203463 34
0.23217222 1.2620398 0.051247578 55
0.23764461 1.2535678 0.070684217 65
0.2552506 1.2263114 0.086038955 87
0.24108082 1.2482481 0.11066922 85
0.24970883 1.2348908 0.1277722 97
0.22925088 1.2665625 0.15839726 81
0.23804334 1.2564826 0.010087491 57
0.24812651 1.2407583 0.029308135 68
0.23810759 1.2563823 0.05055033 84
0.24460766 1.2462457 0.069465525 49
0.24823496 1.2405891 0.08854191 84
0.2469075 1.2426593 0.10914274 85
0.25125211 1.2358841 0.1277722 89
0.22672805 1.2741282 0.1604678 72
0.24502754 1.2490798 0.0099129668 87
0.23789132 1.2602901 0.030459527 97
0.23330268 1.2674984 0.051596198 54
0.23233056 1.2690254 0.072634131 94
0.25191873 1.2382545 0.087916173 70
0.24531373 1.2486303 0.1102876 85
0.25279868 1.2368722 0.1277722 89
0.23358864 1.2670491 0.15787962 65
0.24144721 1.2586485 0.010087491 86
0.24928764 1.2462318 0.029517479 100
0.23938325 1.2619171 0.050898954 55
0.24793991 1.2483661 0.069465525 49
0.25785565 1.2326628 0.086664692 57
0.24287724 1.2563838 0.11181407 100
0.25659275 1.2346629 0.12687239 99
0.23128679 1.2747393 0.15995017 64
0.24519342 1.2562803 0.010017681 87
0.25299001 1.2438419 0.029308135 100
0.23360908 1.2747617 0.052119136 81
0.2474193 1.2527292 0.069953002 49
0.25519499 1.240324 0.087916173 56
0.25074798 1.2474186 0.10952436 78
0.26227519 1.2290286 0.12507279 100
0.2309103 1.2790673 0.16098544 64
0.2438103 1.262489 0.010122396 85
0.2589469 1.2381426 0.028889447 100
0.24387699 1.2623817 0.05072464 84
0.24919063 1.253835 0.069953002 49
0.26109275 1.2346911 0.086664692 71
0.24420714 1.2618506 0.1125773 96
0.26395953 1.23008 0.12507279 92
0.24093831 1.2671083 0.15684435 66
0.25174627 1.2532912 0.0099129668 87
0.25840309 1.2425045 0.029098792 100
0.24341878 1.2667851 0.051073264 83
0.25079674 1.2548299 0.069953002 49
0.26471013 1.2322845 0.086038955 72
0.25615036 1.2461548 0.10876112 79
0.26343992 1.2343428 0.12597258 90
0.24258849 1.2681305 0.15684435 66
0.24934384 1.2612034 0.010052586 86
0.25805151 1.2469771 0.029308135 100
0.24524164 1.2679055 0.051073264 83
0.25879368 1.2457645 0.068490572 50
0.26640642 1.233327 0.086038955 58
0.25892246 1.2455541 0.10837951 87
0.2590397 1.2453625 0.128672 89
0.24239925 1.2725493 0.15787962 65
0.25305092 1.2587796 0.0099827768 87
0.25859782 1.2496495 0.029412808 100
0.23654953 1.2859411 0.05281638 100
0.25831157 1.2501206 0.068978049 50
0.26691878 1.2359531 0.086351827 58
0.25642359 1.2532282 0.10990598 78
0.2697241 1.2313356 0.12462288 83
0.24406746 1.2735665 0.15787962 65
0.25278038 1.2632904 0.010052586 86
0.26138854 1.2490036 0.029308135 100
0.24975333 1.2683144 0.050898954 83
0.2539264 1.2613883 0.070440479 49
0.27474526 1.2268357 0.084474608 59
0.25414386 1.2610275 0.11143246 91
0.27745113 1.2223448 0.12192347 85
0.24591517 1.2746844 0.15787962 65
0.25441781 1.2642733 0.010052586 86
0.26502872 1.2465298 0.029098792 100
0.25140744 1.2693073 0.050898954 83
0.25555751 1.2623675 0.070440479 49
0.27322015 1.232832 0.085413218 58
0.2678653 1.2417864 0.10685304 73
0.27695233 1.2265911 0.12282328 93
0.25647047 1.2608409 -0.0099827768 96
0.25155646 1.2690581 0.15580906 67
0.26439163 1.2515936 0.0097733475 89
0.26677719 1.247571 0.029098792 100
0.26136991 1.2566888 0.049504463 86
0.26141444 1.2566137 0.069465525 49
0.27088785 1.2406396 0.086664692 57
0.26759347 1.2461946 0.10761628 87
0.27763361 1.2292649 0.12327318 76
0.2533876 1.2701485 0.15580906 75
0.26801887 1.2490913 0.0097035384 90
0.26228392 1.2588351 0.029726824 100
0.26298541 1.2576432 0.049504463 86
0.26504353 1.2541465 0.068978049 50
0.27245009 1.2415626 0.086664692 71
0.26718247 1.2505124 0.10837951 87
0.28014657 1.2284862 0.12282328 76
0.26092723 1.2611401 0.15270324 68
0.26969293 1.2500727 0.0097035384 90
0.27104151 1.247763 0.028994121 100
0.25564784 1.2741272 0.051073264 100
0.26072964 1.2654238 0.070440479 98
0.27808198 1.235705 0.085413218 58
0.26688164 1.2548875 0.10914274 78
0.28174862 1.2294253 0.12282328 85
0.25290248 1.2788291 0.15787962 65
0.26326594 1.2648413 0.0099827768 87
0.2796368 1.2365887 0.028261416 100
0.26031789 1.2699289 0.05055033 100
0.2663551 1.25951 0.069465525 49
0.27764708 1.2400225 0.086038955 58
0.27045974 1.2524263 0.10837951 79
0.28327361 1.2303123 0.12282328 76
0.26233989 1.2664394 0.15373851 68
0.26807019 1.2606872 0.0098780617 73
0.2753787 1.247967 0.028889447 100
0.26810765 1.260622 0.049504463 86
0.27408481 1.2502191 0.068003096 51
0.28133982 1.237592 0.085413218 58
0.2673395 1.261959 0.1102876 85
0.28690419 1.2279074 0.12192347 85
0.26807019 1.2606872 -0.0098780617 87
0.26416135 1.2674904 0.15373851 68
0.27564171 1.2511964 0.0096686333 75
0.27498671 1.2523452 0.029098792 100
0.2726967 1.2563617 0.048981529 87
0.27371231 1.2545804 0.068490572 50
0.28582716 1.2333322 0.084474608 59
0.27577934 1.250955 0.10761628 79
0.28359798 1.237242 0.12417299 83
0.26772639 1.265079 0.15270324 68
0.2774072 1.2521988 0.0096686333 75
0.27085909 1.263782 0.029726824 100
0.27055919 1.2643125 0.049678773 86
0.27744406 1.2521336 0.068003096 51
0.28752711 1.2342973 0.084474608 59
0.28430706 1.2399933 0.10494494 82
0.2862713 1.2365187 0.12372308 92
0.27144423 1.2627469 0.15166797 69
0.28292099 1.2461239 0.0095290141 76
0.28226927 1.2472857 0.028680105 100
0.26635149 1.2756624 0.05072464 84
0.27904436 1.2530348 0.068003096 51
0.2794041 1.2523935 0.087603301 57
0.28202513 1.247721 0.10647142 81
0.29067993 1.2322919 0.12237337 76
0.26551881 1.2771468 0.15580906 67
0.27980828 1.2558377 0.0097035384 90
0.28790331 1.2412819 0.028261416 100
0.27498528 1.26451 0.049504463 100
0.27888697 1.2574943 0.068490572 50
0.29173499 1.234392 0.084161744 74
0.28091526 1.2538472 0.10761628 87
0.29521751 1.2281301 0.12102367 86
0.27300492 1.2680711 -0.0099478718 86
0.27301314 1.2680562 0.15270324 68
0.28045475 1.2584819 0.0097384425 75
0.28753772 1.2456458 0.02847076 100
0.27662665 1.2654192 0.049504463 86
0.28434128 1.2514385 0.067515619 51
0.29232204 1.2369754 0.084474608 59
0.28252125 1.2547369 0.10761628 79
0.29485515 1.2323848 0.12192347 93
0.27659032 1.2654852 -0.0098780617 87
0.27466628 1.2689719 0.15270324 68
0.28800508 1.2489403 0.0095290141 92
0.28736576 1.2501091 0.028680105 100
0.28131285 1.2611741 0.048981529 87
0.28134423 1.2611167 0.068734311 33
0.29593134 1.2344507 0.083848871 59
0.2871263 1.2505468 0.10647142 81
0.29655159 1.2333169 0.12192347 85
0.27648881 1.2699926 -0.0099478718 86
0.28020546 1.2631984 0.15063268 78
0.28673315 1.255079 0.0096337283 90
0.28705391 1.2544881 0.028889447 100
0.28484386 1.2585602 0.048632905 88
0.28770879 1.2532815 0.067515619 51
0.29370385 1.2422353 0.085100345 58
0.29059425 1.2479649 0.10570818 81
0.29994851 1.2307293 0.12102367 77
0.2771945 1.2726544 -0.0099827768 86
0.28184247 1.2640904 0.15063268 70
0.29040766 1.2525187 0.0095639192 91
0.29072392 1.2519308 0.028680105 100
0.27342093 1.2840929 0.051073264 83
0.28948188 1.2542396 0.067515619 51
0.29048753 1.2523702 0.10647142 73
0.27907881 1.2735763 0.15322088 76
0.2883285 1.2604792 0.0097035384 90
0.29992869 1.2387357 0.027842728 100
0.28178191 1.2727501 0.049853086 57
0.29023939 1.2568974 0.067759357 34
0.29894927 1.2405715 0.084474608 59
0.28755233 1.261934 0.10837951 72
0.28362218 1.2693007 -0.0098780617 87
0.2781103 1.2796323 0.15477379 67
0.29471767 1.2525517 0.0095290141 92
0.28633353 1.2684 0.049330149 87
0.29101229 1.2595558 0.068003096 51
0.29110721 1.2593764 0.10761628 72
0.28910708 1.2631571 -0.0097384425 88
0.29163477 1.2583792 0.1480445 79
0.29547471 1.2552106 0.0095639192 91
0.29362807 1.258731 0.048284281 88
0.29733342 1.2516674 0.066784397 52
0.28711441 1.2711482 -0.0098780617 87
0.29423851 1.2575673 0.14752686 71
0.29901546 1.252548 0.0094941091 92
0.29563478 1.2590477 0.028889447 100
0.29349688 1.2631581 0.048632905 88
0.2935203 1.263113 0.068246834 34
0.29237628 1.2653127 0.14959741 70
0.2988683 1.2569758 0.0095639192 91
0.2943067 1.2658213 0.048807215 58
0.29797271 1.2587124 0.067515619 51
0.29410681 1.2662089 0.14959741 78
0.29692838 1.2649713 0.0097035384 100
0.29694599 1.2649368 0.048632905 59
0.29787278 1.2631241 0.068003096 100
0.29237673 1.2738736 -0.0098780617 97
0.29056379 1.2774196 0.15270324 76
0.29775357 1.2676353 0.0097384425 100
0.29684949 1.269419 -0.0097733475 100
0.29670379 1.2697064 0.15011504 78
0.29778406 1.2721304 -0.0098082526 100
0.29687038 1.2828448 -0.0099827768 100
0.29954088 1.281929 -0.0099478718 100
