# .PCD v0.7 - Point Cloud Data file format
VERSION 0.7
FIELDS x y z intensity
SIZE 4 4 4 4
TYPE F F F F
COUNT 1 1 1 1
WIDTH 730
HEIGHT 1
VIEWPOINT 0 0 0 1 0 0 0
POINTS 730
DATA ascii
-1.1722412 0.16516505 0.020663649 24
-1.1114813 0.15660417 0.058825616 30
-1.163741 0.16811231 0.020524031 34
-1.0365728 0.15325262 0.018290121 6
-1.0320772 0.15627125 0.018220313 5
-1.0453582 0.16201681 0.018464645 1
0.057693452 0.0095920563 0.015811881 80
0.050054997 0.003962934 0.047939736 38
0.050808847 0.010631859 0.047625721 22
0.043616056 0.0058069229 0.04804441 100
0.041084647 0.0074903369 0.04804441 72
0.033967972 0.0026420355 0.048463095 42
0.035906255 0.010972083 0.04804441 27
0.038758159 0.021109104 0.047521047 19
0.035145998 0.021162808 0.047625721 19
0.025579393 0.013205051 0.048253752 8
0.02307266 0.014948249 0.048253752 8
-1.0257542 1.1274241 0.084679574 3
-1.0432856 1.1314008 0.14293543 4
-1.0283661 1.1338142 0.028272899 7
-0.9855724 1.1239502 0.082586139 8
-1.0303655 1.1342751 0.14188954 13
-1.0153406 1.1368591 0.028063469 12
-1.0134335 1.1364121 0.084156215 63
-1.0173807 1.1373372 0.14084367 52
-0.98876101 1.1363008 0.027609708 36
-1.0043728 1.1400172 0.08373753 100
-1.0102742 1.141422 0.14032075 95
-0.97976273 1.1395233 0.027470088 37
-0.99925452 1.1442317 0.083528183 100
-1.0090339 1.146594 0.14032075 91
-0.98234779 1.1458136 0.027539898 36
-0.98048085 1.1453557 0.082586139 100
-1.0019047 1.15061 0.13979781 86
-0.98484081 1.1523943 0.027609708 22
-0.97134274 1.1490313 0.082167454 72
-0.99856609 1.1558138 0.13962349 82
-0.98155791 1.1572593 0.027574802 26
-0.98162836 1.1572771 0.082795486 37
-0.99334675 1.1602402 0.13927488 77
-0.9627642 1.1581304 0.027260659 50
-0.98026711 1.1626211 0.082795486 33
-0.97846597 1.162159 0.1380547 85
-0.95752972 1.1624011 0.027190849 63
-0.9866187 1.1699728 0.083214171 78
-0.97515959 1.16699 0.13788038 89
-0.95822316 1.167645 0.027225753 71
-0.96990448 1.1707249 0.082376793 98
-0.97968453 1.1733034 0.13840333 92
-0.95682591 1.1729074 0.027225753 81
-0.95113117 1.1713846 0.081434749 94
-0.97249311 1.1770965 0.13788038 100
-0.95912749 1.179738 0.027295563 92
-0.94379646 1.1755755 0.081120729 100
-0.96322769 1.1808512 0.13718314 100
-0.94612008 1.1818192 0.027086135 92
-0.94814855 1.1823776 0.081434749 100
-0.95794243 1.1850734 0.13683452 98
-0.93696898 1.1848894 0.026946515 93
-0.94669992 1.1876045 0.081434749 92
-0.96416074 1.1924764 0.13753176 94
-0.94320863 1.1922539 0.027086135 92
-0.93370181 1.1895657 0.080806717 86
-0.96075958 1.1972171 0.13735744 99
-0.9610998 1.2024448 0.027435184 55
-0.92469567 1.1920266 0.080388032 68
-0.95557898 1.2008648 0.13700883 100
-0.96342236 1.2088306 0.027504992 40
-0.92321354 1.1971717 0.080388032 24
-0.95406586 1.2061176 0.13700883 92
-0.93310183 1.2056569 0.026981421 59
-0.9236297 1.2028745 0.080492698 24
-0.93915302 1.2074344 0.13578865 85
-0.92390543 1.2085501 0.026841801 75
-0.92210978 1.2080158 0.080492698 26
-0.93379766 1.2114935 0.13544002 89
-0.92052835 1.2128587 0.026806897 78
-0.91873676 1.2123191 0.080388032 46
-0.92850989 1.2152624 0.13509139 98
-0.91897351 1.2179891 0.026806897 88
-0.90763181 1.2145302 0.079864666 100
-0.93266386 1.2221642 0.13561434 99
-0.9135794 1.2219341 0.026737086 83
-0.91179627 1.2213835 0.080178685 86
-0.91775066 1.223222 0.13439415 89
-0.90435857 1.2246535 0.026597468 88
-0.90830547 1.2258874 0.080074012 76
-0.91045469 1.2265593 0.13387123 63
-0.89513654 1.2273141 0.026457848 83
-0.90860945 1.2315776 0.080178685 66
-0.91265124 1.2328566 0.13421984 43
-0.90114897 1.2347957 0.026597468 79
-0.89367479 1.2324017 0.07944598 82
-0.90723175 1.2367439 0.13387123 43
-0.8994357 1.2401114 0.026597468 89
-0.89956957 1.2401547 0.079864666 100
-0.92256802 1.247614 0.13544002 49
-0.90158588 1.2464151 0.026667276 99
-0.89222664 1.2433434 0.079550654 100
-0.91331977 1.2502662 0.13474278 68
-0.87722319 1.2436676 0.02624842 100
-0.88875347 1.2474942 0.07944598 100
-0.90415519 1.2526058 0.13404553 82
-0.87556106 1.2486466 0.02624842 96
-0.90222496 1.2575994 0.080283359 100
-0.90057296 1.2570446 0.13387123 80
-0.87388164 1.2536198 0.02624842 96
-0.87971145 1.2556 0.079131968 100
-0.90263718 1.2633866 0.13421984 80
-0.87218481 1.2585871 0.02624842 96
-0.87800771 1.2605876 0.079131968 100
-0.90467459 1.2697489 0.13456847 100
-0.88180417 1.2674865 0.026457848 85
-0.87062663 1.2636027 0.078817949 100
-0.89351124 1.271554 0.13369691 85
-0.86873919 1.2685039 0.02624842 79
-0.87266368 1.2698828 0.079027295 76
-0.89551109 1.2779107 0.13404553 45
-0.85945326 1.2707753 0.0261088 81
-0.85773605 1.2701652 0.07829459 38
-0.88997453 1.2816193 0.13369691 35
-0.85393268 1.2743399 0.026038991 99
-0.85786122 1.2757512 0.078399263 19
-0.89193004 1.2879899 0.13404553 29
-0.85968202 1.2819681 0.02617861 96
-0.85420996 1.2799807 0.07829459 59
-0.8826223 1.2902994 0.13334829 18
-0.85788625 1.2868856 0.02617861 96
-0.85617107 1.2862558 0.078503937 100
-0.8620941 1.2884305 0.13160518 13
-0.84107536 1.286231 0.025899371 100
-0.84687048 1.2883816 0.078085244 100
-0.8658796 1.295436 0.1321281 3
-0.83926493 1.2910837 0.025899371 100
-0.83570224 1.2897475 0.077561885 53
-0.87149876 1.303174 0.13282534 1
-0.83369774 1.2945124 0.025829561 93
-0.832012 1.2938733 0.077457212 48
-0.8491357 1.3003644 0.13090792 3
-0.83746058 1.3014851 0.025934275 75
-0.83577019 1.3008376 0.077771232 55
-0.85471803 1.3080959 0.13160518 22
-0.8468805 1.3104123 0.026143705 74
-0.83027679 1.3039888 0.077561885 68
-0.83620232 1.3062812 0.13003637 60
-0.83194834 1.3101889 0.025899371 81
-0.82840437 1.3088036 0.077561885 65
-0.8510229 1.317645 0.13160518 100
-0.8188948 1.3106024 0.025689943 93
-0.83394581 1.3165463 0.077980578 74
-0.83798403 1.3181411 0.1305593 100
-0.81699938 1.3153775 0.025689943 100
-0.81904405 1.3161931 0.077247873 95
-0.83421165 1.3222444 0.130385 97
-0.8152793 1.3196692 0.025689943 100
-0.81732136 1.3204916 0.077247873 95
-0.84355921 1.3310549 0.13143086 100
-0.82076186 1.3274449 0.025829561 100
-0.81724161 1.3260133 0.077352546 97
-0.83420986 1.3329138 0.13073361 100
-0.78868538 1.3144004 0.17744176 16
-0.80770916 1.3276677 0.025620133 100
-0.80605501 1.3269883 0.07682918 100
-0.81012064 1.3286582 0.12864187 100
-0.78861314 1.3198242 0.1776855 16
-0.79836601 1.3293388 0.025480513 100
-0.80779213 1.3332491 0.077038527 100
-0.80816227 1.3334026 0.12864187 100
-0.78668576 1.3244934 0.1776855 20
-0.79640526 1.3340421 0.025480513 100
-0.79660708 1.3341266 0.076515168 100
-0.81353801 1.3412193 0.12933913 100
-0.77192563 1.323787 0.17597933 20
-0.80179495 1.3418548 0.025620133 100
-0.7817536 1.3333766 0.075782463 92
-0.81153578 1.3459755 0.12933913 100
-0.77546912 1.330718 0.17671055 20
-0.80530745 1.3489265 0.025724847 70
-0.79447263 1.3442984 0.076619841 42
-0.80402023 1.3483768 0.12881619 75
-0.77715486 1.3369009 0.17719802 15
-0.81062311 1.3568217 0.025864467 67
-0.81446737 1.3584795 0.077875905 59
-0.8257764 1.3633571 0.13108224 18
-0.80068702 1.3525362 0.18061037 5
-0.79563016 1.356214 0.025620133 100
-0.81230122 1.3634766 0.077875905 100
-0.81628603 1.3652127 0.130385 78
-0.7858035 1.3519331 0.17890419 19
-0.7935757 1.3609076 0.025620133 100
-0.80108005 1.364208 0.077352546 100
-0.82331902 1.3739887 0.13125655 100
-0.77649564 1.3533957 0.17792924 35
-0.79719657 1.367558 0.025724847 100
-0.80285805 1.3700693 0.077561885 100
-0.81959349 1.3774924 0.13108224 100
-0.76558334 1.3535357 0.17671055 30
-0.79875273 1.3738914 0.025794657 100
-0.80986959 1.3788688 0.078085244 100
-0.80109876 1.3749417 0.12951343 100
-0.78346795 1.3670477 0.17939167 21
-0.79663652 1.3785956 0.025794657 100
-0.80773598 1.3836119 0.078085244 100
-0.80260998 1.3812953 0.12986206 100
-0.77413994 1.3684287 0.17841671 17
-0.7872265 1.3799729 0.025655037 100
-0.81285435 1.3916631 0.078503937 100
-0.80046791 1.386013 0.12986206 100
-0.75940043 1.3672802 0.17671055 15
-0.79053849 1.3871458 0.025759751 100
-0.8052333 1.3939109 0.078189917 100
-0.80916828 1.3957224 0.13090792 100
-0.76091403 1.3735075 0.17719802 15
-0.79563016 1.3951917 0.025899371 100
-0.80123597 1.3977962 0.078085244 100
-0.81420344 1.403821 0.13160518 100
-0.76420015 1.380589 0.17792924 11
-0.80792409 1.4066763 0.02617861 100
-0.80084461 1.403357 0.078189917 100
-0.80115896 1.4035044 0.1305593 100
-0.78183156 1.3944426 0.18061037 7
-0.79484791 1.4062811 0.025969181 100
-0.80584711 1.4114852 0.07860861 100
-0.79533738 1.4065127 0.13021068 100
-0.77964371 1.3990877 0.18061037 3
-0.7908141 1.4101101 0.025934275 100
-0.81080931 1.4196558 0.079027295 100
-0.80569333 1.4172136 0.13143086 100
-0.79037315 1.4156544 0.025969181 100
-0.7959376 1.4183347 0.07829459 100
-0.81240088 1.426265 0.13230242 100
-0.79530531 1.4238255 0.0261088 100
-0.79905528 1.4256481 0.07860861 100
-0.81368572 1.4327586 0.13265105 100
-0.79660577 1.4302783 0.02617861 100
-0.79317182 1.4285946 0.078399263 100
-0.80778617 1.4357604 0.13230242 100
-0.79082376 1.4329675 0.0261088 100
-0.79635161 1.4357008 0.078713275 100
-0.79842693 1.4367269 0.13160518 100
-0.78850132 1.4376439 0.0261088 100
-0.81189221 1.4493113 0.07976 100
-0.80678886 1.4467657 0.13265105 100
-0.78973538 1.4441097 0.02617861 100
-0.80237621 1.4504701 0.079341307 100
-0.81153733 1.4550798 0.13334829 100
-0.79807311 1.4542124 0.026388038 100
-0.79464966 1.4524748 0.079027295 100
-0.81269103 1.4616317 0.13369691 100
-0.79923648 1.4607364 0.026457848 100
-0.7975927 1.4598949 0.079341307 100
-0.81026846 1.4663842 0.13369691 100
-0.78970999 1.461772 0.02631823 99
-0.80227488 1.46826 0.07976 100
-0.80605906 1.470214 0.1335226 100
-0.78373986 1.464597 0.02624842 100
-0.80160064 1.4738986 0.079864666 100
-0.79653805 1.4712621 0.13282534 100
-0.7919293 1.4748274 0.026457848 100
-0.79383081 1.4758261 0.079550654 100
-0.81172091 1.4852226 0.13456847 100
-0.79299504 1.4813794 0.026527658 66
-0.77900416 1.4739685 0.078817949 72
-0.80921596 1.4899716 0.13456847 92
0.12918621 1.2931998 0.13051336 11
0.18725815 1.2209986 0.13362093 7
0.14810711 1.2730823 0.01123935 24
0.15607631 1.2631066 0.033076324 29
0.14460123 1.2774708 0.056825545 23
0.13617399 1.2880199 0.081408724 13
0.15052873 1.2700509 0.10136953 11
0.1517548 1.2685161 0.12402584 49
0.18632311 1.2252442 0.13452072 15
0.15089023 1.2695985 0.1713382 14
0.16477749 1.2556815 0.010820492 100
0.16897023 1.2503953 0.032134276 90
0.14637509 1.2788829 0.056825545 71
0.17375854 1.2443583 0.074340299 30
0.16700718 1.2528703 0.097615108 24
0.16813749 1.2514453 0.11944643 100
0.18549243 1.2295644 0.13542053 30
0.14423311 1.2815834 0.17496167 28
0.16276366 1.2617364 0.010925206 100
0.17064944 1.2517225 0.032134276 100
0.14075795 1.2896805 0.057871412 100
0.16067892 1.2643836 0.077265166 29
0.18824914 1.2293733 0.092609204 26
0.15888867 1.266657 0.122881 100
0.19071579 1.226241 0.13407083 46
0.15319258 1.2738903 0.17185585 43
0.15946859 1.2693183 0.011064826 100
0.17594036 1.2482581 0.03182026 100
0.15475813 1.2753409 0.056128297 100
0.16721237 1.2594174 0.076290213 29
0.18490654 1.2367942 0.093860678 26
0.16658536 1.2602191 0.1209729 100
0.19103014 1.2289649 0.13452072 38
0.15129521 1.2797685 0.17340876 42
0.17216712 1.2563977 0.010750682 100
0.17630315 1.2510732 0.031924933 61
0.16254732 1.2687817 0.055256739 99
0.16031304 1.2716578 0.077996381 28
0.18403289 1.2411225 0.094486415 26
0.18627873 1.2382313 0.11524864 94
0.18777221 1.2363087 0.13632034 30
0.15061763 1.2841392 0.17444403 42
0.1774466 1.2528981 0.010645968 53
0.17180049 1.2602165 0.032448292 59
0.17393965 1.2574438 0.053862248 51
0.17531696 1.2556585 0.075315252 45
0.16870436 1.2642297 0.098866582 36
0.1905109 1.2359643 0.13587044 15
0.14642456 1.2931085 0.17703223 48
0.17930353 1.254325 0.010645968 53
0.17975518 1.2537349 0.031924933 30
0.16733736 1.2699592 0.055082429 50
0.18924975 1.2413301 0.072877869 47
0.18861413 1.2421606 0.094173551 52
0.18128586 1.2517351 0.11791996 19
0.195856 1.2326988 0.13452072 31
0.15900359 1.2808475 0.17237349 57
0.17849141 1.2587357 0.010715778 39
0.18619594 1.2486 0.031506244 31
0.16658598 1.2743977 0.055431053 49
0.18721086 1.2472649 0.073609084 77
0.19615889 1.2354933 0.092609204 53
0.19357803 1.2388885 0.1144854 13
0.20564735 1.2230108 0.13137141 47
0.17122141 1.2682996 0.16771474 67
0.17065093 1.2728652 0.010995016 38
0.16870749 1.2754414 0.033180997 28
0.1660375 1.2789807 0.055779677 49
0.18059412 1.2596844 0.075315252 45
0.20381558 1.2289021 0.091044858 54
0.19411665 1.2417591 0.11486702 13
0.20261565 1.2304927 0.13317102 46
0.17537716 1.2666001 0.16667947 67
0.18431041 1.2581165 0.010645968 53
0.17996585 1.2639155 0.032343622 30
0.18803567 1.2531441 0.05281638 53
0.18936136 1.2513746 0.073852822 62
0.19704846 1.241114 0.093234941 53
0.19450587 1.2445078 0.11524864 13
0.20531303 1.2300825 0.13272113 31
0.18397582 1.2585632 0.16357364 69
0.19198343 1.2513673 0.010471444 82
0.18407607 1.261999 0.032134276 30
0.18496826 1.2607994 0.053513627 52
0.20170593 1.238295 0.071659178 64
0.19515845 1.2470983 0.094173551 78
0.21022409 1.226842 0.11066922 14
0.21157303 1.2250283 0.13092151 32
0.18337765 1.262938 0.16460891 69
0.19358167 1.2525518 0.010471444 82
0.21418834 1.2246526 0.029622151 67
0.17712805 1.2748282 0.054908119 75
0.20326078 1.2394474 0.071659178 96
0.201437 1.2419167 0.092922069 79
0.20707524 1.234283 0.11219569 14
0.21887276 1.2183105 0.128672 32
0.18271881 1.267259 0.16564418 68
0.18825975 1.263532 0.010680873 80
0.21113411 1.2323239 0.03004084 66
0.17780301 1.2777984 0.055082429 75
0.19794255 1.2503215 0.073121607 78
0.20550454 1.2400045 0.092296332 93
0.20529738 1.2402872 0.11334054 13
0.22051814 1.219521 0.128672 16
0.17426535 1.282625 0.17030293 65
0.18989834 1.2647289 0.010680873 100
0.20326614 1.2463634 0.030878214 63
0.19238651 1.2613106 0.053165004 100
0.20070553 1.2498814 0.072877869 47
0.21055251 1.236353 0.09135773 94
0.21610168 1.2287292 0.1102876 14
0.2357724 1.2017045 0.12327318 17
0.19415739 1.2588776 0.16202073 70
0.19865438 1.2562578 0.010471444 82
0.20960999 1.2410953 0.030459527 65
0.19176993 1.2657857 0.053513627 100
0.19075674 1.267188 0.075315252 90
0.20986864 1.2407374 0.091983467 100
0.2096563 1.2410312 0.11295892 13
0.22815078 1.2154351 0.12687239 16
0.19473463 1.2616826 0.16253836 70
0.20260036 1.2541707 0.010401634 83
0.20884535 1.2454671 0.03066887 96
0.19806203 1.2604958 0.05281638 100
0.21439534 1.2377321 0.070684217 65
0.21718949 1.2338378 0.090419121 82
0.22037637 1.2293962 0.10990598 14
0.23076573 1.2149166 0.12642249 16
0.19861951 1.2597188 0.16150309 70
0.19973803 1.2619567 0.010541254 95
0.21290711 1.2434602 0.030459527 65
0.19292873 1.2715206 0.053862248 100
0.21150658 1.2454274 0.071659178 80
0.21316326 1.2431004 0.091983467 93
0.20498228 1.254591 0.11563025 20
0.23239857 1.2160838 0.12642249 16
0.19929633 1.2625771 0.16202073 70
0.20137134 1.2631155 0.010541254 95
0.22600895 1.228267 0.029412808 100
0.19919452 1.2661945 0.053165004 100
0.20735517 1.2546518 0.072877869 47
0.21815506 1.2393758 0.091044858 100
0.1986576 1.2669539 0.11830158 45
0.24062949 1.2075871 0.12372308 25
0.19535553 1.2716246 0.16460891 69
0.19858742 1.2709382 0.010680873 93
0.22424972 1.2343566 0.029726824 100
0.20101553 1.2674769 0.053165004 100
0.21255386 1.251029 0.072146654 95
0.22214651 1.2373548 0.090419121 100
0.19597146 1.2746673 0.11982805 89
0.2321631 1.2230761 0.1277722 48
0.19719645 1.2729211 0.16460891 85
0.20939431 1.258974 0.010401634 97
0.22350824 1.238712 0.029936166 99
0.21177751 1.2555526 0.051770512 100
0.21755475 1.2472588 0.071415432 64
0.22595626 1.2351975 0.089793384 100
0.21896768 1.2452304 0.1125773 82
0.22475654 1.2369199 0.13137141 86
0.20659551 1.2629919 0.16098544 80
0.22028437 1.2470589 0.010122396 99
0.22295719 1.2431915 0.030145511 98
0.20789543 1.2649841 0.05264207 100
0.22269216 1.243575 0.070684217 65
0.22878659 1.2347571 0.089480512 97
0.22629288 1.2383652 0.11066922 92
0.22647005 1.2381089 0.13137141 94
0.20620796 1.2674257 0.16202073 70
0.21960518 1.2514472 0.010192205 99
0.23243892 1.232746 0.029412808 67
0.20390198 1.2743297 0.053513627 100
0.22426438 1.2446578 0.070684217 65
0.22697636 1.240706 0.090419121 100
0.22229347 1.2475299 0.1125773 96
0.23353744 1.2311453 0.1291219 88
0.21441799 1.2590059 0.15891489 73
0.21236849 1.2658783 0.010471444 82
0.23413712 1.2339067 0.029412808 67
0.20911673 1.2706542 0.05299069 79
0.22153741 1.252412 0.071659178 80
0.22981551 1.2402539 0.090106249 96
0.22073111 1.2535962 0.11372216 100
0.23303622 1.2355237 0.13002171 96
0.21186352 1.2666199 0.16098544 72
0.21513468 1.2653385 0.010436539 41
0.23120287 1.2415702 0.029831495 33
0.2063154 1.2783842 0.053687938 78
0.22313896 1.2534986 0.071659178 80
0.23801467 1.2314941 0.088229038 98
0.22123703 1.2563119 0.11410378 96
0.24003875 1.2285 0.1277722 89
0.21459419 1.2661381 0.1604678 72
0.21472469 1.2698841 0.010506349 40
0.21958324 1.2626401 0.031087559 31
0.21151045 1.2746763 0.053165004 52
0.2293362 1.2480989 0.070684217 98
0.24190888 1.2293533 0.087603301 99
0.22958311 1.2477307 0.11181407 98
0.2341229 1.240962 0.13092151 96
0.22394744 1.2561333 0.15684435 74
0.21860093 1.2676642 0.010436539 41
0.21236265 1.2770324 0.031924933 30
0.21649879 1.2708211 0.05264207 53
0.23092341 1.2491596 0.070684217 81
0.22920042 1.2517469 0.091670595 81
0.23878619 1.2373519 0.10914274 92
0.23244607 1.2468729 0.13227122 100
0.21485376 1.2732913 0.16202073 70
0.22025308 1.2687604 0.010436539 27
0.22506076 1.2614886 0.030878214 31
0.21596381 1.2752483 0.05299069 52
0.2336089 1.248559 0.070440479 98
0.23842567 1.2412734 0.089480512 100
0.23492402 1.2465699 0.11105084 84
0.24692595 1.2284163 0.12687239 82
0.22185165 1.2663425 0.15943253 73
0.22419009 1.2665646 0.010366729 27
0.22896969 1.25928 0.03066887 32
0.21554348 1.2797428 0.053339314 52
0.22656935 1.2629384 0.072390392 100
0.24765825 1.2307969 0.087290429 85
0.23335844 1.2525911 0.11219569 84
0.24959701 1.2278421 0.12642249 99
0.22146663 1.2707154 0.1604678 72
0.22156075 1.2744019 0.010506349 27
0.22414058 1.2704399 0.031296901 31
0.22493508 1.2692198 0.052119136 54
0.23154157 1.2590737 0.071659178 64
0.24387911 1.2401264 0.088854775 98
0.23718747 1.250403 0.11143246 91
0.25119701 1.2288879 0.12642249 82
0.22743303 1.2653835 0.15839726 73
0.23417649 1.2587497 0.0101573 42
0.23672923 1.2547992 0.030250182 32
0.23316771 1.2603109 0.051073264 55
0.2386376 1.2518461 0.070440479 49
0.25088257 1.2328964 0.087290429 85
0.24739051 1.2383006 0.10837951 87
0.25068533 1.2332016 0.1273223 89
0.23126116 1.2632613 0.15736198 74
0.24667883 1.2430159 0.0098082526 44
0.23950154 1.2542086 0.030145511 65
0.23703212 1.2580595 0.05072464 56
0.24460766 1.2462457 0.069465525 66
0.25250018 1.2339377 0.087290429 85
0.24902704 1.2393539 0.10837951 87
0.24914825 1.2391649 0.128672 81
0.22672805 1.2741282 0.1604678 72
0.23974338 1.2575685 0.010087491 86
0.25084382 1.2401242 0.029203463 100
0.22697175 1.2776392 0.05264207 53
0.25266621 1.2372603 0.068003096 68
0.25412145 1.2349734 0.087290429 71
0.24328929 1.251996 0.11105084 84
0.25706497 1.2303476 0.12597258 90
0.22952688 1.2736237 0.15995017 72
0.2393119 1.2620301 0.0101573 71
0.24715492 1.2496094 0.029726824 100
0.23831949 1.2636018 0.051073264 83
0.25217935 1.2416523 0.068490572 50
0.25785565 1.2326628 0.086664692 71
0.24078086 1.2597039 0.1125773 100
0.26283547 1.2247764 0.12417299 92
0.22922394 1.2780063 0.16098544 64
0.2452783 1.2563336 0.010017681 72
0.25519362 1.2405087 0.029098792 100
0.23792866 1.2680635 0.051421888 82
0.24539557 1.2561463 0.070440479 49
0.26576546 1.2236362 0.084787481 73
0.25083131 1.2474709 0.10952436 78
0.25407776 1.2422897 0.128672 89
0.23920497 1.2660265 0.15684435 66
0.25120106 1.2506013 0.0098780617 73
0.25261965 1.2483196 0.029517479 100
0.24598092 1.2589976 0.05037602 84
0.25128686 1.2504632 0.069465525 49
0.26109275 1.2346911 0.086664692 71
0.24835348 1.2551814 0.11105084 100
0.25984383 1.2366998 0.12687239 90
0.24501833 1.2605458 0.15477379 67
0.25288051 1.2516414 0.0098780617 88
0.25219387 1.2527544 0.029726824 100
0.2455976 1.2634473 0.05072464 84
0.25713471 1.2447451 0.068490572 67
0.25649384 1.245784 0.08854191 70
0.26035652 1.2395225 0.10723466 81
0.26352099 1.2343928 0.12597258 82
0.24368972 1.2665399 0.1563267 74
0.25134659 1.2577401 0.0099827768 87
0.25692531 1.2486293 0.029412808 100
0.2472356 1.2644539 0.05072464 84
0.26078388 1.2423278 0.068003096 51
0.26013628 1.2433854 0.087916173 70
0.25166297 1.2572235 0.11105084 98
0.2670978 1.2320163 0.12507279 92
0.2463468 1.2659055 0.15580906 67
0.25408921 1.2570707 0.0099478718 87
0.26585695 1.2377009 0.028680105 100
0.23758402 1.2842383 0.05264207 79
0.25315806 1.2586033 0.07019674 49
0.26179048 1.2443943 0.087916173 70
0.25744295 1.2515504 0.10952436 78
0.27275956 1.2263391 0.12327318 93
0.24607357 1.2702644 0.15684435 66
0.25475889 1.2598133 0.0099827768 87
0.26130494 1.2489532 0.029308135 100
0.24966633 1.2682619 0.050898954 83
0.25896451 1.252836 0.069221787 33
0.2746655 1.2267876 0.084474608 59
0.25405818 1.2609758 0.11143246 84
0.27435419 1.2273041 0.12327318 85
0.25081351 1.2663587 0.15529142 75
0.25852314 1.2574084 0.0099129668 87
0.25887826 1.2568146 0.029726824 100
0.2534526 1.2658874 0.05055033 100
0.25963286 1.2555528 0.069465525 49
0.274234 1.2311367 0.085100345 58
0.26181954 1.2518961 0.10914274 85
0.27495196 1.229936 0.12372308 83
0.25948852 1.255794 0.15166797 69
0.26634824 1.2481041 0.0097035384 90
0.2626175 1.2543924 0.029517479 100
0.26128498 1.2566384 0.049504463 86
0.25423935 1.268514 0.071171694 32
0.27282158 1.2371931 0.086038955 58
0.26450518 1.2512107 0.10876112 79
0.27755344 1.2292173 0.12327318 76
0.25724316 1.263451 0.15373851 68
0.26599023 1.252538 0.0097733475 89
0.2703886 1.2450651 0.028889447 100
0.26096418 1.2610774 0.049853086 85
0.26504353 1.2541465 0.068978049 50
0.27345207 1.2398602 0.086351827 58
0.26618665 1.2522043 0.10876112 79
0.28212351 1.2251272 0.12192347 85
0.2570076 1.2677996 0.15477379 67
0.26666805 1.2552533 0.0098082526 89
0.27204859 1.2460382 0.028889447 100
0.25665244 1.2724067 0.050898954 83
0.27073899 1.2482811 0.068003096 68
0.27509388 1.2408227 0.086351827 58
0.26292196 1.2616692 0.11066922 78
0.28666165 1.2210109 0.12057377 77
0.26162654 1.2638876 -0.0099827768 86
0.25290248 1.2788291 0.15787962 65
0.26836362 1.2562394 0.0098082526 89
0.27371198 1.2470056 0.028889447 100
0.26140377 1.2682555 0.05037602 84
0.27241021 1.249253 0.068003096 51
0.28069934 1.234942 0.085100345 58
0.26365596 1.2643671 0.11105084 77
0.28823757 1.2219274 0.12057377 77
0.26936588 1.254509 -0.0097733475 88
0.25855348 1.2731764 0.15580906 67
0.27404749 1.250284 0.0096686333 75
0.2753787 1.247967 0.028889447 100
0.26612249 1.2640772 0.049853086 85
0.26122853 1.2725949 0.071171694 81
0.28133982 1.237592 0.085413218 73
0.27320787 1.2517453 0.10799789 87
0.28593335 1.2295971 0.12237337 76
0.26906639 1.2589533 -0.0098431576 87
0.26223651 1.2708405 0.15477379 67
0.27572569 1.2512443 0.0096686333 90
0.27507091 1.2523932 0.029098792 100
0.26587579 1.268527 0.050201707 85
0.27477983 1.2529039 0.068246834 34
0.28199553 1.2402432 0.08572609 58
0.28655657 1.2322403 0.10341848 76
0.28271461 1.2389815 0.12462288 100
0.26781279 1.2651284 0.15270324 68
0.2793754 1.2487172 0.0095988233 76
0.28265378 1.242918 0.02847076 100
0.26565671 1.2729846 0.05055033 84
0.27939788 1.2486775 0.067515619 51
0.28655499 1.236017 0.084787481 59
0.27561167 1.255375 0.10837951 87
0.29010737 1.229733 0.12192347 85
0.26574004 1.2728373 0.15477379 67
0.27518004 1.2601242 0.0098082526 74
0.28821346 1.2368799 0.028052073 100
0.27228636 1.2652849 0.049678773 86
0.27912867 1.253082 0.068003096 51
0.29011554 1.2334877 0.084161744 59
0.27922797 1.252905 0.10761628 79
0.29266679 1.2289376 0.12147357 77
0.26182804 1.2839367 0.15787962 65
0.27008918 1.2733139 0.010052586 86
0.28596187 1.2447729 0.02847076 100
0.27595365 1.2627687 0.049330149 87
0.27888697 1.2574943 0.068490572 50
0.2898148 1.2378447 0.084787481 59
0.27805266 1.2589946 0.10876112 79
0.29521751 1.2281301 0.12102367 86
0.27592066 1.2628281 -0.0098431576 87
0.2739521 1.2663679 0.1521856 77
0.28440326 1.2515249 0.0095988233 76
0.27797443 1.2631803 0.029517479 100
0.28537363 1.2497656 0.047935657 89
0.27675527 1.2653906 0.069465525 49
0.29621977 1.2301016 0.083223134 60
0.28260586 1.2547835 0.10761628 79
0.29493585 1.2324294 0.12192347 85
0.27764261 1.2637819 -0.0098431576 87
0.27848554 1.2622536 0.15063268 70
0.28704539 1.2506948 0.0095639192 91
0.29119983 1.2431002 0.028261416 100
0.28800613 1.2489384 0.047761347 90
0.28801298 1.2489259 0.067028143 51
0.28929523 1.2465819 0.086038955 58
0.2908951 1.2436572 0.10494494 75
0.29281065 1.2401555 0.12372308 83
0.27371556 1.2750623 0.15425615 75
0.287687 1.2533215 0.0095988233 61
0.28705391 1.2544881 0.028889447 100
0.2829431 1.2620624 0.048981529 87
0.28770879 1.2532815 0.067515619 51
0.29181933 1.2457076 0.08572609 58
0.28778481 1.2531414 0.10685304 81
0.29994851 1.2307293 0.12102367 86
0.27815646 1.270882 0.15270324 68
0.28653255 1.2595168 0.0097035384 90
0.29821238 1.237816 0.027842728 100
0.28466237 1.2629917 0.048981529 87
0.29504219 1.2437061 0.066053182 52
0.29816243 1.2379087 0.084161744 59
0.28854242 1.2557825 0.10723466 81
0.28274164 1.2665602 -0.0098431576 87
0.27990651 1.2718279 0.15270324 76
0.28438976 1.2674438 0.0098431576 88
0.29223925 1.252743 0.028680105 100
0.28629863 1.2638688 0.048981529 87
0.28913444 1.2585578 0.068003096 51
0.2920042 1.2531831 0.10647142 73
0.28438976 1.2674438 -0.0098431576 87
0.2852118 1.2659042 0.15063268 70
0.29369804 1.2542745 0.0095639192 91
0.29961592 1.2430929 0.028052073 100
0.2918385 1.2577881 0.048284281 88
0.28535539 1.2700377 0.069465525 49
0.2995871 1.2431474 0.084787481 59
0.29745033 1.2471846 0.10494494 75
0.28434396 1.2719488 -0.0099129668 97
0.29064587 1.2600415 0.14856213 79
0.29716206 1.2515854 0.047587037 90
0.29993358 1.2463064 0.066053182 70
0.29840276 1.2492222 0.08572609 58
0.28600994 1.2728269 -0.0099129668 87
0.28419027 1.2762929 0.15322088 76
0.29901546 1.252548 0.0094941091 92
0.29349688 1.2631581 0.048632905 88
0.29626831 1.2578297 0.067515619 51
0.28702769 1.2755959 0.15270324 68
0.29694963 1.2604861 0.0096337283 90
0.28599867 1.2817123 0.05037602 56
0.29606709 1.2621968 0.068003096 51
0.28870574 1.2764652 0.15270324 76
0.29866329 1.2613665 0.0096337283 90
0.29867423 1.261345 0.048284281 59
0.29778674 1.2630801 0.068003096 51
0.2904675 1.2773893 -0.0099478718 100
0.29827744 1.2661723 0.14907977 78
0.28961426 1.2924814 0.051073264 55
0.29417744 1.2880728 0.05055033 28
0.29678088 1.2828006 -0.0099827768 100
