# .PCD v0.7 - Point Cloud Data file format
VERSION 0.7
FIELDS x y z intensity
SIZE 4 4 4 4
TYPE F F F F
COUNT 1 1 1 1
WIDTH 811
HEIGHT 1
VIEWPOINT 0 0 0 1 0 0 0
POINTS 811
DATA ascii
0.23144624 0.97680175 0.017522216 6
0.24029414 0.9993602 0.017941074 4
0.24205688 0.99070257 0.017801454 6
0.24118102 0.97238362 0.017487312 4
0.2466974 0.97924954 0.01762693 6
0.25076178 0.98234481 0.01769674 8
0.25987923 1.0027122 0.018080693 11
0.25829324 0.98245925 0.017731644 10
0.2641241 0.99125868 0.017906168 12
0.27175546 1.0057745 0.018185407 20
0.27772924 1.0145113 0.018359931 23
0.28287303 1.0193164 0.018464645 22
0.28192273 1.002972 0.018185407 14
0.28412625 0.99611312 0.018080693 9
0.28964743 1.0028502 0.018220313 9
0.29876211 1.0210252 0.01856936 11
0.29817069 1.0066074 0.018325027 8
-1.170174 0.1548875 0.061861102 22
-1.1883149 0.16573797 0.020942887 22
-1.1243836 0.16082443 0.019825934 4
-1.0525876 0.15430649 0.01856936 6
-1.0164472 0.15263458 0.017941074 5
-1.0376215 0.15970522 0.018325027 1
-0.55790037 1.171767 0.022653224 1
-0.55380678 1.1737074 0.022653224 1
-0.46532905 1.1037371 0.020907983 1
-0.43836126 1.0499947 0.019860838 1
-0.43469343 1.0515186 0.019860838 1
-0.44484499 1.0862639 0.020489125 1
-0.43954778 1.0841037 0.020419316 1
-0.44023022 1.0967661 0.020628745 1
0.05810985 0.0035080314 0.047730394 83
0.053268135 0.0018755198 0.047939736 56
0.048409104 0.00026744604 0.048149079 43
0.045739472 0.0078564286 0.015951499 8
0.049660027 0.013781965 0.047521047 100
0.044939876 0.01212132 0.047730394 85
0.042297482 0.013888896 0.047730394 66
0.035317421 0.0089589357 0.048149079 26
0.02816546 0.0041580796 0.048567768 16
0.042193294 0.030860245 0.046997689 10
0.030522585 0.019499481 0.047835063 9
0.016615152 0.0048416853 0.048881784 7
0.018539011 0.013246059 0.048463095 8
-1.1401372 0.48656148 0.029913425 2
-1.1273031 0.49472982 0.029669091 8
-1.1104841 0.50343895 0.029354949 10
-1.081727 0.51360297 0.028831376 8
-1.0608704 0.52263892 0.028447423 7
-1.051878 0.53002602 0.028272899 8
-1.0368767 0.53793395 0.02799366 10
-1.0059252 0.54745066 0.027435184 10
-0.97896522 0.55675042 0.026946515 15
-0.97775501 0.56262481 0.026911611 30
-0.96260995 0.57005531 0.026632372 30
-0.96924871 0.57457113 0.026737086 26
-0.95603198 0.58161294 0.026492752 30
-0.95072514 0.58759493 0.026388038 28
-0.9573105 0.5921315 0.026492752 22
-0.96586913 0.59648442 0.026632372 15
-0.99031562 0.59913117 0.027051231 4
-0.39730442 0.83956569 0.016579786 3
-0.41300625 0.84409928 0.016859025 2
-0.4406473 0.84970558 0.017347692 4
-0.39652401 0.84948182 0.016579786 9
-0.38232464 0.85123992 0.016335452 37
-0.38800997 0.85503542 0.016440166 14
-0.38770741 0.85830921 0.016440166 28
-0.39137387 0.86197072 0.016509976 27
-0.3711518 0.86324233 0.016160928 32
-0.36485428 0.86583221 0.016056214 34
-0.37244904 0.87004709 0.016195834 28
-0.38004327 0.87415671 0.016335452 26
-0.38364702 0.8778615 0.016405262 25
-0.36142242 0.87851918 0.016021309 34
-0.35510296 0.88081193 0.015916595 35
-0.3646307 0.88522035 0.016091119 33
-0.35432774 0.88697016 0.015916595 30
-0.36184299 0.89117992 0.016056214 25
-0.34556371 0.89219928 0.015776975 27
-0.34117097 0.89477009 0.015707165 33
-0.35260642 0.89958519 0.015916595 35
-0.35412699 0.90302616 0.015951499 35
-0.35958922 0.90707529 0.016056214 29
-0.33736569 0.90689576 0.015672261 24
-0.34083295 0.91061592 0.015742071 23
-0.33441424 0.91276866 0.015637357 34
-0.33980393 0.91698694 0.015742071 42
-0.35111624 0.92208886 0.015951499 43
-0.33484143 0.92236155 0.015672261 43
-0.32642621 0.92406446 0.015532642 46
-0.32984716 0.92767543 0.015602452 45
-0.3292914 0.93074572 0.015602452 45
-0.33658826 0.93527991 0.015742071 52
-0.32225412 0.93576032 0.015497737 56
-0.32360393 0.93933672 0.015532642 71
-0.31712204 0.94122303 0.015427927 63
-0.32047051 0.94488531 0.015497737 46
-0.31985474 0.94792277 0.015497737 41
-0.30943978 0.94892019 0.015323213 44
-0.31272256 0.95274794 0.015393022 53
-0.31797653 0.95687044 0.015497737 61
-0.31536549 0.9594714 0.015462833 57
-0.31860268 0.96335995 0.015532642 51
-0.30426973 0.96330148 0.015288308 44
-1.023993 1.1261582 0.084574908 3
-1.0415313 1.1301267 0.14276111 4
-0.29774326 0.96493787 0.015183593 45
-1.0207939 1.1312027 0.084470235 7
-1.0266726 1.1325545 0.14154093 9
-0.29900491 0.96835077 0.015218498 45
-1.0039644 1.1330487 0.083632857 46
-1.0253973 1.138056 0.14154093 45
-0.30609 0.97316009 0.015358117 37
-0.98325473 1.1338592 0.082586139 100
-1.0318573 1.145393 0.14223817 91
-0.30148757 0.97521013 0.015288308 38
-0.99362522 1.1420166 0.083214171 100
-1.0034201 1.1443772 0.13979781 84
-0.28911173 0.97532928 0.015078879 41
-0.9826172 1.1450291 0.082690813 100
-1.0021038 1.1497974 0.13979781 84
-0.28450841 0.97729295 0.01500907 42
-0.98129874 1.1503766 0.082690813 84
-0.99303418 1.1532917 0.13910057 91
-0.28377974 0.9802047 0.01500907 36
-0.97608835 1.154743 0.082481466 42
-0.99941462 1.1606238 0.13979781 73
-0.28304094 0.98311383 0.01500907 36
-0.97086614 1.1590776 0.08227212 30
-0.99032074 1.1640546 0.13910057 80
-0.29777646 0.99003935 0.015288308 33
-0.97723156 1.1663911 0.082690813 73
-0.9831503 1.1679274 0.13857763 89
-0.2873342 0.99045169 0.015113784 34
-0.97004431 1.1701943 0.082376793 98
-0.97211832 1.1707404 0.13770607 92
-0.27697659 0.99050516 0.01493926 36
-0.96298999 1.1734239 0.082062781 90
-0.96700162 1.1744936 0.13735744 100
-0.2877841 0.99652213 0.015148689 40
-0.94807643 1.1750536 0.081330076 98
-0.97135037 1.1813465 0.13788038 100
-0.28313118 0.99838781 0.015078879 41
-0.93702239 1.1776402 0.080806717 100
-0.97374827 1.187708 0.13822901 98
-0.29003567 1.0034362 0.015218498 39
-0.94521207 1.1855023 0.081330076 96
-0.96076304 1.1898236 0.13718314 89
-0.26226842 0.99877727 0.014729831 39
-0.93414026 1.1880116 0.080806717 86
-0.94969946 1.1923939 0.13631158 100
-0.26531065 1.0027089 0.014799641 44
-0.94419545 1.1964787 0.081434749 66
-0.95013183 1.198173 0.13648589 100
-0.26641434 1.006109 0.014834546 56
-0.92543 1.196698 0.080492698 32
-0.94862801 1.2034069 0.13648589 94
-0.27518034 1.0117687 0.01500907 42
-0.90859812 1.1973531 0.079655327 27
-0.96240216 1.2131171 0.13788038 84
-0.27816546 1.0157856 0.015078879 47
-0.92050046 1.2064197 0.080388032 26
-0.93792564 1.2115912 0.13578865 89
-0.28304762 1.0204017 0.015183593 50
-0.92088085 1.2121249 0.080492698 36
-0.92874283 1.2144883 0.13509139 94
-0.27264702 1.0202529 0.01500907 48
-0.91749579 1.2164189 0.080388032 94
-0.92726082 1.2193894 0.13509139 100
-0.28705722 1.0278323 0.015288308 44
-0.91020232 1.2197748 0.080074012 92
-0.92758721 1.2251298 0.13526571 92
-0.29951525 1.0349199 0.015532642 15
-0.89908987 1.2218962 0.079550654 89
-0.92979366 1.2314711 0.13561434 61
-0.30239922 1.0390875 0.015602452 15
-0.9051221 1.2293568 0.079969339 66
-0.91487402 1.2324352 0.13439415 47
-0.8633768 1.2216097 0.025899371 9
-0.9035098 1.2344332 0.079969339 80
-0.89996582 1.2333009 0.13317397 46
-0.87320787 1.2302322 0.0261088 15
-0.89997941 1.2388896 0.079864666 97
-0.90402704 1.2401985 0.13369691 47
-0.8791948 1.2376851 0.02624842 33
-0.89453739 1.2427058 0.079655327 100
-0.91752547 1.2502283 0.13509139 63
-0.88324851 1.2445567 0.026353134 33
-0.88529438 1.2452341 0.079236634 100
-0.92151445 1.2572267 0.13561434 80
-0.90623313 1.257814 0.026806897 48
-0.88552064 1.2508757 0.079341307 100
-0.9009127 1.2560318 0.13387123 82
-0.87800676 1.2539092 0.02631823 68
-0.88194174 1.2552427 0.079236634 100
-0.88411134 1.2559779 0.13247673 86
-0.8706339 1.2569457 0.026213514 90
-0.88401788 1.2615334 0.07944598 100
-0.88617569 1.262273 0.13282534 100
-0.87081486 1.2625568 0.02624842 85
-0.86719674 1.2613025 0.07860861 100
-0.89762598 1.2718514 0.13404553 87
-0.87286097 1.2688365 0.02631823 81
-0.85604924 1.2629424 0.078085244 85
-0.90526634 1.2801974 0.1349171 52
-0.87488061 1.2751365 0.026388038 79
-0.85243744 1.2671802 0.077980578 46
-0.89596504 1.2826111 0.13421984 36
-0.86190242 1.2758123 0.02617861 93
-0.8639428 1.2765431 0.078713275 14
-0.8792519 1.2820277 0.13282534 37
-0.85260755 1.2780137 0.026038991 99
-0.86779958 1.2835162 0.079027295 53
-0.87558264 1.2863351 0.13265105 20
-0.84707016 1.2815316 0.025969181 100
-0.85287005 1.2836552 0.07829459 93
-0.86815876 1.289253 0.1321281 15
-0.84902686 1.2877934 0.026038991 100
-0.84544927 1.2864692 0.077980578 100
-0.87754875 1.2983496 0.13317397 3
-0.85095674 1.294075 0.0261088 100
-0.8342846 1.2878382 0.077457212 70
-0.87196356 1.3019333 0.13282534 1
-0.83789593 1.294719 0.025899371 100
-0.83060044 1.2919607 0.077352546 48
-0.84773439 1.2984385 0.13073361 3
-0.83045191 1.2974193 0.025794657 75
-0.84556156 1.3031921 0.07829459 53
-0.84402007 1.3026032 0.1305593 16
-0.8360644 1.3051157 0.025934275 74
-0.82878608 1.3023057 0.077457212 63
-0.85144585 1.311054 0.13143086 58
-0.83232504 1.3092239 0.025899371 78
-0.81761605 1.3034861 0.076933853 67
-0.86068565 1.320287 0.13247673 100
-0.83043438 1.3140459 0.025899371 93
-0.82875258 1.3133831 0.077666558 68
-0.83651274 1.3164414 0.130385 99
-0.82490677 1.3171418 0.025829561 100
-0.82323164 1.3164752 0.077457212 91
-0.82358581 1.3166162 0.12933913 99
-0.81185621 1.3174627 0.025620133 100
-0.83614081 1.327225 0.07829459 95
-0.8216694 1.3214076 0.12933913 99
-0.8098405 1.3224504 0.025620133 100
-0.81188446 1.3232808 0.077038527 96
-0.83256036 1.3316807 0.1305593 100
-0.76864511 1.3057144 0.17476064 13
-0.81530374 1.3302302 0.025759751 100
-0.80994493 1.3280313 0.077038527 100
-0.8250615 1.3342342 0.13003637 100
-0.78329545 1.3170962 0.17695428 18
-0.80974358 1.3332242 0.025689943 100
-0.79701549 1.3279521 0.076410495 100
-0.8121385 1.3342162 0.1289905 100
-0.79064387 1.3253129 0.17817298 19
-0.80039006 1.3348804 0.025550323 100
-0.79321712 1.3318799 0.076305822 99
-0.81199878 1.3397365 0.12916481 100
-0.76672143 1.3207965 0.17524812 16
-0.78735751 1.3349218 0.025340894 100
-0.79860705 1.3396739 0.076724514 96
-0.81367248 1.3460379 0.12951343 100
-0.75930482 1.323072 0.1745169 16
-0.79825288 1.3450786 0.025585229 74
-0.78375047 1.3388927 0.075991809 54
-0.81165344 1.3507943 0.12951343 91
-0.75919217 1.3284178 0.17476064 16
-0.81460339 1.357691 0.025934275 61
-0.81477529 1.3577651 0.077875905 55
-0.82059723 1.3602724 0.1305593 22
-0.77364379 1.3400511 0.17695428 3
-0.81437749 1.3632482 0.025969181 93
-0.80538887 1.3593398 0.077457212 100
-0.81304699 1.3626697 0.13003637 60
-0.79167086 1.3533751 0.17963541 15
-0.79398793 1.3599694 0.025620133 100
-0.80880982 1.3664758 0.077771232 100
-0.81279427 1.3682249 0.13021068 100
-0.78599089 1.356459 0.17914793 33
-0.79192036 1.3646572 0.025620133 100
-0.81402344 1.374452 0.078189917 100
-0.81434089 1.3745927 0.1305593 100
-0.76941663 1.3546849 0.17719802 26
-0.79734832 1.3721337 0.025759751 100
-0.80664748 1.3762895 0.077875905 100
-0.8087967 1.37725 0.13021068 100
-0.78569669 1.3669266 0.17963541 38
-0.80070668 1.3792999 0.025864467 100
-0.79541987 1.376915 0.077352546 100
-0.81393343 1.3852664 0.13090792 100
-0.78179544 1.370769 0.17939167 28
-0.80028421 1.3850753 0.025899371 100
-0.80590934 1.3876377 0.078085244 100
-0.8044166 1.3869576 0.13021068 100
-0.7705521 1.371532 0.17817298 15
-0.7926783 1.387279 0.025794657 100
-0.80918914 1.3948698 0.078399263 100
-0.80225474 1.3916818 0.13021068 100
-0.77565879 1.3794546 0.17914793 14
-0.79051548 1.3919622 0.025794657 100
-0.81243497 1.4021323 0.078713275 100
-0.80188376 1.3972368 0.130385 100
-0.76632041 1.3807364 0.17817298 12
-0.79739124 1.4008775 0.025969181 100
-0.80117613 1.4026496 0.078189917 100
-0.80870801 1.4061762 0.13125655 100
-0.76418048 1.3853275 0.17817298 5
-0.7969889 1.4064312 0.026004085 100
-0.80076534 1.4082154 0.07829459 100
-0.8100819 1.4126174 0.13160518 100
-0.76740915 1.3924551 0.17890419 3
-0.79836923 1.4128503 0.026073895 100
-0.80213505 1.4146457 0.078503937 100
-0.80783051 1.417361 0.13160518 100
-0.79251295 1.4158193 0.026004085 100
-0.80887574 1.4236906 0.079027295 100
-0.79119891 1.4151871 0.13021068 100
-0.78125554 1.4161358 0.025829561 100
-0.81197602 1.4310462 0.079341307 100
-0.80327803 1.4268246 0.13160518 100
-0.79335946 1.4278142 0.0261088 100
-0.80248529 1.4322829 0.078922622 100
-0.8081345 1.4350493 0.13230242 100
-0.79822654 1.4360423 0.02624842 100
-0.79479319 1.4343462 0.07860861 100
-0.81652266 1.4450808 0.13334829 100
-0.80663186 1.4460961 0.026457848 100
-0.79246598 1.4390364 0.07860861 100
-0.80702502 1.4462919 0.13265105 100
-0.78639728 1.4418457 0.0261088 100
-0.80618256 1.4517922 0.079550654 100
-0.80109578 1.449235 0.13230242 100
-0.78047699 1.4446976 0.026038991 100
-0.80735701 1.4583287 0.07976 100
-0.7987166 1.4539471 0.13230242 100
-0.79235631 1.4566228 0.02631823 100
-0.79783338 1.4594244 0.079341307 100
-0.80519003 1.4631873 0.13317397 100
-0.79374748 1.462669 0.026388038 100
-0.79211038 1.4618251 0.079131968 100
-0.81894416 1.4756572 0.13474278 100
-0.80196685 1.4728899 0.026597468 100
-0.79323143 1.4683483 0.079341307 100
-0.80763382 1.4758363 0.13387123 100
-0.79242104 1.4738904 0.026457848 96
-0.79255432 1.4739603 0.07944598 100
-0.80339724 1.4796457 0.13369691 100
-0.78642029 1.4767025 0.026388038 81
-0.79891688 1.4833107 0.079969339 94
-0.80091184 1.4843657 0.13369691 98
-0.80531603 1.4930634 0.13439415 26
0.12758955 1.2944348 0.13089497 11
0.15034163 1.2697483 0.01116954 25
0.15457076 1.2644601 0.033180997 28
0.15429053 1.2648104 0.055431053 24
0.14039701 1.2821834 0.10387249 11
0.14413682 1.2775071 0.12631555 35
0.19460455 1.2144003 0.13137141 15
0.15304181 1.266372 0.17030293 7
0.15946352 1.2616758 0.010960111 90
0.16863495 1.2501292 0.032134276 60
0.16212958 1.2583194 0.054559495 76
0.15614215 1.2658573 0.077752642 28
0.16544154 1.2541497 0.097927973 24
0.16535929 1.2542531 0.12020966 95
0.18759578 1.226258 0.13452072 31
0.14627916 1.2782745 0.1739264 28
0.16737354 1.2551851 0.010785587 100
0.17773384 1.2420479 0.031506244 100
0.15273273 1.2737503 0.056128297 100
0.1615631 1.262553 0.077021427 29
0.17324996 1.2477336 0.096363634 37
0.16097346 1.2633007 0.12211776 100
0.18557048 1.2321107 0.13587044 38
0.15762594 1.2675455 0.16978529 36
0.16528538 1.2611742 0.010890301 100
0.16944879 1.2558587 0.032343622 100
0.15686253 1.2719278 0.055779677 100
0.17421511 1.2497734 0.074827775 30
0.18214464 1.2396495 0.094486415 39
0.16987497 1.2553146 0.11982805 100
0.18950817 1.2302483 0.13497064 30
0.15332189 1.2764482 0.17237349 42
0.16086447 1.270407 0.011064826 100
0.18463373 1.239841 0.03119223 94
0.15494776 1.2780155 0.056302611 96
0.16979915 1.2589173 0.076046467 29
0.17893574 1.2471683 0.095737889 25
0.18121284 1.24424 0.1167751 100
0.1887244 1.2345806 0.13587044 30
0.14560485 1.29003 0.1765146 41
0.16741529 1.2653641 0.010925206 78
0.17154387 1.2600183 0.032448292 59
0.16881308 1.2635542 0.054559495 50
0.17991629 1.2491779 0.074340299 46
0.18293503 1.2452693 0.095112152 25
0.18192878 1.2465723 0.13901976 22
0.14496988 1.294426 0.17754987 40
0.17644745 1.2571752 0.010715778 53
0.15988836 1.2787709 0.033599682 28
0.17538756 1.2585574 0.053862248 51
0.18400696 1.2473164 0.073852822 93
0.19661611 1.2308718 0.091983467 40
0.18564403 1.2451813 0.11639348 13
0.20375282 1.2215644 0.13137141 31
0.16325995 1.2743739 0.17030293 58
0.18057278 1.2552938 0.010645968 53
0.17376429 1.2642378 0.032552965 29
0.16985437 1.269374 0.054908119 50
0.18447295 1.2501705 0.07409656 61
0.19463751 1.2368178 0.092922069 53
0.19919658 1.2308289 0.1125773 13
0.19824895 1.2320738 0.13407083 46
0.17087361 1.2680351 0.16771474 67
0.18226901 1.2565805 0.010645968 40
0.13936558 1.3133502 0.035693124 25
0.16799602 1.2754664 0.055431053 49
0.18136382 1.2577782 0.075071514 90
0.19031408 1.2459352 0.094486415 52
0.1948888 1.239882 0.1144854 13
0.21043861 1.2193066 0.13002171 40
0.17494392 1.266273 0.16667947 67
0.18405488 1.257925 0.010645968 40
0.17012042 1.2765043 0.033180997 28
0.17343751 1.2720814 0.054908119 50
0.19268253 1.2464215 0.073121607 78
0.18969044 1.2504109 0.095112152 51
0.19425747 1.2443216 0.11524864 13
0.21442616 1.2174301 0.1291219 40
0.17908362 1.2645533 0.16564418 68
0.18576029 1.2591994 0.010645968 53
0.18381852 1.2618073 0.032134276 30
0.18233159 1.2638044 0.053862248 51
0.19197673 1.2508503 0.073609084 77
0.20670575 1.2310681 0.091044858 54
0.19122547 1.2518593 0.1167751 13
0.21599004 1.2185987 0.1291219 32
0.18196589 1.2642956 0.16512655 68
0.18619564 1.2620125 0.010680873 80
0.20088834 1.242142 0.030773543 64
0.18752483 1.2602148 0.053339314 78
0.1912128 1.2552272 0.07409656 76
0.20353884 1.2385573 0.092296332 80
0.20333049 1.2388391 0.11334054 13
0.21052784 1.2291054 0.13182132 31
0.19049847 1.2561933 0.16202073 70
0.19028187 1.2600553 0.010611063 81
0.20726591 1.2369175 0.030354854 65
0.17862755 1.2759323 0.054908119 75
0.19760734 1.2500756 0.073121607 78
0.20166981 1.2445412 0.093234941 92
0.2142629 1.2273852 0.1102876 14
0.22251067 1.2161491 0.1277722 16
0.18991151 1.2605599 0.163056 70
0.18728408 1.2677726 0.010750682 92
0.21007407 1.2364968 0.030250182 65
0.1768758 1.2820563 0.055431053 99
0.20863765 1.2384681 0.071171694 81
0.19751176 1.2537366 0.094799288 100
0.21354914 1.2317277 0.11105084 14
0.2321035 1.2062647 0.12462288 16
0.18707529 1.268059 0.16512655 68
0.19605583 1.2593142 0.010541254 81
0.21053392 1.2392988 0.030354854 65
0.18917495 1.2688267 0.053862248 100
0.20329434 1.2493073 0.072634131 94
0.20730671 1.2437603 0.092609204 100
0.21516293 1.2328994 0.11105084 14
0.22449118 1.2200034 0.12822211 16
0.19108054 1.2661923 0.16409127 77
0.19776601 1.2605467 0.010541254 81
0.214504 1.2372361 0.030145511 98
0.19091839 1.2700832 0.053862248 100
0.20033824 1.2569644 0.073609084 62
0.21587545 1.2353262 0.090731993 95
0.20647505 1.2484179 0.1144854 13
0.23970339 1.2021416 0.12282328 17
0.19957536 1.2580268 0.16098544 72
0.20412314 1.2552598 0.010401634 97
0.21381849 1.2416573 0.030354854 97
0.19729188 1.2648438 0.053165004 100
0.19973585 1.261415 0.07409656 76
0.22438106 1.2268381 0.088854775 98
0.20700762 1.2512128 0.11486702 20
0.23216504 1.2159173 0.12642249 16
0.20576617 1.2529545 0.15891489 73
0.21035522 1.2498751 0.010262015 84
0.21307674 1.24603 0.030564198 97
0.19893476 1.2660108 0.053165004 100
0.2105419 1.2496114 0.072146654 95
0.20877969 1.2521012 0.093547814 100
0.21427625 1.2443352 0.11295892 34
0.22689059 1.2265127 0.1291219 24
0.2073696 1.2540934 0.15891489 73
0.20743418 1.2576027 0.010401634 97
0.21588859 1.2455689 0.030459527 97
0.1892148 1.283536 0.054908119 100
0.21906504 1.2410475 0.070684217 65
0.21727803 1.2435911 0.091670595 100
0.20239085 1.2647814 0.11753834 92
0.23072663 1.2244487 0.12822211 48
0.20239818 1.2647709 0.16202073 70
0.2091383 1.2587955 0.010401634 83
0.2221204 1.2401792 0.03004084 99
0.2001268 1.271718 0.053513627 100
0.22071132 1.2421999 0.070684217 98
0.21215367 1.2544715 0.093547814 100
0.22096488 1.2418363 0.11181407 91
0.23454425 1.2223635 0.1273223 81
0.20412737 1.2659812 0.16202073 70
0.20174181 1.2731364 0.010680873 93
0.22262692 1.2429631 0.030145511 98
0.20414814 1.2696598 0.053165004 100
0.21558291 1.2531397 0.072146654 63
0.22733796 1.2361569 0.089793384 100
0.2170271 1.2510533 0.11372216 100
0.23168883 1.2298712 0.1291219 88
0.20696026 1.2655971 0.16150309 70
0.21935314 1.2512741 0.010192205 85
0.22088695 1.2490416 0.030459527 97
0.21040723 1.2642953 0.052467756 100
0.2183955 1.252668 0.071902916 96
0.2289671 1.2372804 0.089793384 100
0.22093174 1.2489763 0.11295892 89
0.22557151 1.2422229 0.13227122 94
0.21853772 1.252461 0.15684435 74
0.22103512 1.2524253 0.010192205 85
0.22481155 1.2468872 0.030250182 65
0.21101224 1.2671238 0.05264207 79
0.22343743 1.2489023 0.071171694 65
0.22837439 1.2416623 0.090419121 100
0.23256025 1.2355238 0.10952436 99
0.2250261 1.2465726 0.13317102 93
0.21369362 1.2631916 0.15995017 72
0.21487537 1.2651632 0.010436539 41
0.23319492 1.238095 0.029622151 33
0.2127496 1.2683041 0.05264207 79
0.2251111 1.2500393 0.071171694 81
0.23002276 1.2427821 0.090419121 96
0.22758481 1.2463844 0.11181407 84
0.23652196 1.2331792 0.1291219 96
0.21216887 1.2691622 0.16150309 86
0.22329605 1.2563701 0.01022711 42
0.22592142 1.2524617 0.030459527 32
0.21115819 1.2744401 0.053165004 52
0.23785761 1.2346921 0.068734311 84
0.23608091 1.2373371 0.089167647 100
0.23143908 1.2442474 0.11105084 84
0.23922727 1.232653 0.128672 97
0.20529571 1.2831676 0.16564418 68
0.22055885 1.264163 0.010366729 41
0.22539175 1.2569137 0.03066887 32
0.22286767 1.2606997 0.051596198 54
0.22957143 1.2506441 0.070927955 97
0.24100137 1.2334992 0.088229038 98
0.22874039 1.2518907 0.1125773 89
0.24084413 1.233735 0.128672 97
0.22101986 1.2634715 0.15891489 73
0.21566534 1.2753162 0.010576159 27
0.20946023 1.2846947 0.032343622 30
0.22458252 1.2618387 0.051596198 54
0.2323465 1.2501042 0.070684217 81
0.23826116 1.2411647 0.089480512 97
0.23584101 1.2448225 0.11066922 100
0.23923886 1.239687 0.13002171 96
0.22700831 1.2581723 0.15684435 74
0.23279747 1.2530785 0.010087491 28
0.21125895 1.2858801 0.032343622 30
0.22630134 1.2629716 0.051596198 54
0.23184517 1.2545288 0.071171694 81
0.24316046 1.2372963 0.08854191 84
0.24612102 1.2327875 0.10761628 94
0.23981065 1.2423978 0.13047162 96
0.22341257 1.2673709 0.15943253 73
0.2257517 1.2675858 0.010366729 41
0.23487005 1.2535928 0.030250182 32
0.22149757 1.274114 0.05264207 53
0.23678973 1.2506469 0.070440479 98
0.24587196 1.2367095 0.088229038 98
0.24452275 1.23878 0.10876112 94
0.24678114 1.2353142 0.12822211 97
0.21882248 1.2782192 0.16253836 70
0.22523117 1.2720162 0.010436539 41
0.24732405 1.2378658 0.029203463 34
0.22317109 1.2752006 0.05264207 53
0.24377662 1.2433493 0.069221787 67
0.24527535 1.2410326 0.088854775 98
0.23968065 1.2496808 0.11105084 84
0.25150135 1.2314086 0.12687239 99
0.22680563 1.2695825 0.15943253 73
0.23130676 1.2664157 0.010296919 70
0.25435406 1.230516 0.028680105 69
0.23139477 1.2662786 0.051596198 54
0.24435833 1.2460858 0.069465525 66
0.25012296 1.2371066 0.087916173 84
0.24135691 1.250761 0.11105084 84
0.25521937 1.2291681 0.12597258 90
0.23690078 1.2577021 0.15529142 75
0.23733926 1.260779 0.0101573 71
0.24415895 1.2500743 0.029831495 66
0.23312905 1.2673877 0.051596198 54
0.24388888 1.2504982 0.069953002 66
0.25600076 1.2314863 0.086664692 57
0.2493661 1.2419007 0.10876112 72
0.24949455 1.241699 0.1291219 96
0.23652911 1.2620507 0.1563267 74
0.24012285 1.2601771 0.010122396 85
0.24476936 1.2528272 0.029936166 99
0.23593181 1.2668067 0.051421888 82
0.24556801 1.2515638 0.069953002 66
0.25550234 1.2358491 0.087290429 57
0.2468189 1.249585 0.1102876 99
0.25947344 1.2295675 0.12552269 99
0.23515174 1.2680407 0.15787962 65
0.23971051 1.2646439 0.010192205 85
0.25282463 1.2437382 0.029308135 100
0.23766792 1.2679 0.051421888 82
0.24514106 1.2559868 0.070440479 49
0.25293142 1.2435679 0.08854191 56
0.25475442 1.2406617 0.10799789 79
0.25900829 1.2338805 0.12642249 99
0.23483896 1.2724097 0.15891489 65
0.24672261 1.2572355 0.010017681 72
0.25448009 1.2447726 0.029308135 100
0.23098496 1.2825191 0.05281638 79
0.25523132 1.2435657 0.068490572 50
0.25667402 1.2412479 0.087916173 56
0.2449871 1.2600237 0.11219569 91
0.26371866 1.2299302 0.12507279 92
0.23455289 1.276787 0.15995017 64
0.2431713 1.266798 0.010192205 85
0.25718868 1.244102 0.029203463 100
0.24429232 1.2649829 0.050898954 83
0.25062752 1.2547253 0.069953002 49
0.26247278 1.2355462 0.086664692 57
0.25701582 1.2443819 0.10837951 65
0.26430187 1.2325847 0.12552269 90
0.24038437 1.2713104 0.15787962 65
0.25117636 1.2576358 0.0099827768 100
0.25988895 1.2434182 0.029098792 100
0.25539118 1.2507579 0.049330149 87
0.25232136 1.2557673 0.069953002 49
0.26203534 1.2399156 0.087290429 71
0.25457031 1.2520975 0.10990598 92
0.26693654 1.2319176 0.12507279 100
0.25021127 1.2592108 0.15373851 68
0.25495809 1.2552587 0.0099129668 87
0.25946802 1.2478411 0.029308135 100
0.25500098 1.2551882 0.049678773 100
0.26433173 1.2398417 0.067515619 51
0.26572987 1.2375422 0.086664692 57
0.26543447 1.238028 0.10647142 73
0.26551345 1.2378982 0.12642249 90
0.25192076 1.2602543 0.15373851 68
0.25665376 1.2562857 0.0099129668 87
0.26216942 1.2471422 0.029203463 100
0.24949244 1.268157 0.050898954 83
0.25982133 1.2510347 0.068978049 50
0.2622619 1.2469889 0.088229038 56
0.25794315 1.2541481 0.10990598 85
0.27117479 1.2322139 0.12462288 92
0.24764669 1.2712169 0.15684435 66
0.26143378 1.252159 0.0098082526 89
0.2689651 1.2395751 0.028680105 100
0.25430268 1.2640742 0.05037602 84
0.26150224 1.2520447 0.068978049 50
0.27102971 1.2361253 0.086038955 58
0.2586267 1.2568493 0.1102876 85
0.27779371 1.2248236 0.12237337 85
0.24741393 1.2755845 0.15787962 65
0.25597209 1.2651994 0.010052586 86
0.27060592 1.2405533 0.028680105 100
0.25704631 1.2633902 0.050201707 85
0.26217318 1.2547556 0.069221787 67
0.2726585 1.2370963 0.086038955 72
0.25832325 1.2612396 0.11105084 84
0.279383 1.225771 0.12237337 85
0.25904351 1.2600266 0.15270324 68
0.2596463 1.2627261 0.0099827768 87
0.26912591 1.2466394 0.028994121 100
0.26475316 1.2540598 0.049155839 87
0.26277444 1.2574177 0.069465525 49
0.27822047 1.2312059 0.084787481 59
0.27390799 1.2385242 0.10570818 81
0.27298105 1.2400972 0.12597258 82
0.26655477 1.2510026 0.14959741 70
0.26742321 1.2533785 0.0097733475 89
0.26978344 1.2493411 0.029098792 100
0.26342803 1.2602127 0.049678773 100
0.27249226 1.2447073 0.067515619 51
0.26986274 1.2492055 0.087916173 56
0.27158186 1.2462647 0.10723466 81
0.27462369 1.2410613 0.12597258 90
0.26238576 1.2619957 0.15270324 68
0.26509956 1.2612815 0.0099129668 87
0.27346224 1.2468609 0.028889447 100
0.2541464 1.280169 0.051596198 82
0.27913022 1.237087 0.06629692 35
0.28045595 1.2348009 0.085100345 58
0.2683216 1.2557254 0.10914274 85
0.28409055 1.2285334 0.12237337 85
0.26022834 1.2696813 0.15477379 67
0.26881042 1.2588062 0.0098431576 88
0.27512848 1.2478232 0.028889447 100
0.25394204 1.2846527 0.051944822 81
0.27383339 1.2500745 0.068003096 51
0.28109503 1.2374513 0.085413218 73
0.27001882 1.2567056 0.10914274 85
0.2886079 1.2243912 0.12102367 77
0.2619743 1.2706897 0.15477379 67
0.26267776 1.2737296 0.010122396 85
0.27688164 1.2488275 0.028889447 100
0.26866323 1.2632358 0.049678773 86
0.27166069 1.2579808 0.068978049 50
0.28672501 1.2315702 0.084161744 59
0.2679137 1.26455 0.11066922 92
0.28448197 1.2355027 0.12372308 92
0.27258542 1.2563596 -0.0097733475 88
0.26763999 1.2650298 0.15270324 68
0.27526951 1.2555845 0.0097384425 75
0.27265373 1.2602079 0.029517479 100
0.27038667 1.2642149 0.049678773 86
0.27141073 1.2624049 0.069465525 49
0.28347418 1.2410828 0.08572609 58
0.28510976 1.2381918 0.10456333 75
0.28322968 1.2415149 0.12507279 83
0.26936969 1.2660124 0.15270324 68
0.27492344 1.2599802 0.0098082526 74
0.28210267 1.2471923 0.028680105 100
0.27300242 1.2634021 0.049504463 86
0.27304515 1.2633259 0.069465525 49
0.28697184 1.2385191 0.085100345 58
0.27897516 1.2527632 0.10761628 79
0.28670269 1.2389984 0.12417299 83
0.26912463 1.2703094 0.15373851 68
0.27760831 1.2591903 0.0097733475 89
0.28959987 1.2376546 0.028052073 100
0.27181858 1.2695882 0.050027397 85
0.28442609 1.2469462 0.067028143 51
0.28860888 1.2394344 0.085100345 58
0.28352726 1.2485604 0.10647142 81
0.29402962 1.2296991 0.12147357 86
0.27087277 1.2712867 0.15373851 68
0.28221771 1.2548867 0.0096686333 75
0.28544059 1.2490509 0.028680105 100
0.26971141 1.2775326 0.05072464 84
0.27841526 1.261772 0.068978049 50
0.29215905 1.2368855 0.084474608 59
0.28045386 1.2580807 0.10837951 79
0.29846212 1.2254722 0.12012386 77
0.27262428 1.272258 0.15373851 68
0.27622706 1.2698493 0.0099478718 73
0.28327668 1.2569783 0.029098792 100
0.28392699 1.2557909 0.048458595 88
0.28394789 1.2557528 0.068003096 51
0.2994839 1.2273874 0.082597397 60
0.28498852 1.2538528 0.10723466 81
0.27622706 1.2698493 -0.0099478718 86
0.28180331 1.2596684 0.14959741 70
0.29029834 1.2479131 0.0094941091 92
0.29252198 1.243821 0.028261416 100
0.28553939 1.2566707 0.048458595 88
0.28556016 1.2566324 0.068003096 51
0.29628614 1.236894 0.084161744 59
0.29034403 1.247829 0.10570818 81
0.27788612 1.2707546 -0.0099478718 86
0.27789423 1.2707396 0.15270324 68
0.29007086 1.2523373 0.0095639192 91
0.28659758 1.2587826 0.029098792 100
0.27873316 1.2733762 0.050027397 85
0.28820217 1.255805 0.067759357 85
0.29510614 1.2429937 0.085100345 58
0.29387626 1.2452759 0.10494494 82
0.27964377 1.2716863 0.15270324 68
0.29655141 1.2444677 0.0093893949 77
0.28650874 1.263268 0.029308135 100
0.28621244 1.2638228 0.048981529 87
0.28904918 1.2585123 0.068003096 100
0.29684144 1.2439247 0.085100345 58
0.29376993 1.2496748 0.10570818 73
0.28148437 1.2726738 0.15270324 68
0.29072094 1.2594863 0.0096686333 75
0.28513998 1.2700224 0.049504463 57
0.29261437 1.2559118 0.067515619 51
0.29176998 1.2575059 0.10723466 73
0.28416875 1.2718561 -0.0099129668 97
0.28143212 1.2770224 0.15373851 68
0.28955507 1.2656541 0.0097733475 89
0.29544654 1.254442 0.028680105 100
0.28865311 1.2673706 0.049155839 87
0.29792058 1.2497336 0.066540658 52
0.29521444 1.2548836 0.10647142 73
0.28676459 1.2709646 -0.0098780617 87
0.292101 1.2608089 0.14856213 71
0.29713914 1.2553275 0.028680105 100
0.29867625 1.2523773 0.047587037 90
0.29959673 1.2506106 0.066540658 69
0.28759092 1.2736537 -0.0099129668 97
0.2985284 1.2568003 0.0095639192 91
0.28938848 1.2744935 0.049678773 86
0.29580942 1.2620637 0.068003096 51
0.29908031 1.2557319 0.14649157 72
0.29840603 1.2612348 0.0096337283 100
0.29478404 1.2683067 0.048981529 58
0.29933843 1.2594143 0.067515619 68
0.29115775 1.2799853 -0.0099827768 100
0.29207048 1.278187 0.15270324 68
0.29293951 1.2808857 -0.0099827768 100
0.29561356 1.2797745 0.069953002 100
