# .PCD v0.7 - Point Cloud Data file format
VERSION 0.7
FIELDS x y z intensity
SIZE 4 4 4 4
TYPE F F F F
COUNT 1 1 1 1
WIDTH 732
HEIGHT 1
VIEWPOINT 0 0 0 1 0 0 0
POINTS 732
DATA ascii
-1.1079572 0.15295346 0.058616269 25
-1.1424265 0.16177773 0.020140078 4
-1.0904021 0.15829509 0.019232552 5
-1.0483062 0.15592229 0.018499551 6
-1.022083 0.15548798 0.018045789 3
-1.0847626 0.16889957 0.019162742 1
0.054015994 0.0024445057 0.015951499 129
0.055216789 0.010134637 0.047521047 44
0.04708904 0.0035169125 0.04804441 29
0.048343658 0.010929048 0.015881689 4
0.041246474 0.00019007921 0.048358422 100
0.038243413 0.006988287 0.048149079 62
0.040056288 0.015398622 0.047730394 28
0.038418293 0.018923461 0.047625721 19
0.029018998 0.010833085 0.048253752 8
0.026504397 0.012564898 0.048253752 8
0.032993972 0.027509272 0.047416378 9
0.016641259 0.0096977949 0.048672438 8
0.025517642 0.027874589 0.047625721 9
-1.0378327 1.1284159 0.14241248 3
-1.046288 1.1361852 0.028587041 6
-0.99956912 1.125468 0.083318844 5
-1.0190945 1.1299471 0.14084367 6
-1.0197463 1.1355802 0.028133279 10
-1.0022721 1.1315106 0.083528183 30
-1.0140111 1.1342446 0.14049506 42
-0.99121696 1.1346123 0.027644612 30
-1.0010009 1.1369269 0.083528183 88
-1.0185468 1.1410778 0.14101799 86
-0.98410171 1.1385884 0.027539898 38
-0.99776858 1.141872 0.083423518 100
-1.0075557 1.1442236 0.14014643 86
-0.99640483 1.1472588 0.02778423 40
-0.97123653 1.1411188 0.082062781 100
-1.015918 1.1520193 0.14101799 87
-0.99701959 1.1531352 0.027819136 23
-0.97187048 1.1469067 0.082167454 100
-0.99716932 1.1531723 0.13944919 91
-0.97240037 1.152683 0.027400278 27
-0.98797852 1.1565988 0.083109498 43
-0.99582237 1.1585705 0.13944919 82
-0.96136707 1.1555235 0.027225753 44
-0.98468441 1.1614714 0.083004825 33
-0.98673433 1.1619943 0.13875194 80
-0.96194798 1.1612978 0.027260659 63
-0.98330861 1.166826 0.083004825 69
-0.98535663 1.1673561 0.13875194 92
-0.96637541 1.1680965 0.027365373 67
-0.96066433 1.1665971 0.081853434 96
-0.98781437 1.1737249 0.13910057 91
-0.96497649 1.1733872 0.027365373 78
-0.95348066 1.1703262 0.081539422 88
-0.96714264 1.173964 0.13735744 100
-0.95197588 1.1755455 0.027155945 89
-0.95207411 1.1755719 0.081539422 100
-0.96379989 1.178738 0.13718314 100
-0.94283611 1.1786737 0.027016325 93
-0.95835477 1.1829221 0.081958108 100
-0.96044213 1.1834936 0.13700883 99
-0.94140047 1.1838822 0.027016325 93
-0.941508 1.1839122 0.081120729 98
-0.97050864 1.1919601 0.1380547 91
-0.94764668 1.1912515 0.027155945 93
-0.93620878 1.1880343 0.08091139 86
-0.96710843 1.1967256 0.13788038 94
-0.95770568 1.1997658 0.027365373 66
-0.93089908 1.1921246 0.080702044 78
-0.95219725 1.1981956 0.1366602 100
-0.95619637 1.205026 0.027365373 48
-0.93901068 1.2000624 0.081225403 38
-0.94303674 1.2012253 0.13596296 99
-0.93363303 1.2038447 0.026981421 49
-0.92990845 1.2027555 0.080806717 24
-0.94542319 1.2072923 0.13631158 84
-0.92635745 1.207317 0.026876707 75
-0.92072874 1.2056496 0.080388032 28
-0.94961864 1.2142073 0.13683452 85
-0.91907591 1.2107439 0.026771991 74
-0.91346008 1.209059 0.080074012 32
-0.94042557 1.217149 0.13613728 94
-0.9232685 1.2176132 0.026876707 81
-0.91191846 1.2141647 0.080074012 88
-0.93313664 1.2206113 0.13561434 100
-0.91022927 1.2192252 0.026667276 88
-0.9122681 1.2198524 0.080178685 96
-0.92012876 1.2222706 0.13456847 99
-0.89719695 1.2207516 0.026457848 88
-0.9145028 1.2261418 0.080388032 80
-0.92044336 1.2279921 0.13474278 66
-0.89561468 1.2258005 0.026457848 81
-0.90147275 1.2276475 0.07976 72
-0.91503531 1.2319238 0.13439415 49
-0.90163499 1.2332758 0.026597468 83
-0.8979637 1.2321041 0.079655327 80
-0.91151589 1.2364292 0.13421984 43
-0.90000898 1.2383401 0.026597468 85
-0.89824241 1.2377695 0.07976 95
-0.89660722 1.2372414 0.13299966 50
-0.88696092 1.2396712 0.026388038 99
-0.89660078 1.2428219 0.07976 100
-0.91011781 1.2472401 0.13439415 63
-0.87771839 1.2421727 0.02624842 100
-0.89683765 1.2484958 0.079864666 100
-0.90655142 1.2517083 0.13421984 80
-0.88364702 1.2496915 0.026388038 100
-0.88568836 1.2503746 0.079341307 100
-0.9067505 1.2574219 0.13439415 85
-0.87825984 1.2531614 0.02631823 99
-0.87841171 1.2532128 0.079027295 100
-0.9183374 1.2667191 0.13561434 78
-0.88791662 1.2620285 0.026527658 96
-0.88427502 1.2607825 0.07944598 100
-0.89208847 1.2634561 0.13334829 97
-0.87493807 1.262872 0.02631823 88
-0.87886459 1.2642303 0.079236634 100
-0.8866784 1.266933 0.13299966 90
-0.85810858 1.2625608 0.026038991 79
-0.86393398 1.2645986 0.078503937 91
-0.89433819 1.2752341 0.13387123 54
-0.86186188 1.2699665 0.026143705 74
-0.86202449 1.2700241 0.078503937 51
-0.89614385 1.2821064 0.13421984 38
-0.86763865 1.2775881 0.026283324 90
-0.85462934 1.2729301 0.078189917 19
-0.89059585 1.285808 0.13387123 40
-0.86415654 1.2813592 0.02624842 99
-0.85867709 1.2793779 0.078503937 53
-0.87210542 1.2842336 0.13230242 22
-0.85485035 1.2835462 0.0261088 96
-0.85876638 1.2849777 0.07860861 89
-0.85720283 1.2844062 0.13108224 15
-0.84170502 1.2845311 0.025899371 100
-0.85499603 1.289445 0.078503937 100
-0.87773305 1.2978512 0.13317397 7
-0.83615416 1.287986 0.025829561 100
-0.83820707 1.2887533 0.077666558 78
-0.87214917 1.3014369 0.13282534 1
-0.84565395 1.2968171 0.026038991 100
-0.82713634 1.2898271 0.0771432 48
-0.866651 1.3047428 0.13247673 3
-0.84380645 1.3016856 0.026038991 77
-0.83651 1.2989023 0.077771232 53
-0.84057564 1.3004531 0.13021068 13
-0.8287881 1.3017535 0.025794657 74
-0.83642572 1.3046992 0.077875905 63
-0.84605783 1.308414 0.13090792 56
-0.82692355 1.3065631 0.025794657 74
-0.84199458 1.3124361 0.07829459 63
-0.85159558 1.3161775 0.13160518 100
-0.82690293 1.3120989 0.025829561 93
-0.81965011 1.3092434 0.0771432 59
-0.84041113 1.3174171 0.13073361 99
-0.82128602 1.3154237 0.025759751 100
-0.82703871 1.3177118 0.077666558 89
-0.83849186 1.3222673 0.13073361 99
-0.82318109 1.3214586 0.025829561 100
-0.82336146 1.3215309 0.077561885 97
-0.83480388 1.3261261 0.1305593 100
-0.81012958 1.3217384 0.025620133 100
-0.82512945 1.3278232 0.077771232 97
-0.82177669 1.326463 0.12951343 100
-0.77812296 1.3087548 0.17597933 13
-0.80449456 1.3249664 0.025550323 100
-0.82317394 1.3326198 0.077771232 97
-0.82720047 1.3342695 0.13021068 100
-0.78909248 1.3186558 0.1776855 16
-0.80254906 1.3296912 0.025550323 100
-0.79721016 1.3274819 0.076410495 100
-0.81969935 1.3367879 0.12968774 100
-0.78533489 1.3225677 0.17744176 20
-0.80806643 1.3372562 0.025689943 100
-0.78798229 1.3288672 0.075991809 100
-0.82884306 1.3459344 0.13073361 100
-0.77983171 1.3254627 0.17695428 16
-0.80617791 1.3417566 0.025689943 100
-0.80084485 1.3395082 0.07682918 100
-0.80489486 1.3412156 0.12864187 100
-0.79627413 1.3375812 0.17939167 21
-0.79681414 1.343354 0.025550323 83
-0.79149801 1.3410907 0.076410495 67
-0.80105942 1.3451612 0.12846756 99
-0.77236706 1.3329465 0.17646681 16
-0.80960387 1.3541319 0.025829561 61
-0.81895775 1.3581507 0.078085244 46
-0.81378943 1.3559301 0.12986206 24
-0.79055578 1.3459482 0.17914793 5
-0.80735093 1.3593481 0.025829561 94
-0.80569726 1.3586301 0.077457212 100
-0.83528787 1.3714781 0.1321281 67
-0.77740914 1.3463477 0.1776855 15
-0.80355757 1.3630435 0.025794657 100
-0.79824966 1.360718 0.0771432 100
-0.8296358 1.3744693 0.13177948 100
-0.78276354 1.3539329 0.17866045 33
-0.80147916 1.3677647 0.025794657 100
-0.80348569 1.3686521 0.077561885 100
-0.80018574 1.3671925 0.12916481 100
-0.76437825 1.3513548 0.17646681 30
-0.79401118 1.3697982 0.025689943 100
-0.8124364 1.378021 0.078189917 100
-0.79819793 1.3716667 0.12916481 100
-0.77331978 1.3605642 0.17792924 28
-0.79352123 1.3757763 0.025724847 100
-0.81191248 1.3840687 0.07829459 100
-0.81040817 1.3833904 0.1305593 100
-0.76561338 1.3631932 0.17719802 22
-0.79332525 1.3810563 0.025759751 100
-0.80441457 1.3861008 0.077980578 100
-0.81199378 1.3895483 0.13090792 100
-0.75641137 1.3642648 0.17622307 16
-0.79663604 1.3882446 0.025864467 100
-0.80407089 1.3916581 0.078085244 100
-0.8134442 1.3959614 0.13125655 100
-0.77236956 1.3771038 0.17866045 14
-0.80909473 1.3994298 0.026143705 100
-0.80562657 1.3978236 0.07829459 100
-0.80051345 1.3954556 0.13021068 100
-0.77935559 1.3856568 0.17987914 10
-0.79036623 1.3970177 0.025829561 100
-0.80501503 1.4038705 0.078399263 100
-0.79810184 1.4006364 0.13021068 100
-0.77518374 1.3899155 0.17963541 5
-0.78647107 1.4006058 0.025794657 100
-0.81916219 1.4160309 0.079341307 100
-0.79600316 1.4051034 0.13021068 100
-0.76953012 1.3926123 0.17914793 5
-0.7914837 1.4087057 0.025934275 100
-0.80427569 1.4147961 0.07860861 100
-0.81176704 1.418363 0.13195379 100
-0.77272576 1.3997747 0.17987914 1
-0.79656881 1.4166131 0.026073895 100
-0.79492825 1.4158254 0.078189917 100
-0.80960959 1.4228752 0.13195379 100
-0.80330151 1.4256691 0.02624842 100
-0.80165273 1.4248703 0.078713275 100
-0.80194324 1.4250109 0.13143086 100
-0.79393297 1.4266417 0.0261088 100
-0.80844623 1.4337329 0.079236634 100
-0.79797357 1.4286159 0.13125655 100
-0.78793031 1.4297942 0.026038991 100
-0.8077957 1.4395907 0.079341307 100
-0.80269819 1.4370769 0.13195379 100
-0.78931612 1.4360081 0.0261088 100
-0.80199105 1.442311 0.079131968 100
-0.81296664 1.4477689 0.13317397 100
-0.7975896 1.4462941 0.02631823 100
-0.79594773 1.4454701 0.078922622 100
-0.81581551 1.4554409 0.13369691 100
-0.79533952 1.4507592 0.02631823 100
-0.80439299 1.4553404 0.079550654 100
-0.80642396 1.456368 0.13299966 100
-0.79639727 1.4575043 0.026388038 100
-0.80898708 1.463933 0.079969339 100
-0.80389923 1.4613349 0.13299966 100
-0.78699833 1.4583042 0.02624842 100
-0.80490273 1.4675215 0.079864666 100
-0.80691344 1.4685566 0.1335226 100
-0.79156476 1.466887 0.026388038 100
-0.7970199 1.4697208 0.079550654 100
-0.8078801 1.4753623 0.13387123 100
-0.79266661 1.4734218 0.026457848 100
-0.79103082 1.4725647 0.079341307 100
-0.8089394 1.4819471 0.13421984 100
-0.79727536 1.481841 0.026597468 88
-0.78857023 1.4772415 0.079341307 100
-0.80820757 1.487617 0.13439415 99
-0.80041927 1.489543 0.13387123 38
0.12845612 1.2926117 0.13051336 5
0.16624311 1.2491783 0.010715778 13
0.13924366 1.282891 0.03443706 27
0.15145427 1.2676444 0.055779677 24
0.10052529 1.3312368 0.11388429 9
0.14991882 1.2695616 0.12440746 24
0.13820401 1.2841892 0.1765146 6
0.16161004 1.2582731 0.010890301 78
0.16954318 1.2482998 0.032029606 60
0.15310672 1.2689632 0.055779677 49
0.15208882 1.2702429 0.078483857 14
0.17248183 1.2446053 0.096050762 25
0.15402192 1.2678127 0.12364423 91
0.18970358 1.2229546 0.13362093 23
0.14712703 1.2764807 0.17340876 21
0.15340185 1.2721803 0.01116954 100
0.16750148 1.2543271 0.032343622 100
0.14991146 1.2765999 0.056476921 96
0.15383741 1.2716289 0.078483857 28
0.17781371 1.2412696 0.095112152 38
0.15332848 1.2722733 0.12440746 100
0.18645576 1.2303269 0.13542053 30
0.15248939 1.2733357 0.17185585 36
0.16617674 1.2593321 0.010855397 100
0.17280763 1.2508783 0.032029606 100
0.16143081 1.2653825 0.055082429 100
0.16162878 1.2651302 0.077265166 29
0.17937854 1.2425013 0.095112152 25
0.16832459 1.2565937 0.12020966 100
0.18557882 1.2345965 0.13632034 38
0.15892985 1.268571 0.16978529 36
0.17042959 1.2575797 0.010785587 100
0.17089203 1.2569857 0.032343622 90
0.16202518 1.2683756 0.055256739 99
0.17076263 1.2571518 0.075802729 30
0.1665515 1.2625613 0.098866582 36
0.18578857 1.2378502 0.11524864 100
0.18728411 1.2359291 0.13632034 30
0.15007946 1.2837205 0.17444403 42
0.17204854 1.2588357 0.010785587 78
0.17739564 1.2519199 0.031924933 61
0.16246134 1.2712357 0.055431053 49
0.18573648 1.2411319 0.073121607 31
0.17060354 1.2607046 0.098240845 24
0.1753335 1.2545869 0.11906482 19
0.18883118 1.2371293 0.13632034 22
0.14824027 1.2896289 0.17599694 34
0.17140809 1.2633905 0.010855397 65
0.17065346 1.264374 0.032657638 29
0.16066238 1.2773947 0.055953987 48
0.17900658 1.2534881 0.074827775 45
0.19164515 1.2370172 0.093234941 53
0.18906364 1.2403815 0.11524864 13
0.19291836 1.2353579 0.13542053 30
0.15367562 1.2865 0.17444403 56
0.1609256 1.2805483 0.011204445 50
0.17471614 1.2624521 0.032448292 29
0.16717768 1.2723442 0.055256739 49
0.18301836 1.2515578 0.074340299 61
0.19439313 1.2366318 0.092922069 53
0.18586555 1.2478218 0.1167751 13
0.20036942 1.2287896 0.13317102 46
0.17412573 1.2632269 0.16616182 68
0.17486179 1.2660216 0.010855397 39
0.14279026 1.3084278 0.035379108 25
0.1822415 1.2562639 0.053339314 52
0.18119356 1.2576495 0.075071514 60
0.19372267 1.241083 0.093547814 52
0.18998781 1.2460215 0.11601187 13
0.20557979 1.2254051 0.13182132 39
0.17477071 1.266142 0.16667947 67
0.17891058 1.264065 0.010785587 52
0.17816323 1.2650601 0.032448292 29
0.17428365 1.2702253 0.054733805 50
0.19115785 1.2477591 0.073365346 46
0.1988458 1.2375236 0.092609204 53
0.20925409 1.223666 0.1102876 14
0.20475119 1.2296611 0.13272113 47
0.18569958 1.2550262 0.16253836 70
0.18311405 1.2622153 0.010715778 66
0.17998022 1.2664196 0.032448292 29
0.17850098 1.2684041 0.054385185 51
0.2000294 1.2395216 0.071902916 96
0.19229797 1.2498941 0.094799288 51
0.20035955 1.2390786 0.11372216 13
0.2087675 1.2277985 0.13182132 31
0.18286166 1.2625539 0.16460891 69
0.18355858 1.2650365 0.010750682 79
0.20777094 1.2323272 0.030145511 32
0.17659959 1.2744375 0.054908119 75
0.1992262 1.2438706 0.072390392 95
0.20329353 1.2383759 0.092296332 80
0.20658925 1.2339237 0.11219569 14
0.21724406 1.2195297 0.1291219 32
0.18219829 1.2668741 0.16564418 68
0.18774313 1.263153 0.010680873 80
0.19646132 1.2512846 0.031296901 62
0.18081 1.2725914 0.054559495 100
0.19743976 1.2499526 0.073121607 62
0.20501256 1.2396436 0.092296332 93
0.20945418 1.2335969 0.11181407 14
0.21658653 1.2238874 0.13002171 24
0.19088396 1.2588773 0.16253836 70
0.19645146 1.2546583 0.010471444 96
0.21218395 1.2330916 0.03004084 66
0.18717545 1.2673743 0.053862248 100
0.19318384 1.2591377 0.074340299 92
0.21006432 1.2359973 0.09135773 94
0.2179355 1.2252072 0.10952436 14
0.22613278 1.2139701 0.12687239 16
0.19478416 1.2569439 0.16150309 70
0.19579968 1.2591288 0.010541254 95
0.20560259 1.2455916 0.030773543 64
0.18774524 1.2702515 0.054036561 100
0.20770055 1.2426944 0.071659178 80
0.20358294 1.2483807 0.093547814 100
0.22182944 1.2231833 0.10876112 14
0.2276845 1.2150979 0.12687239 16
0.19195384 1.2644397 0.16357364 85
0.19508868 1.2635477 0.010611063 94
0.21184579 1.2402449 0.030354854 65
0.18824294 1.2730676 0.054210871 100
0.20695207 1.2470503 0.072146654 63
0.21209085 1.2399042 0.091670595 94
0.21874928 1.2306447 0.1102876 14
0.23485088 1.2082535 0.12462288 16
0.18570039 1.2766032 0.16719711 75
0.19922304 1.2615896 0.010541254 95
0.21473169 1.2398553 0.030250182 98
0.19471827 1.2679027 0.053513627 100
0.20870283 1.2483044 0.072146654 79
0.21381539 1.2411394 0.091670595 100
0.19991362 1.2606218 0.11715672 19
0.23645929 1.2094057 0.12462288 16
0.19317016 1.2700723 0.16460891 77
0.19854292 1.2660134 0.010611063 94
0.21282753 1.2458534 0.030564198 97
0.20328265 1.2593242 0.052467756 100
0.20570016 1.2559123 0.073121607 62
0.21652165 1.2406399 0.09135773 100
0.2015425 1.26178 0.11715672 33
0.22777829 1.2247534 0.128672 16
0.19594732 1.2696767 0.16409127 69
0.20956424 1.2542114 0.010331824 98
0.21227643 1.2503538 0.030773543 96
0.20507842 1.2605917 0.052467756 100
0.20976686 1.2539232 0.072634131 63
0.2227934 1.2353952 0.090106249 96
0.2033473 1.2630539 0.11715672 79
0.23056799 1.2243371 0.12822211 32
0.20444769 1.2614888 0.16098544 72
0.20659304 1.2618964 0.010471444 96
0.21844438 1.2449205 0.030354854 97
0.19986415 1.2715348 0.053513627 100
0.20682818 1.2615595 0.073609084 100
0.21529236 1.2494354 0.092609204 93
0.20835572 1.2593715 0.11601187 100
0.22092119 1.2413727 0.13272113 86
0.21050286 1.2562959 0.15891489 73
0.21523029 1.2532886 0.010262015 84
0.22473642 1.2395651 0.029936166 99
0.2005702 1.2744526 0.053687938 100
0.22219643 1.243232 0.070684217 65
0.21705183 1.250659 0.092609204 100
0.2224488 1.2428677 0.11181407 91
0.22819933 1.2345659 0.13047162 96
0.21008742 1.2607131 0.15995017 72
0.21003547 1.2642817 0.010471444 96
0.22176802 1.2472236 0.030354854 97
0.19885772 1.2805333 0.054210871 100
0.21926776 1.2508588 0.071659178 64
0.22760305 1.2387398 0.090106249 100
0.21400562 1.2585094 0.11524864 100
0.23747206 1.2243911 0.1273223 97
0.20733747 1.2682045 0.16202073 70
0.21167645 1.2654064 0.010471444 82
0.22673145 1.2433614 0.03004084 66
0.2072944 1.2718229 0.053165004 100
0.22310317 1.2486743 0.071171694 65
0.23027325 1.2381752 0.089793384 100
0.2178418 1.2563784 0.1144854 100
0.23348555 1.2334714 0.12957181 96
0.21443889 1.2613614 0.15943253 73
0.21893245 1.2582501 0.010296919 42
0.23278654 1.2378185 0.029622151 67
0.21343303 1.2663605 0.052467756 80
0.22023603 1.2563276 0.072146654 79
0.23515338 1.2343279 0.088854775 98
0.22937283 1.2428529 0.11105084 84
0.23393053 1.2361313 0.13002171 96
0.21715432 1.2608725 0.15891489 73
0.22981995 1.2462986 0.010017681 43
0.22352454 1.2556636 0.03066887 32
0.21542826 1.2677076 0.052467756 53
0.23105064 1.2444677 0.07019674 82
0.23261169 1.2421457 0.090106249 96
0.23017827 1.2457656 0.11143246 91
0.23362988 1.240631 0.13092151 96
0.22343853 1.2557915 0.15684435 74
0.22696078 1.2540108 0.0101573 42
0.21848434 1.266711 0.031296901 31
0.21929264 1.2654999 0.052119136 54
0.23262578 1.2455229 0.07019674 82
0.23417911 1.2431955 0.090106249 96
0.23175773 1.2468235 0.11143246 84
0.24168319 1.2319522 0.12822211 100
0.22290641 1.2600855 0.15787962 73
0.21981794 1.2684726 0.010436539 27
0.22463199 1.2612048 0.030878214 31
0.20452049 1.291567 0.054733805 50
0.24086496 1.236698 0.068734311 67
0.24019623 1.2377076 0.088854775 98
0.23125577 1.251205 0.11219569 91
0.24222142 1.2346503 0.128672 97
0.21501771 1.2757194 0.16253836 70
0.21927524 1.2729063 0.010506349 27
0.21089888 1.2856436 0.032343622 30
0.22267306 1.2677395 0.052119136 54
0.23368844 1.2509893 0.070684217 65
0.24826124 1.2288296 0.086977564 100
0.23393199 1.2506189 0.11181407 84
0.24162245 1.2389247 0.12957181 96
0.22412691 1.2655288 0.15891489 73
0.22540438 1.2673593 0.010366729 41
0.22361669 1.2700984 0.031296901 31
0.24074629 1.2438517 0.049504463 57
0.23862413 1.2471033 0.069953002 49
0.24122772 1.243114 0.089480512 100
0.24097657 1.2434988 0.10990598 85
0.24326116 1.2399983 0.12957181 96
0.23430529 1.2537209 0.15477379 75
0.23575431 1.255007 0.010087491 43
0.23613718 1.2544162 0.030250182 32
0.23256889 1.2599235 0.051073264 55
0.24776387 1.2364715 0.068246834 85
0.24172419 1.2457932 0.089793384 100
0.2489537 1.2346351 0.10761628 87
0.24694073 1.2377419 0.128672 97
0.22960833 1.2644929 0.15787962 73
0.23978072 1.2528453 0.010017681 58
0.25419331 1.2304127 0.028680105 69
0.22799069 1.2711961 0.052119136 54
0.24419218 1.2459791 0.069465525 49
0.2478244 1.2403257 0.08854191 84
0.24543396 1.2440463 0.10952436 85
0.25505912 1.2290651 0.12597258 82
0.22837669 1.2705953 0.15943253 73
0.23493171 1.2639872 0.01022711 70
0.24390763 1.2499141 0.029831495 66
0.22644031 1.2773006 0.05264207 53
0.24470478 1.2486643 0.069709264 66
0.25575918 1.2313323 0.086664692 71
0.24700761 1.2450536 0.10952436 78
0.25867888 1.2267547 0.12507279 83
0.22692198 1.2765454 0.16098544 72
0.23460612 1.2685184 0.010296919 70
0.25314346 1.2392179 0.029098792 100
0.2389541 1.2616459 0.050898954 55
0.25176787 1.2413921 0.068490572 50
0.25533977 1.2357464 0.087290429 71
0.24350256 1.2544565 0.11143246 84
0.25931305 1.2294662 0.12552269 90
0.23910934 1.2614006 0.15580906 67
0.24583268 1.2543207 0.0099827768 87
0.25045216 1.2469652 0.029517479 100
0.24164578 1.2609874 0.05072464 84
0.24910969 1.2491028 0.069465525 49
0.25688586 1.2367209 0.087290429 71
0.24511078 1.2554703 0.11143246 91
0.25772902 1.2353784 0.12687239 99
0.2407406 1.2624288 0.15580906 67
0.24972448 1.2520376 0.0099129668 87
0.2500903 1.2514504 0.029726824 100
0.24450088 1.2604232 0.05055033 84
0.25296688 1.2468326 0.068978049 50
0.25859845 1.2377921 0.087290429 71
0.25415844 1.2449198 0.10876112 72
0.26149741 1.2331383 0.12597258 99
0.23846176 1.2701179 0.15787962 65
0.24501458 1.2632357 0.010122396 85
0.25589007 1.2456473 0.029308135 100
0.23460272 1.2800741 0.052467756 80
0.25141776 1.2528801 0.069709264 49
0.25599575 1.2454764 0.08854191 70
0.24644238 1.2609265 0.11219569 91
0.26508456 1.2307775 0.12507279 83
0.23910594 1.2727914 0.15839726 65
0.24665189 1.2642443 0.010122396 85
0.257469 1.2466199 0.029308135 100
0.23629591 1.2811172 0.052467756 100
0.2602894 1.2420247 0.068003096 51
0.26170734 1.2397145 0.087290429 57
0.25526077 1.2502179 0.10952436 78
0.27069163 1.2250764 0.12327318 85
0.23774332 1.278759 0.15995017 72
0.24829251 1.2652476 0.010122396 85
0.25489473 1.2544101 0.029726824 100
0.24317542 1.2736472 0.051596198 82
0.25565964 1.2531545 0.069465525 66
0.265322 1.237294 0.086664692 57
0.25174779 1.2595757 0.11143246 91
0.26713294 1.2343214 0.12552269 99
0.2494829 1.2632935 0.15477379 67
0.25433159 1.2595553 0.0099827768 87
0.26088709 1.2487011 0.029308135 100
0.24820161 1.2697052 0.051073264 100
0.26162201 1.2474842 0.068490572 50
0.27324575 1.2282381 0.084787481 59
0.26479447 1.2422314 0.10723466 73
0.27093282 1.2320678 0.12462288 92
0.24938175 1.2677511 0.15580906 67
0.26109725 1.2519574 0.0098082526 89
0.26042235 1.2530833 0.029517479 100
0.25190911 1.2672855 0.05072464 84
0.26218638 1.2501404 0.068734311 67
0.26461065 1.2460963 0.087916173 56
0.26232445 1.2499101 0.10876112 79
0.26745701 1.2413479 0.12687239 90
0.24904752 1.2720592 0.15684435 66
0.25980017 1.2581698 0.0099129668 100
0.26627722 1.2472742 0.029098792 100
0.25067943 1.2735126 0.051247578 82
0.26394811 1.2511921 0.068734311 100
0.26837635 1.2437431 0.087290429 71
0.26308215 1.2526489 0.10914274 78
0.27117807 1.2390301 0.12597258 90
0.25088969 1.2731588 0.15684435 66
0.26142058 1.2591295 0.0099129668 87
0.26786149 1.2482123 0.029098792 100
0.25235081 1.2745023 0.051247578 82
0.25949317 1.2623963 0.07019674 33
0.27396396 1.237869 0.086038955 58
0.26368663 1.2552886 0.10952436 78
0.27768612 1.2315601 0.12372308 83
0.25255987 1.274148 0.15684435 66
0.25706908 1.2704887 0.010122396 85
0.2685236 1.250918 0.029203463 100
0.2631714 1.2600626 0.049678773 86
0.26723009 1.2531281 0.068734311 50
0.28158575 1.2286006 0.084161744 59
0.26240724 1.2613682 0.11066922 78
0.27831456 1.2341897 0.12417299 92
0.2611095 1.2635854 -0.0099827768 86
0.257249 1.2701814 0.15529142 67
0.27379605 1.2455199 0.0095988233 91
0.26911679 1.2535758 0.029308135 100
0.26780021 1.2558426 0.049155839 87
0.25786629 1.272945 0.071415432 48
0.27715501 1.239737 0.086038955 58
0.26896864 1.2538309 0.10876112 87
0.2837705 1.2283477 0.12237337 76
0.26376078 1.2627969 0.15270324 68
0.26863983 1.258708 0.0098431576 88
0.27296868 1.251189 0.029098792 100
0.26569143 1.2638292 0.049853086 85
0.27762762 1.2430967 0.067028143 51
0.27896068 1.2407812 0.086038955 58
0.27278757 1.2515036 0.10799789 79
0.28261545 1.2344331 0.12372308 83
0.26565507 1.2638924 0.15270324 68
0.27422988 1.2526932 0.0097035384 90
0.27654743 1.2486367 0.028889447 100
0.26140046 1.2751491 0.050898954 83
0.27919796 1.2439973 0.067028143 51
0.27954343 1.2433926 0.086351827 58
0.26756853 1.2643528 0.11066922 85
0.28609043 1.2319331 0.12282328 93
0.25962785 1.2782518 0.15684435 66
0.26408556 1.2745299 0.010122396 85
0.28215867 1.2426378 0.02847076 100
0.26807708 1.2674863 0.050027397 85
0.2769393 1.251848 0.068003096 51
0.28509322 1.2374594 0.085100345 58
0.27123174 1.2619196 0.10990598 78
0.29250845 1.2243743 0.12057377 77
0.27000102 1.2640914 -0.0099129668 87
0.26330867 1.2759008 0.15580906 67
0.27360129 1.2615311 0.0098431576 88
0.2817696 1.2470051 0.028680105 100
0.27265802 1.2632086 0.049504463 86
0.27367377 1.2614022 0.069221787 67
0.28858125 1.2348917 0.084474608 59
0.27286455 1.2628413 0.10990598 85
0.29306147 1.2269243 0.12102367 86
0.27360129 1.2615311 -0.0098431576 87
0.27256295 1.2633777 0.15166797 69
0.27929968 1.2555544 0.0097035384 90
0.28157461 1.2514739 0.028889447 100
0.27155703 1.2694424 0.050027397 85
0.28030989 1.2537425 0.068003096 51
0.28836313 1.2392974 0.085100345 58
0.28232074 1.2501357 0.10685304 81
0.29284003 1.2312672 0.12192347 85
0.27150974 1.2695272 -0.0099827768 86
0.27625456 1.2610165 0.15063268 70
0.28575104 1.2477005 0.0095290141 76
0.28510624 1.2488661 0.028680105 100
0.27803683 1.2616459 0.049155839 87
0.28383726 1.25116 0.067515619 51
0.29278934 1.2349768 0.084161744 59
0.28866592 1.2424309 0.10494494 82
0.29531434 1.2304122 0.12147357 69
0.28723538 1.2450171 0.1454563 81
0.2893438 1.2451135 0.009459204 77
0.29062203 1.2427835 0.028261416 100
0.2768797 1.2678325 0.049678773 86
0.28551844 1.2520862 0.067515619 51
0.2868129 1.2497268 0.086664692 71
0.28370649 1.255389 0.10761628 87
0.2987977 1.2278814 0.12057377 77
0.27774471 1.2662559 0.15166797 77
0.28709671 1.2530007 0.0095988233 76
0.28837189 1.250658 0.028680105 100
0.27376947 1.2774854 0.05055033 84
0.28711855 1.2529607 0.067515619 51
0.2940715 1.2401868 0.084787481 59
0.28344038 1.2597181 0.10837951 87
0.28040463 1.2652953 -0.0098431576 87
0.27569756 1.2739431 0.15373851 76
0.2804099 1.2698469 0.0099129668 87
0.2921156 1.2481433 0.02847076 100
0.28423223 1.2627599 0.048981529 87
0.28709027 1.2574608 0.068003096 51
0.28998253 1.2520983 0.10647142 81
0.28610545 1.2592866 -0.0097035384 89
0.28497103 1.2613901 0.14959741 70
0.29244655 1.2513433 0.0095290141 76
0.29558715 1.2454739 0.028261416 100
0.29150757 1.2530981 0.047935657 89
0.29432738 1.2478282 0.066540658 52
0.29930648 1.2385228 0.084161744 59
0.29714 1.2425716 0.10418171 75
0.28678602 1.2619224 -0.0097384425 99
0.28842479 1.2588596 0.14856213 71
0.2960864 1.2487508 0.009459204 93
0.29358831 1.2534609 0.028680105 100
0.28767881 1.2646033 0.048981529 87
0.29235998 1.2557769 0.067515619 51
0.28577992 1.2681835 -0.0098431576 87
0.28840798 1.2632284 0.14959741 70
0.29767537 1.2495902 0.009459204 93
0.29891276 1.2472384 0.028261416 100
0.28653735 1.2707601 0.049504463 86
0.29953119 1.2460629 0.10456333 75
0.28644705 1.2709317 0.15166797 69
0.29851025 1.2522849 0.0094941091 92
0.29205936 1.2646558 0.048807215 58
0.29575759 1.2575638 0.067515619 51
0.29583126 1.2574224 0.10685304 73
0.28556594 1.2771084 -0.0099827768 96
0.28649837 1.2753203 0.15270324 68
0.29643613 1.2602209 0.0096337283 90
0.29919323 1.2548904 0.047761347 60
0.29372782 1.2654569 0.068490572 50
0.28908643 1.2744303 -0.0099129668 97
0.29261324 1.2676117 0.15011504 78
0.29370126 1.2699907 0.049155839 58
0.29554546 1.2663929 0.068490572 67
0.29093704 1.2753831 -0.0099129668 100
0.29796377 1.2616752 0.1480445 79
0.29434237 1.2728407 0.15115032 77
0.29800725 1.2699444 0.048981529 58
0.29870775 1.2685547 0.14959741 78
0.29785442 1.2744024 -0.0098431576 100
0.29970485 1.2753232 -0.0098431576 100
