# .PCD v0.7 - Point Cloud Data file format
VERSION 0.7
FIELDS x y z intensity
SIZE 4 4 4 4
TYPE F F F F
COUNT 1 1 1 1
WIDTH 736
HEIGHT 1
VIEWPOINT 0 0 0 1 0 0 0
POINTS 736
DATA ascii
-1.1681939 0.15462542 0.061756428 21
-1.0885104 0.14775278 0.057569552 27
-1.1764318 0.16408059 0.020733459 22
-1.1897384 0.16996045 0.020977793 32
-1.0526146 0.15412277 0.01856936 6
-1.0204556 0.15287229 0.018010883 6
-1.0139589 0.15570089 0.017906168 2
0.056628972 0.0020853877 0.047835063 72
0.058780223 0.011270642 0.015776975 102
0.046420336 0.0039560795 0.04804441 24
0.042646468 0.0040534735 0.048149079 100
0.043302178 0.010812819 0.047835063 84
0.046227872 0.02087301 0.047311705 40
0.034653485 0.0094083548 0.048149079 26
0.027497351 0.0046137571 0.048567768 16
0.04180634 0.031126261 0.046997689 21
0.032535195 0.022964537 0.047625721 9
0.020786643 0.011672497 0.048463095 8
-1.0295246 1.1288592 0.08488892 3
-1.0489879 1.1332811 0.14345835 6
-1.0360329 1.1361645 0.028412517 7
-1.0010173 1.1280806 0.083423518 7
-1.0263555 1.1339303 0.14154093 13
-1.007489 1.1353058 0.02792385 12
-1.0017025 1.1339486 0.083528183 63
-1.0231359 1.1389756 0.14136662 53
-1.0003686 1.1393499 0.027819136 36
-0.99265105 1.1375113 0.083109498 100
-1.0140858 1.1426177 0.14066938 95
-0.98352081 1.1409976 0.027539898 37
-0.99135882 1.1428939 0.083109498 100
-0.99341029 1.1433902 0.13892625 89
-0.97833258 1.1453944 0.027470088 35
-0.98422891 1.1468427 0.082795486 100
-0.9979021 1.1502012 0.13944919 91
-0.98477405 1.1526622 0.027609708 23
-0.97321445 1.14978 0.08227212 74
-0.99849874 1.1560841 0.13962349 82
-0.97567457 1.156055 0.027470088 27
-0.97381574 1.1555847 0.082376793 42
-1.0048676 1.163442 0.14032075 68
-0.97825986 1.1621062 0.027539898 51
-0.96865958 1.1596429 0.082167454 36
-0.98039585 1.1626542 0.13822901 87
-0.96527058 1.1644161 0.027330469 64
-0.97502166 1.1669542 0.082586139 88
-0.97323149 1.1664882 0.13770607 91
-0.94841713 1.1656191 0.027051231 72
-0.9716956 1.1717652 0.082481466 100
-0.9737646 1.1723114 0.13788038 94
-0.95089024 1.1718816 0.027121039 83
-0.95099097 1.1719085 0.081434749 94
-0.97812468 1.1791739 0.13840333 100
-0.96305877 1.1805218 0.027365373 89
-0.94386727 1.1753148 0.081120729 100
-0.97483653 1.1837174 0.13822901 100
-0.96161658 1.1858009 0.027365373 92
-0.9405176 1.1799972 0.081016064 100
-0.9618569 1.1858671 0.13718314 98
-0.94082123 1.1859642 0.027016325 96
-0.94669992 1.1876045 0.081434749 90
-0.95840341 1.19087 0.13700883 92
-0.93173629 1.1887305 0.026876707 85
-0.94915086 1.1936518 0.081644088 82
-0.94741303 1.1931607 0.13613728 100
-0.94956475 1.1991436 0.027225753 61
-0.93045622 1.1936752 0.080702044 62
-0.95557898 1.2008648 0.13700883 100
-0.95581609 1.2063403 0.027365373 46
-0.9194513 1.1958028 0.080178685 24
-0.96179658 1.2080731 0.13770607 91
-0.93693906 1.2067841 0.027051231 59
-0.9236297 1.2028745 0.080492698 24
-0.95062274 1.2108036 0.13683452 84
-0.92398196 1.2082928 0.026841801 75
-0.92410058 1.2083281 0.080597371 28
-0.93387467 1.2112345 0.13544002 87
-0.91087776 1.2102305 0.026632372 74
-0.9301334 1.2160331 0.081016064 50
-0.92843217 1.2155204 0.13509139 98
-0.91323537 1.2162391 0.026702182 83
-0.90763181 1.2145302 0.079864666 100
-0.93266386 1.2221642 0.13561434 100
-0.91350049 1.2221894 0.026737086 88
-0.90790099 1.2204593 0.079969339 86
-0.93290025 1.2281836 0.13578865 89
-0.91581017 1.2282335 0.026806897 92
-0.90449291 1.2246956 0.079864666 82
-0.91806132 1.2289371 0.13456847 61
-0.90260202 1.2302345 0.026597468 85
-0.90464026 1.2308803 0.079969339 66
-0.90109354 1.2297566 0.13317397 48
-0.90106791 1.235049 0.026597468 83
-0.90690786 1.2369206 0.080178685 80
-0.90145832 1.2351741 0.13334829 48
-0.89563137 1.2388774 0.026527658 89
-0.89387017 1.2383062 0.079550654 100
-0.91309208 1.2445407 0.13456847 52
-0.89406866 1.2436687 0.026527658 100
-0.88851374 1.2418467 0.079341307 100
-0.9171899 1.2512527 0.13509139 71
-0.88861066 1.2474468 0.026457848 96
-0.89064902 1.2481234 0.079550654 100
-0.91171914 1.2551161 0.13474278 82
-0.88322777 1.2509425 0.026388038 99
-0.88716215 1.2522627 0.07944598 100
-0.89310247 1.254256 0.13317397 86
-0.86613971 1.2515417 0.0261088 96
-0.88710552 1.2586709 0.079550654 100
-0.89114696 1.2600451 0.13317397 88
-0.86831731 1.2575352 0.02617861 99
-0.88358837 1.2627846 0.07944598 100
-0.89139813 1.2654691 0.13334829 100
-0.87424845 1.2648611 0.02631823 79
-0.87062663 1.2636027 0.078817949 100
-0.90856737 1.2767854 0.13509139 87
-0.87259966 1.2695814 0.02631823 81
-0.86332864 1.2663257 0.078503937 76
-0.89559978 1.2776585 0.13404553 43
-0.86699039 1.2734532 0.02624842 88
-0.85585409 1.2694964 0.078189917 38
-0.88058752 1.2782842 0.13282534 39
-0.85402077 1.2740949 0.026038991 96
-0.86922807 1.279555 0.079027295 19
-0.87701887 1.2823522 0.13265105 31
-0.85216373 1.2792375 0.026038991 96
-0.85420996 1.2799807 0.07829459 61
-0.87887686 1.2889392 0.13299966 20
-0.85422188 1.2852621 0.0261088 100
-0.84876102 1.2832584 0.078085244 100
-0.87714809 1.2936747 0.13299966 13
-0.85607344 1.2917969 0.02617861 100
-0.85623282 1.2918561 0.07860861 100
-0.88269085 1.3016746 0.13369691 3
-0.83926493 1.2910837 0.025899371 100
-0.83196217 1.2883446 0.077352546 53
-0.87149876 1.303174 0.13282534 1
-0.82995802 1.2930948 0.025759751 93
-0.84321743 1.298121 0.078085244 48
-0.84540969 1.2989519 0.1305593 5
-0.83372587 1.3000546 0.025864467 75
-0.83950037 1.3022666 0.077980578 55
-0.85471803 1.3080959 0.13160518 26
-0.83559686 1.3063251 0.025934275 72
-0.83018357 1.3042297 0.077561885 72
-0.84539896 1.3101192 0.13090792 71
-0.84116572 1.3140718 0.026073895 83
-0.82645029 1.3083167 0.077457212 61
-0.85278279 1.3186152 0.13177948 100
-0.82261461 1.3120714 0.025759751 100
-0.83580345 1.3172799 0.078085244 74
-0.82871836 1.314482 0.12968774 97
-0.81699938 1.3153775 0.025689943 100
-0.83202964 1.3213739 0.077980578 95
-0.83051056 1.3207679 0.13003637 99
-0.81137794 1.318651 0.025620133 100
-0.82453912 1.3239551 0.077666558 97
-0.83597142 1.3285624 0.13073361 100
-0.81315869 1.3249075 0.025689943 100
-0.80594832 1.3219724 0.076724514 100
-0.83770388 1.3348993 0.13108224 100
-0.78297943 1.3126223 0.17671055 15
-0.82231027 1.3342249 0.025899371 100
-0.80401331 1.3267021 0.076724514 100
-0.81545371 1.3314059 0.12916481 100
-0.77006143 1.3127429 0.17524812 13
-0.80186433 1.3313432 0.025550323 100
-0.80944008 1.3344889 0.0771432 99
-0.81164569 1.3354046 0.1289905 100
-0.78832537 1.3257213 0.17792924 18
-0.79252011 1.3329654 0.025410704 100
-0.80009383 1.3361413 0.076724514 100
-0.80598897 1.3386133 0.12864187 100
-0.7644096 1.3211777 0.17500438 16
-0.79054683 1.3376482 0.025410704 100
-0.78707439 1.3361778 0.076096483 92
-0.80766529 1.344897 0.1289905 100
-0.75882167 1.3242145 0.1745169 18
-0.80714637 1.3497121 0.025759751 67
-0.78896254 1.3419447 0.076305822 42
-0.80768472 1.349942 0.12916481 71
-0.77350384 1.3353415 0.17671055 13
-0.81429559 1.3584055 0.025934275 66
-0.81079942 1.3568976 0.077666558 61
-0.8257764 1.3633571 0.13108224 18
-0.80433255 1.3541086 0.18109785 10
-0.79919416 1.3580468 0.025689943 100
-0.80853587 1.3621185 0.077666558 100
-0.8161822 1.3654511 0.130385 90
-0.77114385 1.3458211 0.17695428 16
-0.79164225 1.3603368 0.025585229 100
-0.80828875 1.3676614 0.077771232 100
-0.81227165 1.3694139 0.13021068 100
-0.78547865 1.3576247 0.17914793 38
-0.79709226 1.3677931 0.025724847 100
-0.80457896 1.3711154 0.077666558 100
-0.81766635 1.3769232 0.13090792 100
-0.76003808 1.3513498 0.17597933 24
-0.80229717 1.3757617 0.025864467 100
-0.80247241 1.3758402 0.077666558 100
-0.81917602 1.3833226 0.13125655 100
-0.77792877 1.3648459 0.17866045 28
-0.79835242 1.3796545 0.025829561 100
-0.80762893 1.3838489 0.078085244 100
-0.80613416 1.383173 0.13021068 100
-0.7794618 1.3711133 0.17914793 19
-0.79439682 1.3835273 0.025794657 100
-0.80911189 1.3902426 0.07829459 100
-0.80036038 1.3862488 0.12986206 100
-0.77013177 1.3724537 0.17817298 14
-0.79043072 1.3873798 0.025759751 100
-0.81238085 1.3974895 0.07860861 100
-0.80543977 1.3942926 0.1305593 100
-0.77523297 1.3803799 0.17914793 12
-0.79552096 1.3954265 0.025899371 100
-0.80655986 1.4005576 0.078399263 100
-0.80325228 1.3990202 0.1305593 100
-0.77129406 1.3841654 0.17890419 10
-0.79876095 1.4026672 0.026004085 100
-0.8007341 1.4035927 0.078189917 100
-0.80465597 1.4054323 0.13090792 100
-0.74398142 1.3769716 0.17549185 9
-0.80027074 1.4088467 0.026073895 100
-0.8040418 1.4106309 0.078503937 100
-0.80614334 1.4116253 0.13125655 100
-0.78861576 1.4033325 0.18182907 3
-0.7908141 1.4101101 0.025934275 100
-0.80720443 1.4179349 0.078817949 100
-0.7967034 1.4129217 0.1305593 100
-0.78327888 1.4119503 0.025829561 100
-0.8122465 1.4258978 0.079236634 100
-0.80174452 1.4208412 0.13125655 100
-0.79530531 1.4238255 0.0261088 100
-0.79905528 1.4256481 0.07860861 100
-0.8065179 1.4292749 0.13195379 100
-0.80031222 1.4318035 0.02624842 100
-0.79687363 1.4301181 0.07860861 100
-0.81863672 1.4407845 0.13334829 100
-0.80146235 1.4385214 0.02631823 100
-0.79981583 1.4377069 0.078922622 100
-0.80723971 1.4413793 0.13247673 100
-0.79208022 1.439429 0.02617861 100
-0.80474323 1.4457452 0.079341307 100
-0.79965717 1.4432085 0.13195379 100
-0.78961772 1.4443436 0.02617861 100
-0.80582541 1.4525023 0.079550654 100
-0.80785853 1.4535257 0.13299966 100
-0.79094046 1.4505923 0.02624842 100
-0.79643065 1.4533787 0.079131968 100
-0.80913764 1.4598281 0.13334829 100
-0.79555625 1.4591486 0.026388038 100
-0.7974723 1.46013 0.079341307 100
-0.81369358 1.468438 0.13404553 100
-0.80037075 1.4672768 0.026527658 100
-0.79162699 1.4627619 0.079131968 100
-0.80959958 1.4720422 0.13387123 100
-0.7907123 1.4685256 0.026388038 100
-0.79616398 1.4713659 0.079550654 100
-0.80348343 1.4751794 0.1335226 100
-0.78838855 1.4729676 0.026388038 96
-0.80267173 1.4804697 0.080074012 100
-0.80819315 1.4833698 0.13421984 100
-0.78592664 1.4776353 0.026388038 63
-0.77723926 1.4730337 0.078713275 63
-0.80393404 1.4871738 0.13404553 92
0.1502009 1.2670721 0.011134636 12
0.13691863 1.283586 0.03454173 27
0.097967058 1.3320147 0.063100755 19
0.12795576 1.2947296 0.13089497 11
0.17993003 1.2301097 0.13632034 7
0.137128 1.2833257 0.1765146 6
0.15077788 1.2700969 0.01116954 25
0.16123268 1.2570004 0.032657638 29
0.17336765 1.2417992 0.05281638 53
0.14626253 1.2757533 0.07945881 14
0.14823851 1.2732779 0.10199527 11
0.14457986 1.2778611 0.12631555 52
0.15226987 1.2682279 0.17082056 14
0.16486225 1.2557487 0.010820492 100
0.15416369 1.269242 0.033390339 85
0.15512881 1.2680249 0.055605363 98
0.15040848 1.2739782 0.078971334 28
0.17445508 1.24365 0.095737889 25
0.17188072 1.2468967 0.11830158 100
0.18315122 1.2326821 0.13632034 30
0.15872517 1.263489 0.16875002 29
0.16028929 1.2648784 0.010995016 100
0.16817811 1.2548606 0.032343622 100
0.15308452 1.2740275 0.056128297 97
0.15699449 1.2690623 0.077996381 14
0.17602783 1.2448926 0.095737889 38
0.16496184 1.258945 0.1209729 100
0.18951014 1.227772 0.13452072 38
0.15319258 1.2738903 0.17185585 43
0.16439644 1.2630178 0.010925206 100
0.18332312 1.2388189 0.03119223 100
0.15721303 1.2722021 0.055779677 100
0.16476643 1.2625446 0.076777689 29
0.17760468 1.2461302 0.095737889 25
0.1726329 1.2524869 0.11906482 100
0.20063469 1.2166849 0.13092151 32
0.14653456 1.2858553 0.17547931 42
0.16620603 1.2644278 0.010925206 100
0.19116732 1.232271 0.03066887 64
0.16027805 1.2720646 0.055605363 98
0.17509487 1.2529765 0.075071514 30
0.17935228 1.2474918 0.095737889 25
0.17681152 1.2507651 0.11830158 84
0.18554515 1.2395139 0.13722014 30
0.14605883 1.2903826 0.1765146 41
0.17517331 1.2561955 0.010715778 66
0.15855774 1.2777479 0.033599682 56
0.16924393 1.2638867 0.054559495 50
0.16579038 1.2683663 0.077265166 43
0.18093774 1.2487184 0.095737889 38
0.16761968 1.2659936 0.12173614 12
0.18353465 1.2453499 0.13856985 14
0.15132523 1.2871294 0.17496167 49
0.17687273 1.257501 0.010715778 66
0.16882992 1.2680092 0.032866981 29
0.16854832 1.2683771 0.054908119 50
0.18201059 1.2507882 0.074340299 46
0.18981475 1.2405919 0.093860678 52
0.19679809 1.231468 0.11295892 20
0.19704044 1.2311513 0.13407083 31
0.16135192 1.2777793 0.1713382 58
0.17123064 1.2682874 0.010925206 65
0.16806617 1.2724504 0.033076324 29
0.16538027 1.2759838 0.055605363 49
0.18961343 1.2441041 0.073121607 62
0.18898645 1.244929 0.094486415 52
0.1947661 1.2373255 0.11410378 13
0.20446807 1.2245622 0.13182132 47
0.17823583 1.2590718 0.16460891 69
0.16944665 1.2744615 0.011029921 76
0.16991031 1.2738469 0.033076324 29
0.17203692 1.2710279 0.054908119 50
0.18418059 1.2549303 0.074584037 61
0.19905704 1.2352101 0.092296332 53
0.18820497 1.2495955 0.1167751 13
0.21317801 1.2164912 0.1291219 40
0.17072347 1.272769 0.16875002 66
0.17232057 1.2741203 0.010995016 51
0.17876834 1.265514 0.032448292 29
0.17967346 1.2643058 0.054036561 51
0.1953125 1.2434311 0.072634131 63
0.20415485 1.2316285 0.09135773 54
0.19686013 1.2413654 0.1144854 13
0.20531303 1.2300825 0.13272113 31
0.18165922 1.2616553 0.16460891 69
0.18968123 1.2546393 0.010541254 81
0.19965348 1.2412263 0.030773543 32
0.18148768 1.2656598 0.054036561 51
0.19705009 1.244728 0.072634131 78
0.20467052 1.2344782 0.091670595 54
0.20327562 1.2363545 0.11295892 13
0.20932704 1.2282151 0.13182132 31
0.18346369 1.263002 0.16460891 69
0.1865392 1.2622664 0.010680873 80
0.2000317 1.2439923 0.030878214 63
0.18905059 1.258865 0.053165004 79
0.20098451 1.2427018 0.072146654 79
0.20151934 1.2419775 0.092922069 79
0.20948854 1.231184 0.11143246 14
0.21200594 1.2277746 0.13137141 31
0.1896905 1.2579982 0.16253836 70
0.19796872 1.2508136 0.010401634 83
0.19957748 1.2486163 0.031087559 63
0.18983892 1.2619176 0.053339314 100
0.20171216 1.2457007 0.072390392 47
0.20341679 1.2433726 0.092922069 100
0.20322409 1.2436357 0.11410378 13
0.22996324 1.2071147 0.12507279 16
0.18708742 1.2656757 0.16460891 69
0.19015744 1.2649174 0.010680873 80
0.21878442 1.2255447 0.029517479 67
0.19264382 1.2614977 0.053165004 100
0.20679367 1.2420363 0.071659178 80
0.20615011 1.2429216 0.092609204 93
0.20248759 1.2479589 0.11486702 13
0.22797656 1.2129021 0.12642249 16
0.186461 1.2700014 0.16564418 68
0.19414181 1.2628654 0.010611063 81
0.21795857 1.2298791 0.029726824 100
0.18494517 1.2756028 0.054559495 100
0.19906458 1.2560474 0.073609084 62
0.21697107 1.2312467 0.090106249 100
0.19947746 1.2554755 0.11639348 13
0.2385731 1.2013278 0.12282328 17
0.19603717 1.2602403 0.16202073 78
0.20043898 1.2575423 0.010471444 82
0.20086485 1.2569482 0.031401575 93
0.19591138 1.263857 0.053165004 100
0.20414838 1.2523686 0.072877869 94
0.21620038 1.2355593 0.090731993 95
0.2148169 1.237489 0.11181407 14
0.22978553 1.2166117 0.12687239 16
0.20216751 1.2551314 0.15995017 72
0.20454672 1.2555614 0.010401634 97
0.21654588 1.2386956 0.030145511 65
0.1884838 1.2781391 0.054559495 100
0.20706946 1.2520155 0.072634131 78
0.20989299 1.2480468 0.092922069 100
0.20970392 1.2483125 0.11410378 20
0.22464639 1.2273097 0.12957181 16
0.19498864 1.268996 0.16409127 69
0.20846647 1.2534378 0.010331824 98
0.21118742 1.2495863 0.030773543 96
0.19247007 1.2760806 0.054210871 100
0.21096057 1.2499074 0.072146654 79
0.21489951 1.2443318 0.091983467 93
0.20902631 1.2526453 0.11486702 47
0.22953796 1.2236112 0.12822211 24
0.19998938 1.265437 0.16253836 70
0.20326734 1.2644506 0.010541254 95
0.21859717 1.2425897 0.030250182 98
0.18966308 1.2838506 0.054908119 100
0.21947625 1.2413361 0.070684217 81
0.21882561 1.242264 0.09135773 100
0.20507714 1.2618697 0.1167751 99
0.23559877 1.2183449 0.12642249 49
0.20061174 1.2682375 0.163056 70
0.21176502 1.2557513 0.010331824 98
0.22244874 1.2404079 0.03004084 99
0.20275417 1.268692 0.053165004 100
0.21310067 1.2538331 0.072390392 95
0.22942382 1.2303908 0.088854775 98
0.21568504 1.2501216 0.11372216 82
0.23263299 1.225782 0.12822211 81
0.20557764 1.2646372 0.16150309 70
0.21354765 1.2569877 0.010331824 84
0.22076923 1.2465351 0.030354854 97
0.20911434 1.2634046 0.052467756 100
0.21600464 1.2534314 0.072146654 63
0.23223624 1.2299376 0.08854191 84
0.22525868 1.240037 0.11105084 91
0.22544408 1.2397686 0.13182132 94
0.21068719 1.2611279 0.15995017 72
0.21516442 1.2581007 0.010331824 84
0.22913024 1.2377423 0.029726824 100
0.20737121 1.2694612 0.05299069 79
0.22322431 1.2463516 0.070927955 48
0.22258875 1.2472781 0.091670595 100
0.22792974 1.2394923 0.11066922 92
0.22369653 1.2456632 0.13317102 93
0.21231768 1.2622505 0.15995017 72
0.22266534 1.2511163 0.0101573 85
0.23429906 1.234017 0.029412808 67
0.21041226 1.2691258 0.05281638 100
0.22058919 1.2541678 0.071902916 100
0.2277573 1.2436321 0.090731993 100
0.22642174 1.2455951 0.11181407 100
0.23539114 1.2324119 0.1291219 96
0.2087768 1.2715297 0.16253836 70
0.21978509 1.2588272 0.010296919 42
0.23695755 1.2334063 0.029308135 34
0.20649287 1.2785041 0.053687938 78
0.22219655 1.2552575 0.071902916 96
0.22932971 1.244698 0.090731993 100
0.22800064 1.2466655 0.11181407 98
0.23910797 1.2302229 0.12822211 100
0.21368599 1.2678559 0.16098544 72
0.21258479 1.2732644 0.010576159 40
0.218557 1.2643567 0.03119223 31
0.21603659 1.268116 0.052467756 53
0.22499785 1.25475 0.071659178 80
0.23538882 1.2392516 0.089480512 100
0.22966647 1.2477865 0.11181407 98
0.23637551 1.2377799 0.13002171 96
0.21757749 1.2658176 0.15995017 72
0.22090393 1.2643929 0.010366729 41
0.23126534 1.2488272 0.030145511 32
0.22321033 1.260928 0.051596198 54
0.22660714 1.255825 0.071659178 80
0.23585206 1.2419367 0.089793384 100
0.23886776 1.2374063 0.10914274 85
0.23144946 1.2485505 0.13272113 94
0.2192235 1.2669173 0.15995017 72
0.23153386 1.2522464 0.010087491 43
0.2088089 1.2866583 0.032448292 29
0.22281599 1.2654476 0.051944822 54
0.22838995 1.2570071 0.071659178 64
0.23540679 1.2463816 0.090419121 100
0.240583 1.2385434 0.10914274 85
0.23427945 1.2480887 0.13227122 94
0.21891788 1.2713504 0.16098544 72
0.22436345 1.2666783 0.010366729 27
0.21490443 1.2811058 0.032029606 30
0.22664559 1.2631974 0.051596198 54
0.23653716 1.2481103 0.07019674 82
0.23915443 1.2441183 0.089793384 83
0.24106199 1.2412088 0.10952436 92
0.24227747 1.2393548 0.12957181 96
0.22693756 1.2627521 0.15787962 73
0.23272774 1.2578106 0.0101573 28
0.23420325 1.2555419 0.030354854 32
0.21867871 1.2794111 0.053165004 52
0.23612699 1.2525841 0.070684217 81
0.24735638 1.2353188 0.087916173 84
0.23850948 1.248921 0.11105084 84
0.24718732 1.2355788 0.12822211 89
0.22453257 1.2704108 0.15995017 72
0.22783881 1.2689395 0.010366729 41
0.24773246 1.2381297 0.029203463 68
0.23009661 1.2654428 0.051596198 54
0.23234504 1.2619606 0.071902916 48
0.25533026 1.2263628 0.086038955 87
0.24222925 1.2466527 0.1102876 85
0.25296122 1.2300318 0.12642249 99
0.23143336 1.2633725 0.15736198 74
0.24045521 1.253278 0.010017681 72
0.24837303 1.2409163 0.029308135 68
0.23406386 1.2632565 0.051247578 55
0.24271572 1.2497488 0.069953002 49
0.25274315 1.2340934 0.087290429 85
0.24927282 1.2395115 0.10837951 87
0.24624074 1.2442453 0.13002171 96
0.23741165 1.2580298 0.15529142 75
0.24205953 1.2543018 0.010017681 72
0.244578 1.2503409 0.029831495 66
0.22607991 1.2794333 0.05281638 79
0.24111292 1.2557906 0.070684217 65
0.24368462 1.2517461 0.090419121 82
0.24451098 1.2504464 0.11066922 92
0.25199756 1.2386721 0.12822211 89
0.23592207 1.2639543 0.15684435 66
0.24908727 1.2469178 0.0098431576 88
0.25051963 1.2446476 0.029412808 100
0.22573379 1.2839308 0.053165004 79
0.24492908 1.2535081 0.07019674 66
0.25380081 1.2394474 0.087916173 70
0.25142801 1.2432079 0.10876112 79
0.26195437 1.2265247 0.12462288 100
0.23146302 1.2748506 0.15995017 72
0.24536318 1.2563868 0.010017681 87
0.25527576 1.2405602 0.029098792 100
0.23801559 1.2681179 0.051421888 82
0.23915821 1.2662935 0.071902916 48
0.25745627 1.2370787 0.087290429 71
0.23528302 1.2724807 0.11524864 87
0.26346982 1.2274774 0.12462288 100
0.2351898 1.2726296 0.15891489 65
0.23765081 1.2727875 0.010331824 84
0.25700241 1.2416372 0.029098792 100
0.2429975 1.2641809 0.050898954 55
0.25145459 1.2505676 0.069465525 66
0.26542458 1.22808 0.085413218 73
0.2547389 1.2452809 0.10876112 79
0.26412016 1.2301798 0.12507279 92
0.24111187 1.2672162 0.15684435 66
0.25401416 1.2499912 0.0098431576 88
0.25227815 1.2528064 0.029726824 100
0.24777523 1.2601086 0.05037602 84
0.24679828 1.2616929 0.070927955 48
0.26279786 1.2357469 0.086664692 71
0.24807286 1.2596259 0.11181407 84
0.26155633 1.2377602 0.12687239 99
0.24884629 1.2583717 0.15373851 68
0.25264534 1.2561905 0.0099478718 87
0.25196555 1.257302 0.029936166 99
0.25373176 1.2544142 0.049678773 86
0.25792402 1.2475597 0.068734311 50
0.26244551 1.2401668 0.087290429 71
0.26625884 1.2339318 0.10570818 81
0.266323 1.2338269 0.12552269 99
0.2466065 1.2660644 0.15580906 67
0.24915734 1.2657733 0.010122396 85
0.25988513 1.2480946 0.029308135 100
0.24302131 1.2758852 0.051770512 81
0.2595928 1.2485763 0.068734311 84
0.25998938 1.2479227 0.08854191 56
0.25565818 1.2550603 0.1102876 85
0.26996568 1.2314823 0.12462288 83
0.24633554 1.2704235 0.15684435 66
0.25707823 1.2565415 0.0099129668 87
0.26464623 1.243971 0.028994121 100
0.24992728 1.2684191 0.050898954 83
0.24897853 1.269995 0.071659178 80
0.27082923 1.2337011 0.08572609 58
0.25735316 1.2560848 0.1102876 99
0.27559879 1.2257788 0.12282328 93
0.2530663 1.2632053 0.15425615 67
0.25467667 1.264428 0.010052586 86
0.26322991 1.2501082 0.029308135 100
0.2516689 1.2694635 0.050898954 83
0.25886917 1.2574089 0.069709264 49
0.27244955 1.2346728 0.08572609 58
0.26307866 1.2503614 0.10876112 72
0.27419353 1.231753 0.12417299 83
0.25877836 1.257561 -0.0099129668 87
0.25181779 1.2692143 0.15580906 67
0.26252091 1.2551339 0.0098431576 88
0.26287115 1.2545428 0.029517479 100
0.25849271 1.2619317 0.050027397 85
0.25450042 1.2686688 0.071171694 81
0.27105215 1.240737 0.086664692 57
0.2617546 1.256427 0.10990598 78
0.27680048 1.2310364 0.12372308 92
0.25947127 1.2602803 0.15270324 68
0.26624292 1.2526866 0.0097733475 89
0.26861301 1.248655 0.029098792 100
0.26021165 1.2629461 0.050027397 85
0.26529706 1.2542956 0.068978049 50
0.27570033 1.2365991 0.08572609 58
0.27240887 1.242198 0.10647142 81
0.27446109 1.2387071 0.12552269 82
0.25726828 1.267953 0.15477379 67
0.27179271 1.2466675 0.0096337283 90
0.27011815 1.2495366 0.029098792 100
0.2617617 1.2638541 0.050027397 85
0.27282375 1.2449009 0.067515619 51
0.27218884 1.2459888 0.087290429 57
0.26894554 1.2515457 0.10837951 79
0.28281111 1.227789 0.12237337 76
0.26078171 1.2655332 0.15373851 68
0.26243672 1.2666719 0.010017681 87
0.27479598 1.2453253 0.028784776 100
0.25649923 1.276927 0.051247578 82
0.27249384 1.2493014 0.068003096 51
0.2797907 1.2366985 0.085413218 73
0.26669335 1.2593199 0.10990598 78
0.28734002 1.2236595 0.12102367 77
0.26744652 1.2580191 -0.0098431576 87
0.25670537 1.2765709 0.15684435 66
0.266164 1.2642045 0.0099478718 73
0.27745155 1.2445512 0.028680105 100
0.26223963 1.2710376 0.05055033 100
0.27021405 1.2571528 0.068978049 50
0.28240526 1.2359259 0.085100345 58
0.27035865 1.256901 0.10914274 85
0.28698412 1.2279534 0.12192347 85
0.26815584 1.2607365 -0.0098780617 87
0.26424819 1.2675403 0.15373851 68
0.27481982 1.2530297 0.0097035384 90
0.27317777 1.2559121 0.029308135 100
0.26990777 1.261652 0.049504463 86
0.27191624 1.2581265 0.068978049 50
0.28207761 1.2402899 0.08572609 58
0.27108815 1.25958 0.10952436 100
0.28376111 1.2373348 0.12417299 92
0.26789084 1.2651923 -0.0099478718 96
0.26789922 1.2651776 0.15270324 68
0.27454001 1.2574692 0.0097733475 89
0.27487561 1.2568753 0.029308135 100
0.27064547 1.2643613 0.049678773 86
0.2775282 1.2521812 0.068003096 51
0.27691811 1.2532609 0.087916173 70
0.28632081 1.2366213 0.10418171 75
0.29210505 1.2263851 0.12102367 77
0.2658278 1.2728869 0.15477379 67
0.27917638 1.2531946 0.0096686333 75
0.28634194 1.2404101 0.028261416 100
0.26750216 1.2740234 0.05055033 84
0.28309524 1.2462027 0.067028143 69
0.28440157 1.243872 0.086038955 72
0.2821919 1.2478144 0.10647142 81
0.29084134 1.2323824 0.12237337 85
0.26664039 1.275561 0.15529142 75
0.28103372 1.254231 0.0096686333 75
0.28427085 1.2484031 0.028680105 100
0.26943955 1.2751044 0.05055033 84
0.28107008 1.2541655 0.068003096 51
0.29293737 1.2328004 0.083848871 59
0.28498188 1.247123 0.1060898 73
0.29734993 1.2248563 0.12012386 86
0.27139786 1.2715788 0.15373851 68
0.27597141 1.2674274 0.0099129668 87
0.28786984 1.2458289 0.02847076 100
0.2740885 1.2708454 0.050027397 85
0.2789304 1.2620561 0.068978049 50
0.29455441 1.2336948 0.083848871 59
0.28285971 1.2549235 0.10761628 79
0.29705861 1.2291491 0.12102367 86
0.27597141 1.2674274 -0.0099129668 87
0.28247193 1.2556274 0.14856213 71
0.28425115 1.2560041 0.0096686333 75
0.28936598 1.2466501 0.02847076 100
0.28139856 1.2612209 0.048981529 87
0.28142995 1.2611636 0.068734311 33
0.29411697 1.2379614 0.084474608 59
0.28626826 1.2523153 0.10685304 81
0.29850233 1.2299415 0.12102367 77
0.2765761 1.2700404 -0.0099478718 96
0.27843788 1.2666355 0.15166797 69
0.288809 1.2516552 0.0095639192 91
0.2891272 1.2510684 0.028680105 100
0.2888135 1.251647 0.047935657 89
0.29166266 1.2463928 0.066540658 52
0.29198539 1.2457978 0.08572609 58
0.28795347 1.253233 0.10685304 88
0.28201494 1.264184 0.15063268 70
0.29049188 1.252564 0.0095639192 91
0.29459187 1.2449399 0.028261416 100
0.27539796 1.2806317 0.05072464 84
0.28768602 1.2577816 0.068003096 51
0.29739016 1.2397364 0.084474608 59
0.29429111 1.2454993 0.10494494 75
0.28102079 1.2701759 -0.0099129668 87
0.28008169 1.2719221 0.15270324 76
0.28841409 1.2605249 0.0097035384 90
0.29625127 1.2458286 0.028261416 100
0.28468221 1.2675228 0.049330149 87
0.28752211 1.2621975 0.068490572 50
0.29318106 1.2515858 0.1060898 73
0.28841409 1.2605249 -0.0097035384 89
0.28274441 1.2711565 0.1521856 77
0.29480189 1.2525961 0.0095290141 61
0.29698011 1.248477 0.028366089 100
0.28362638 1.2737298 0.049853086 57
0.29480958 1.2525816 0.067028143 51
0.29119265 1.2594216 0.10761628 72
0.29199752 1.2578995 -0.0096337283 89
0.28810769 1.2652553 0.15011504 78
0.29277357 1.2605681 0.0096686333 75
0.29957935 1.2475885 0.028261416 100
0.29278815 1.2605402 0.048458595 88
0.29741749 1.2517114 0.066784397 69
0.28720188 1.2711941 -0.0098780617 97
0.2925294 1.2610338 0.14856213 71
0.29909968 1.2525918 0.0094941091 92
0.28990671 1.2702739 0.049330149 87
0.29452208 1.2613965 0.068003096 51
0.28618568 1.2774311 -0.0099827768 96
0.294245 1.2619295 0.14856213 71
0.29895329 1.2570195 0.0095639192 91
0.28891593 1.2764916 0.049853086 57
0.29419342 1.2662536 0.14959741 78
0.2988348 1.2614542 0.0096337283 90
0.29612568 1.2667551 0.048807215 58
0.29795885 1.2631681 0.068003096 100
0.29155466 1.2756993 -0.0099129668 100
0.29065236 1.2774647 0.15270324 68
0.29964805 1.2641118 -0.0096686333 100
0.2941938 1.279278 -0.0099478718 100
0.29686442 1.2783779 -0.0099129668 100
0.29687038 1.2828448 -0.0099827768 100
