# .PCD v0.7 - Point Cloud Data file format
VERSION 0.7
FIELDS x y z intensity
SIZE 4 4 4 4
TYPE F F F F
COUNT 1 1 1 1
WIDTH 780
HEIGHT 1
VIEWPOINT 0 0 0 1 0 0 0
POINTS 780
DATA ascii
-1.1721835 0.16557424 0.020663649 25
-1.1391133 0.16090298 0.060291022 31
-1.1063176 0.16001415 0.019511791 5
-1.0325897 0.1528479 0.018220313 6
-0.99050444 0.15033025 0.017487312 4
-1.053234 0.16342571 0.018604266 1
-1.0347842 1.0828398 0.026143705 1
-1.0309981 1.0864453 0.026143705 1
-0.95149475 1.0456791 0.024677703 2
-0.95856404 1.0608639 0.024956942 4
-0.95522654 1.0638701 0.024956942 8
-0.9501763 1.0657053 0.024922036 6
-0.95554101 1.0796629 0.02516637 1
-0.32712248 1.0814351 0.019721219 1
-0.3210564 1.0749062 0.019581599 1
-0.31617111 1.0721843 0.019511791 1
-0.31130877 1.0694414 0.019441981 2
-0.30886573 1.0743115 0.019511791 2
-0.30238467 1.0657643 0.019337267 3
-0.29596713 1.0571851 0.019162742 8
-0.29174268 1.0562842 0.019127838 10
-0.28805378 1.0572962 0.019127838 9
-0.28695589 1.0679512 0.019302361 8
-0.28117767 1.0612143 0.019162742 7
-0.27443913 1.0505807 0.018953314 7
-0.26714265 1.035947 0.018674076 6
-0.26500258 1.0426874 0.01877879 3
-0.25407431 1.0145092 0.018255217 3
-0.25292659 1.0250973 0.018429741 3
-0.20160808 0.99359798 0.01769674 4
-0.19931096 1.0001791 0.017801454 6
-0.19505055 0.99694377 0.017731644 6
-0.19420911 1.0113653 0.017975979 8
-0.18697514 0.9923858 0.01762693 7
-0.18368323 0.99300039 0.01762693 7
-0.18235707 1.0054411 0.01783636 7
-0.17692249 0.99625826 0.017661836 6
0.056494951 0.0021715164 0.047835063 72
0.052866012 0.002135694 0.047939736 52
0.049097419 0.0022029281 0.04804441 36
0.044360399 0.0005299449 0.048253752 22
0.0497576 0.014789045 0.015811881 4
0.04343468 0.010724425 0.047835063 75
0.040655196 0.012586176 0.047835063 37
0.033666193 0.0076647401 0.048253752 17
0.030875564 0.0095623732 0.048253752 17
0.035145998 0.021162808 0.047625721 9
0.032535195 0.022964537 0.047625721 9
0.016348124 0.0050279498 0.048881784 7
-0.8322944 0.64663351 0.02422394 3
-0.79087645 0.65504634 0.023490939 4
-0.7255016 0.66513467 0.02233908 11
-0.67002422 0.67376775 0.021361746 19
-0.68828267 0.67645836 0.021675888 35
-0.65667409 0.68286943 0.021117412 39
-0.6609754 0.68701929 0.021187222 45
-0.67321664 0.69025493 0.02139665 30
-0.66751295 0.6951071 0.021291936 21
-0.67573982 0.69868034 0.021431556 30
-0.67400795 0.7034958 0.02139665 39
-0.66423625 0.7080645 0.021222126 53
-0.68842453 0.71138072 0.021640984 17
-1.0101101 1.124162 0.083842203 3
-1.0451655 1.1321199 0.14310972 6
-1.0283027 1.1340897 0.028272899 7
-0.99718755 1.1269119 0.083214171 9
-1.0205948 1.1323116 0.14101799 13
-1.0037224 1.1338501 0.02785404 12
-1.0057187 1.1343176 0.08373753 65
-1.0193846 1.1375179 0.14101799 53
-0.99271578 1.1369576 0.027679516 36
-0.983064 1.1346619 0.082586139 100
-1.0277839 1.1452992 0.14188954 100
-0.9875378 1.1414015 0.027609708 38
-0.9837231 1.14048 0.082690813 100
-1.0032239 1.1451905 0.13979781 84
-0.98234779 1.1458136 0.027539898 35
-0.99211949 1.1482102 0.083214171 100
-0.99029452 1.1477625 0.13875194 91
-0.98102659 1.1511602 0.027539898 23
-0.98109943 1.1511784 0.082690813 67
-0.99476665 1.1545808 0.13927488 89
-0.97193176 1.1545427 0.027400278 30
-0.98363227 1.1574991 0.082900152 37
-0.99727815 1.1609468 0.13962349 69
-0.96670598 1.1588596 0.027330469 50
-0.96485811 1.1583859 0.081958108 36
-0.99590403 1.1663456 0.13962349 81
-0.96920997 1.1651583 0.027400278 59
-0.96735913 1.1646769 0.082167454 88
-0.9810136 1.1682285 0.13840333 91
-0.96395439 1.1694386 0.027330469 71
-0.97562808 1.1725186 0.082690813 90
-0.96998185 1.171029 0.13753176 98
-0.94709688 1.1705859 0.027051231 83
-0.95877868 1.1737115 0.081853434 94
-0.97049743 1.1768472 0.13770607 100
-0.94761938 1.1763328 0.027086135 89
-0.94772238 1.1763608 0.081330076 98
-0.96906799 1.1821523 0.13770607 100
-0.95004803 1.1826187 0.027155945 92
-0.93281466 1.1778784 0.080597371 100
-0.97338313 1.1890376 0.13822901 98
-0.95637685 1.1897378 0.027295563 93
-0.94299775 1.1860099 0.081225403 92
-0.96046954 1.1908783 0.13718314 94
-0.93950707 1.1906457 0.027016325 92
-0.94153649 1.1912189 0.081225403 84
-0.94940418 1.1934408 0.13631158 100
-0.94941491 1.1996671 0.027225753 63
-0.9379881 1.1963927 0.081120729 62
-0.94202131 1.1975484 0.13578865 100
-0.95558745 1.2071286 0.027365373 41
-0.92690045 1.1987997 0.080597371 24
-0.95391351 1.2066426 0.13700883 91
-0.93494433 1.2064797 0.027016325 53
-0.91780561 1.201442 0.080178685 26
-0.95245725 1.2116274 0.13700883 84
-0.93724471 1.2128017 0.027086135 75
-0.92011899 1.2077028 0.080388032 26
-0.93181103 1.2111839 0.13526571 91
-0.91853637 1.2125384 0.026771991 75
-0.92630869 1.2148806 0.080806717 46
-0.92652458 1.2149456 0.1349171 99
-0.91124481 1.2159109 0.026667276 81
-0.91901594 1.2182822 0.080492698 98
-0.9211511 1.2189338 0.13456847 100
-0.90960068 1.2212636 0.026667276 85
-0.90782231 1.2207139 0.079969339 86
-0.92901331 1.2272654 0.13544002 89
-0.9080165 1.2263558 0.026667276 92
-0.90052193 1.22401 0.079655327 80
-0.92930955 1.2330205 0.13561434 56
-0.91022724 1.2326504 0.026737086 85
-0.90083224 1.2296737 0.07976 70
-0.90869087 1.2321637 0.13387123 43
-0.89717835 1.2340809 0.026527658 79
-0.90492445 1.236565 0.080074012 78
-0.89947993 1.2348189 0.13317397 46
-0.88810426 1.2361586 0.026388038 88
-0.9034515 1.2411335 0.080074012 98
-0.91127962 1.2436709 0.13439415 54
-0.89026839 1.2424222 0.026457848 100
-0.88851374 1.2418467 0.079341307 100
-0.90772408 1.2481478 0.13421984 70
-0.89232284 1.2489583 0.026527658 99
-0.88487917 1.2464864 0.079236634 100
-0.91541618 1.256627 0.13509139 82
-0.88685101 1.2527164 0.026457848 96
-0.88320714 1.2514923 0.079236634 100
-0.89671069 1.2560288 0.1335226 88
-0.87766856 1.2549061 0.02631823 99
-0.88538486 1.2575269 0.07944598 100
-0.88754481 1.2582605 0.13282534 88
-0.86462003 1.2559884 0.0261088 99
-0.88367432 1.2625344 0.07944598 100
-0.89148456 1.2652175 0.13334829 100
-0.87424845 1.2648611 0.02631823 88
-0.86685342 1.2622917 0.07860861 100
-0.90480334 1.2754776 0.13474278 85
-0.86873919 1.2685039 0.02624842 81
-0.85758907 1.2645861 0.078189917 76
-0.91430837 1.2845156 0.13578865 43
-0.86322182 1.2721143 0.02617861 83
-0.85397202 1.2688278 0.078085244 38
-0.88621968 1.2802854 0.13334829 35
-0.86146051 1.2770443 0.02617861 96
-0.85034257 1.2730503 0.077980578 19
-0.87130421 1.2805804 0.1321281 31
-0.84840459 1.2778723 0.025969181 96
-0.86171907 1.2827079 0.078713275 59
-0.87513143 1.2875789 0.13265105 18
-0.85037762 1.2841289 0.026038991 99
-0.8505463 1.2841909 0.078189917 100
-0.8620941 1.2884305 0.13160518 13
-0.84866494 1.28877 0.026038991 100
-0.84696096 1.2881379 0.078085244 100
-0.8678394 1.2958817 0.13230242 3
-0.85059053 1.2950529 0.0261088 100
-0.83018249 1.2874024 0.077247873 48
-0.87159187 1.3029258 0.13282534 1
-0.83752924 1.2956878 0.025899371 96
-0.84144193 1.2971702 0.077980578 48
-0.8417756 1.2972965 0.13021068 5
-0.83195084 1.299098 0.025829561 77
-0.84891945 1.3055947 0.078503937 55
-0.8436479 1.3035764 0.1305593 22
-0.82823056 1.3031971 0.025794657 74
-0.8340022 1.3054301 0.077771232 68
-0.84177691 1.3084378 0.1305593 61
-0.83381075 1.3109169 0.025934275 83
-0.81724328 1.3044409 0.076933853 69
-0.8603012 1.3212717 0.13247673 100
-0.83377415 1.3164785 0.025969181 96
-0.82094234 1.311411 0.077247873 72
-0.82686526 1.31375 0.12951343 95
-0.81699938 1.3153775 0.025689943 100
-0.82831949 1.3198937 0.077771232 89
-0.82125777 1.3170764 0.12916481 93
-0.80785936 1.316682 0.025550323 100
-0.82473236 1.3234751 0.077666558 91
-0.82877344 1.3251021 0.13003637 100
-0.8096475 1.3229251 0.025620133 100
-0.81539148 1.3252609 0.077247873 100
-0.83605546 1.3336643 0.13090792 100
-0.76110262 1.3031833 0.17378569 15
-0.80751449 1.3281417 0.025620133 100
-0.79292995 1.3221452 0.076096483 100
-0.82282454 1.3344364 0.12986206 100
-0.78842109 1.3202915 0.1776855 18
-0.81294519 1.3359443 0.025759751 100
-0.79837269 1.3298934 0.076515168 100
-0.81164569 1.3354046 0.1289905 100
-0.78832537 1.3257213 0.17792924 18
-0.80009407 1.3355874 0.025550323 100
-0.79476494 1.3333548 0.076410495 100
-0.80802506 1.3389099 0.12881619 100
-0.79023486 1.3314571 0.17841671 19
-0.79074484 1.3371803 0.025410704 100
-0.79646915 1.3396018 0.076619841 94
-0.80603093 1.3436468 0.12881619 100
-0.76998442 1.328398 0.17597933 18
-0.79795164 1.3457844 0.025585229 68
-0.78712577 1.3411602 0.076201156 45
-0.80768472 1.349942 0.12916481 80
-0.76985282 1.333782 0.17622307 15
-0.81429559 1.3584055 0.025934275 67
-0.80896538 1.3561068 0.077561885 61
-0.83675331 1.3680913 0.1321281 16
-0.78792745 1.3470333 0.17890419 5
-0.81039983 1.3623658 0.025899371 100
-0.7977553 1.3568599 0.077038527 100
-0.81090981 1.3625879 0.12986206 75
-0.7749849 1.3469449 0.17744176 16
-0.7973401 1.3622825 0.025689943 100
-0.81581098 1.3704022 0.078189917 100
-0.81248087 1.3689383 0.13021068 100
-0.79840451 1.3627504 0.18085411 35
-0.78978103 1.3645487 0.025585229 100
-0.81553239 1.3759763 0.07829459 100
-0.81402415 1.3753068 0.1305593 100
-0.7763682 1.3585966 0.17817298 33
-0.79327744 1.3714398 0.025689943 100
-0.8007552 1.3747879 0.077561885 100
-0.80837244 1.3781985 0.13021068 100
-0.75085586 1.352446 0.17500438 22
-0.80028099 1.3802428 0.025864467 100
-0.80045587 1.3803217 0.077666558 100
-0.81350356 1.3862185 0.13090792 100
-0.77775782 1.3700637 0.17890419 17
-0.80188888 1.3863763 0.025934275 100
-0.8111456 1.3905966 0.078399263 100
-0.80420119 1.3874304 0.13021068 100
-0.77034193 1.3719928 0.17817298 14
-0.792247 1.3882163 0.025794657 100
-0.80331033 1.393312 0.078085244 100
-0.80182046 1.3926257 0.13021068 100
-0.77883905 1.3820407 0.17963541 12
-0.79381663 1.3943491 0.025864467 100
-0.81029242 1.402004 0.07860861 100
-0.79974824 1.397105 0.13021068 100
-0.7840032 1.3897898 0.18061037 14
-0.79343957 1.3998851 0.025899371 100
-0.80265301 1.4042048 0.07829459 100
-0.8083747 1.4068875 0.13125655 100
-0.75487143 1.381802 0.17695428 7
-0.8003822 1.4086111 0.026073895 100
-0.80054241 1.4086869 0.07829459 100
-0.81345981 1.4147956 0.13195379 100
-0.78693169 1.4022503 0.18158533 3
-0.80164164 1.4152792 0.026143705 100
-0.80179733 1.4153535 0.078503937 100
-0.80389541 1.4163551 0.13125655 100
-0.78688234 1.4136853 0.025899371 100
-0.80504841 1.4224319 0.078817949 100
-0.79815429 1.4191127 0.13090792 100
-0.78451413 1.418581 0.025899371 100
-0.80983335 1.4308863 0.079236634 100
-0.81010181 1.4310167 0.13230242 100
-0.79672104 1.4300432 0.02617861 100
-0.79866713 1.4309971 0.078713275 100
-0.80790228 1.4355234 0.13230242 100
-0.79787761 1.436748 0.02624842 100
-0.79265493 1.4341646 0.078503937 100
-0.81616896 1.4457963 0.13334829 100
-0.79565912 1.4412141 0.02624842 100
-0.79759413 1.4421794 0.078922622 100
-0.80322307 1.4449871 0.13230242 100
-0.78961772 1.4443436 0.02617861 100
-0.80225736 1.4507061 0.079341307 100
-0.79718071 1.4481506 0.13195379 100
-0.78737408 1.4487821 0.02617861 100
-0.80355459 1.4569945 0.079550654 100
-0.80558437 1.4580247 0.13299966 100
-0.78843695 1.4555024 0.02624842 100
-0.8010276 1.461951 0.079550654 100
-0.81192023 1.4675298 0.13387123 100
-0.80037075 1.4672768 0.026527658 100
-0.79872555 1.4664273 0.079550654 100
-0.80959958 1.4720422 0.13387123 100
-0.80147582 1.4738336 0.026597468 100
-0.7962864 1.471131 0.079550654 100
-0.80007237 1.4731027 0.13317397 100
-0.78497022 1.470875 0.02631823 99
-0.79572231 1.4765201 0.079655327 100
-0.80126137 1.4794281 0.1335226 100
-0.78239244 1.4757632 0.02631823 63
-0.78782886 1.4786429 0.079341307 65
-0.80041283 1.4853085 0.13369691 91
0.13155633 1.2900671 0.12975012 11
0.20061725 1.204234 0.128672 8
0.15176448 1.2683257 0.011134636 25
0.15973085 1.258357 0.032762308 29
0.17187685 1.2431583 0.05299069 26
0.1360836 1.2879477 0.081408724 13
0.14797506 1.2730675 0.10199527 11
0.13696015 1.2868508 0.12860526 46
0.15924525 1.2589647 0.16771474 7
0.15847808 1.2634467 0.010995016 100
0.16516215 1.2550225 0.032448292 89
0.15619338 1.2663262 0.055431053 74
0.1625711 1.2582881 0.076533951 14
0.17183414 1.2466137 0.096363634 25
0.17049402 1.2483027 0.1186832 100
0.1805672 1.2356071 0.13722014 30
0.15134838 1.2724326 0.17185585 29
0.16762763 1.2553854 0.010785587 100
0.16314971 1.2610698 0.032762308 100
0.15299657 1.2739582 0.056128297 100
0.16304949 1.261197 0.076777689 29
0.17350015 1.2479308 0.096363634 37
0.16487652 1.2588778 0.1209729 100
0.18340066 1.235363 0.13677025 45
0.14951822 1.2783736 0.17340876 42
0.1656284 1.2614427 0.010890301 100
0.17594036 1.2482581 0.03182026 100
0.15230319 1.2784797 0.056476921 100
0.16109756 1.2672355 0.077508904 29
0.17273676 1.2523541 0.096989371 37
0.17505193 1.2493941 0.11830158 100
0.19343129 1.2258949 0.13362093 38
0.1489149 1.2828119 0.17444403 42
0.16489327 1.2659402 0.010960111 100
0.18128696 1.2448285 0.031506244 62
0.15652451 1.2767174 0.056128297 72
0.17014056 1.2591827 0.076046467 29
0.18896127 1.2349454 0.093234941 26
0.18756455 1.2367442 0.11486702 81
0.19263443 1.2302152 0.13452072 31
0.14596799 1.2903121 0.1765146 41
0.16540584 1.2688651 0.010995016 64
0.1707522 1.2619302 0.032552965 59
0.16194507 1.2733542 0.055605363 49
0.18518266 1.2432122 0.073365346 46
0.18576208 1.2424606 0.094486415 39
0.17481178 1.2566645 0.11944643 12
0.18829393 1.2391765 0.13677025 15
0.15014571 1.2886593 0.17547931 49
0.17201114 1.2638528 0.010855397 52
0.18461084 1.247391 0.031506244 31
0.17823598 1.2557199 0.053513627 52
0.18442366 1.2476355 0.073852822 46
0.19461721 1.2343173 0.092609204 53
0.19321835 1.236145 0.11410378 20
0.19467157 1.2342463 0.13497064 30
0.16604859 1.271643 0.16926765 59
0.17373732 1.2651691 0.010855397 52
0.15969524 1.2836488 0.033809029 28
0.17029029 1.2697055 0.054908119 50
0.18609312 1.2489088 0.073852822 46
0.1914596 1.2418463 0.093860678 52
0.19603547 1.2358243 0.11372216 13
0.19747329 1.2339321 0.13452072 46
0.17598358 1.262213 0.16564418 68
0.17546806 1.2664796 0.010855397 39
0.16870749 1.2754414 0.033180997 28
0.17323679 1.2694373 0.054733805 50
0.18896255 1.2485913 0.073609084 77
0.19072956 1.246249 0.094486415 52
0.19766366 1.2370571 0.11372216 13
0.20848364 1.2227142 0.13092151 40
0.17770401 1.2635156 0.16564418 68
0.17720339 1.2677839 0.010855397 39
0.17047414 1.2767693 0.033180997 28
0.17378813 1.2723442 0.054908119 50
0.19301525 1.2466708 0.073121607 62
0.19121006 1.2490813 0.094799288 51
0.18988127 1.2508556 0.1167751 13
0.22174755 1.2083055 0.12642249 33
0.17711291 1.2679048 0.16667947 67
0.18004954 1.2674129 0.010820492 78
0.18407607 1.261999 0.032134276 30
0.17783409 1.2703917 0.054559495 50
0.1945979 1.2478521 0.073121607 78
0.20694721 1.2312479 0.091044858 54
0.19733602 1.2441704 0.11486702 13
0.20924708 1.2281556 0.13182132 31
0.18222475 1.2644882 0.16512655 68
0.1865392 1.2622664 0.010680873 93
0.20596337 1.2359586 0.030354854 65
0.17958304 1.2716877 0.054559495 76
0.19626808 1.2490897 0.073121607 78
0.20386603 1.2387991 0.092296332 80
0.20249173 1.2406604 0.11372216 13
0.21432096 1.2246392 0.13047162 32
0.18854302 1.2595525 0.163056 70
0.19307339 1.257143 0.010541254 95
0.20885393 1.2356052 0.030250182 65
0.184957 1.2682204 0.054036561 77
0.19685316 1.2519842 0.073365346 100
0.19974908 1.2480319 0.093860678 91
0.20537949 1.2403473 0.11334054 13
0.22750714 1.2101469 0.12597258 16
0.1880562 1.2639906 0.16409127 69
0.1971285 1.2551515 0.010471444 96
0.21048129 1.2367933 0.030250182 65
0.18318251 1.2743254 0.054559495 76
0.20437598 1.2451872 0.072146654 63
0.2002579 1.250849 0.094173551 100
0.21395221 1.2320212 0.11105084 14
0.23592311 1.2018141 0.12327318 17
0.19091907 1.2636887 0.16357364 69
0.19180062 1.2661079 0.010680873 80
0.21211275 1.2379756 0.030250182 65
0.19777456 1.257834 0.05264207 79
0.20255071 1.251219 0.072877869 94
0.21581471 1.2328483 0.090419121 100
0.21096998 1.2395582 0.1125773 13
0.2328693 1.2092276 0.12507279 16
0.18812108 1.2712042 0.16564418 68
0.19586438 1.2641046 0.010611063 94
0.21025786 1.2440223 0.030564198 97
0.20064023 1.2574412 0.052467756 100
0.20770183 1.2475885 0.072146654 79
0.21628165 1.2356176 0.090731993 95
0.21146744 1.2423346 0.11295892 13
0.24689204 1.1929088 0.12012386 8
0.20000139 1.2583325 0.16098544 72
0.1975913 1.2653377 0.010611063 94
0.21307239 1.2435778 0.030459527 65
0.20003384 1.2619046 0.05281638 100
0.21282333 1.243928 0.071415432 64
0.2156187 1.2399988 0.09135773 100
0.20742768 1.2515119 0.11486702 20
0.23029491 1.2193704 0.1273223 16
0.20170811 1.2595513 0.16098544 72
0.20855084 1.2534974 0.010331824 98
0.22048825 1.2365938 0.029936166 99
0.1994544 1.2663782 0.053165004 100
0.21906018 1.238616 0.070440479 49
0.21954039 1.237936 0.090731993 100
0.21137559 1.2494974 0.11410378 48
0.22512054 1.2300344 0.13002171 24
0.19784704 1.2686541 0.16357364 69
0.21015605 1.254627 0.010331824 98
0.21974388 1.2409545 0.030145511 98
0.19881451 1.2708004 0.053513627 100
0.21719676 1.2445867 0.071171694 65
0.21428898 1.2487333 0.092609204 93
0.20282274 1.2650845 0.11753834 92
0.22888559 1.2279181 0.1291219 56
0.20283008 1.265074 0.16202073 70
0.20728019 1.2623754 0.010471444 82
0.22138983 1.2421044 0.030145511 98
0.19601187 1.2785642 0.054210871 100
0.21658731 1.2490041 0.071659178 80
0.22499016 1.2369319 0.090106249 96
0.21576884 1.25018 0.11372216 100
0.23827901 1.2178402 0.12597258 66
0.2034567 1.2678685 0.16253836 70
0.21127433 1.2602782 0.010401634 97
0.22417507 1.2416054 0.03004084 66
0.20231929 1.2732399 0.053513627 100
0.22051811 1.2468985 0.071171694 65
0.22662205 1.2380636 0.090106249 100
0.22302678 1.2432675 0.11181407 84
0.22433636 1.2413719 0.13227122 94
0.208491 1.2643068 0.16098544 72
0.2152496 1.2581592 0.010331824 98
0.22243467 1.2476814 0.030354854 97
0.20182449 1.2777368 0.053862248 100
0.22218478 1.2480458 0.071171694 81
0.23272648 1.232673 0.088854775 100
0.22357047 1.2460251 0.11219569 100
0.22377956 1.2457201 0.13317102 93
0.21131107 1.2639027 0.1604678 72
0.22258139 1.2510591 0.0101573 71
0.22410408 1.2488219 0.030354854 65
0.2114462 1.2674195 0.05264207 79
0.22385547 1.2491871 0.071171694 65
0.22878614 1.2419428 0.090419121 100
0.23075733 1.2390466 0.1102876 92
0.22873154 1.242023 0.13182132 94
0.21738508 1.2586937 0.15839726 73
0.21754634 1.2621413 0.010366729 41
0.23360354 1.2383714 0.029622151 33
0.20872346 1.2752022 0.053339314 52
0.22997493 1.2437429 0.07019674 82
0.22601244 1.2496088 0.091670595 100
0.22690168 1.2482923 0.11219569 100
0.24019882 1.2286081 0.1277722 89
0.21368599 1.2678559 0.16098544 72
0.22140792 1.2599196 0.010296919 42
0.21958324 1.2626401 0.031087559 31
0.21373004 1.2713671 0.05281638 53
0.2293362 1.2480989 0.070684217 81
0.22980529 1.2473993 0.091044858 100
0.23067668 1.2461002 0.11143246 100
0.24172133 1.229633 0.1277722 97
0.21749094 1.2657597 0.15995017 72
0.21425551 1.2743806 0.010576159 40
0.21909145 1.2671157 0.031296901 31
0.22762641 1.2542939 0.050898954 55
0.22660714 1.255825 0.071659178 64
0.23913583 1.2370036 0.088854775 98
0.22581327 1.2570176 0.11372216 89
0.23792845 1.2388173 0.13002171 96
0.22350541 1.2604847 0.15787962 81
0.22704068 1.2588646 0.01022711 28
0.22523236 1.2616019 0.030878214 31
0.22931886 1.2554162 0.050898954 55
0.23268175 1.2503258 0.070684217 81
0.24294558 1.2347894 0.088229038 98
0.23617256 1.2450417 0.11066922 92
0.2374185 1.2431557 0.13092151 100
0.2294789 1.2551739 0.15580906 75
0.23094195 1.2566444 0.0101573 28
0.21161917 1.2861166 0.032343622 30
0.22992283 1.2581989 0.051073264 55
0.23327193 1.2530906 0.070927955 97
0.23915443 1.2441183 0.089793384 97
0.24536777 1.2346414 0.10799789 87
0.23907202 1.244244 0.13092151 96
0.22481912 1.2659833 0.15891489 73
0.23046145 1.2611074 0.01022711 42
0.23520774 1.2538127 0.030250182 32
0.22402278 1.2710032 0.052293446 53
0.24253842 1.242546 0.069221787 67
0.24081129 1.2452004 0.089793384 83
0.24377939 1.2406387 0.10914274 92
0.24816886 1.2338924 0.1277722 89
0.22339168 1.2719731 0.1604678 72
0.238686 1.2521403 0.010017681 43
0.25206605 1.2314183 0.028784776 34
0.22793511 1.2687905 0.051944822 54
0.2441898 1.2436163 0.069221787 83
0.25318721 1.2296818 0.086664692 86
0.24222925 1.2466527 0.1102876 85
0.25084704 1.2333061 0.1273223 97
0.22828963 1.2682414 0.15891489 73
0.23389778 1.2633262 0.01022711 56
0.24829084 1.2408637 0.029308135 68
0.23397776 1.2632014 0.051247578 55
0.24156103 1.2513666 0.07019674 66
0.25053069 1.237368 0.087916173 84
0.24813169 1.241112 0.10876112 87
0.25351748 1.2327067 0.12687239 90
0.23003078 1.2693613 0.15891489 73
0.24197501 1.2542481 0.010017681 87
0.24449417 1.2502877 0.029831495 66
0.2409617 1.2558411 0.05037602 84
0.2442244 1.2507118 0.069953002 49
0.24996179 1.2416921 0.08854191 70
0.24231973 1.2537062 0.11143246 91
0.25086987 1.2402644 0.128672 89
0.234799 1.2655295 0.15736198 74
0.24571782 1.2518852 0.0099478718 73
0.24928764 1.2462318 0.029517479 100
0.23619199 1.2669711 0.051421888 82
0.25323921 1.2399738 0.068246834 34
0.2557463 1.2360034 0.087290429 57
0.25545567 1.2364637 0.10723466 81
0.25243095 1.2412539 0.128672 97
0.2374754 1.2649386 0.15684435 66
0.24731749 1.2528917 0.0099478718 73
0.26147601 1.2303035 0.02847076 100
0.23466724 1.2730734 0.051944822 81
0.25163645 1.2460012 0.068978049 50
0.25099847 1.2470191 0.089167647 84
0.24657723 1.2540727 0.11105084 84
0.26124018 1.2306798 0.12552269 90
0.23296234 1.2757936 0.15995017 64
0.2438103 1.262489 0.010122396 85
0.2589469 1.2381426 0.028889447 100
0.23440927 1.2776099 0.052293446 80
0.2533831 1.2470917 0.068978049 50
0.25483483 1.2447566 0.08854191 56
0.24213398 1.2651852 0.11334054 100
0.2670463 1.2251151 0.12372308 83
0.23277828 1.2802334 0.16098544 64
0.24859568 1.2583964 0.010017681 87
0.25420746 1.2493031 0.029517479 100
0.24655783 1.2616986 0.05055033 84
0.25288177 1.2514513 0.069465525 66
0.26574755 1.2306035 0.08572609 58
0.25408825 1.2494962 0.10952436 71
0.26446337 1.2326844 0.12552269 90
0.24055937 1.2714186 0.15787962 65
0.25665143 1.2492645 0.0098082526 74
0.25388083 1.253791 0.029726824 100
0.2473219 1.2645068 0.05072464 84
0.25257573 1.2559233 0.069953002 49
0.26640642 1.233327 0.086038955 72
0.25584769 1.2505776 0.10952436 99
0.26209173 1.2403762 0.1273223 89
0.24643335 1.2659584 0.15580906 67
0.25928065 1.2485256 0.0097733475 89
0.26067185 1.2462356 0.029203463 100
0.24689442 1.2689133 0.051073264 83
0.25831157 1.2501206 0.068978049 50
0.2658931 1.2376413 0.086664692 71
0.26355913 1.2414831 0.10723466 73
0.26567677 1.2379975 0.12642249 99
0.24406746 1.2735665 0.15787962 65
0.25278038 1.2632904 0.010052586 86
0.26551154 1.2421607 0.028889447 100
0.24564034 1.2751405 0.051596198 82
0.26212221 1.2477859 0.068490572 50
0.26862848 1.2369876 0.086351827 58
0.26123631 1.2492563 0.10876112 87
0.26940542 1.2356981 0.12552269 90
0.24790916 1.2713751 0.15684435 66
0.25031251 1.2711382 0.010192205 85
0.26400363 1.2482438 0.029203463 100
0.24527198 1.279567 0.051944822 81
0.25555751 1.2623675 0.070440479 49
0.27017862 1.2379181 0.086351827 58
0.2638348 1.2485262 0.10837951 79
0.27795249 1.2249186 0.12237337 93
0.24957344 1.2723742 0.15684435 66
0.2562314 1.2653533 0.010052586 86
0.26881477 1.2441353 0.028889447 100
0.2573047 1.2635436 0.050201707 85
0.2634396 1.2531989 0.068978049 50
0.27290311 1.2372415 0.086038955 72
0.26158485 1.2563264 0.10990598 85
0.2746515 1.2342933 0.12462288 83
0.25437301 1.268487 0.15529142 75
0.26801887 1.2490913 0.0097035384 90
0.26532316 1.2536714 0.029412808 100
0.26197481 1.2593603 0.049678773 86
0.26101586 1.2609895 0.069953002 49
0.27144811 1.2432649 0.086977564 57
0.26618665 1.2522043 0.10876112 79
0.27718112 1.2335244 0.12417299 83
0.26193297 1.2594314 -0.0099129668 87
0.25896743 1.2644699 0.15373851 68
0.27280071 1.2449404 0.0095988233 76
0.26407751 1.2598864 0.029726824 100
0.2617617 1.2638541 0.050027397 85
0.27282375 1.2449009 0.067515619 51
0.2731846 1.2442827 0.086977564 57
0.26894554 1.2515457 0.10837951 79
0.27691725 1.2378874 0.12507279 92
0.2646769 1.2588594 0.15166797 69
0.26836362 1.2562394 0.0098082526 74
0.27371198 1.2470056 0.028889447 100
0.25940657 1.2717035 0.05072464 84
0.26544559 1.2612773 0.069709264 83
0.27772912 1.2400701 0.086038955 58
0.26759195 1.2575716 0.10952436 78
0.28628412 1.2253 0.12147357 86
0.26242653 1.2664896 0.15373851 68
0.26906639 1.2589533 0.0098431576 88
0.27935871 1.24104 0.02847076 100
0.26512992 1.2658046 0.050027397 85
0.27408481 1.2502191 0.068003096 51
0.28133982 1.237592 0.085413218 58
0.26831755 1.2602568 0.10990598 78
0.28690419 1.2279074 0.12192347 76
0.26707396 1.2624211 -0.0099129668 87
0.2612741 1.2725155 0.15529142 75
0.27167985 1.2581451 0.0098082526 74
0.27894372 1.245405 0.028680105 100
0.2638151 1.271939 0.05055033 84
0.26781294 1.2649273 0.069953002 49
0.2828919 1.2384803 0.085413218 58
0.2738345 1.254366 0.10837951 79
0.2884241 1.2287774 0.12192347 76
0.27068937 1.2598823 -0.0098431576 87
0.26581267 1.2684356 0.15373851 68
0.2793754 1.2487172 0.0095988233 76
0.27380776 1.2585659 0.029412808 100
0.27153969 1.262578 0.049504463 86
0.27744406 1.2521336 0.068003096 51
0.28655499 1.236017 0.084787481 59
0.27561167 1.255375 0.10837951 87
0.28818935 1.2331259 0.12282328 76
0.27524704 1.2560199 0.14959741 70
0.28389931 1.2443799 0.0094941091 92
0.27836078 1.2542534 0.029098792 100
0.27414939 1.2617611 0.049330149 87
0.27904436 1.2530348 0.068003096 51
0.2803705 1.2506707 0.087290429 57
0.27818322 1.25457 0.10799789 87
0.28877318 1.2356912 0.12327318 76
0.27307978 1.2636679 0.15166797 69
0.2807802 1.2540901 0.0096686333 90
0.28790331 1.2412819 0.028261416 100
0.26627004 1.2801812 0.051073264 83
0.28081658 1.2540246 0.068003096 68
0.28213406 1.2516557 0.087290429 57
0.29141149 1.2349737 0.10341848 83
0.29616466 1.226427 0.12057377 86
0.27301314 1.2680562 0.15270324 68
0.28045475 1.2584819 0.0097384425 90
0.29332733 1.2351537 0.027842728 100
0.27085117 1.2758859 0.05055033 84
0.28050506 1.2583907 0.068490572 50
0.29232204 1.2369754 0.084474608 59
0.28346977 1.2530179 0.10723466 81
0.2995626 1.2238538 0.11967396 78
0.27948865 1.2602327 -0.0097733475 88
0.26906627 1.2791206 0.15580906 67
0.27744851 1.2682383 0.0099129668 87
0.2892828 1.2466046 0.02847076 100
0.27748811 1.2681658 0.049678773 86
0.28610763 1.252409 0.067515619 51
0.29972342 1.2275186 0.082597397 60
0.2871263 1.2505468 0.10647142 81
0.29748681 1.2316072 0.12147357 86
0.28224695 1.2594665 -0.0097384425 88
0.27649695 1.2699778 0.15270324 68
0.28864089 1.251564 0.0095639192 91
0.28133768 1.2650205 0.029517479 100
0.28674462 1.2550579 0.048284281 88
0.28392121 1.2602602 0.068490572 50
0.29747292 1.2352906 0.083848871 59
0.28872129 1.2514158 0.10647142 73
0.29715982 1.2358675 0.12237337 76
0.2771945 1.2726544 -0.0099827768 86
0.28552848 1.2572987 0.14856213 71
0.29419732 1.2454747 0.0094242999 93
0.29072392 1.2519308 0.028680105 100
0.27908465 1.2735654 0.050027397 85
0.29888687 1.236758 0.065078229 71
0.29637229 1.241432 0.084787481 59
0.29420814 1.2454545 0.10494494 75
0.29794574 1.2385073 0.12282328 76
0.28093347 1.270129 -0.0099129668 87
0.28090936 1.2701738 0.1521856 77
0.2910676 1.255141 0.0095988233 91
0.29420435 1.249264 0.02847076 100
0.28075603 1.274461 0.050027397 85
0.29669729 1.2445931 0.066053182 52
0.29979727 1.238785 0.084161744 59
0.29208854 1.2532282 0.10647142 73
0.28529838 1.2659504 0.15063268 70
0.29565278 1.250784 0.0094941091 92
0.28074342 1.2789667 0.05037602 84
0.29101229 1.2595558 0.068003096 51
0.29569751 1.2506995 0.10570818 73
0.28817198 1.2649248 -0.0097733475 99
0.28531113 1.2703326 0.15166797 77
0.28990117 1.2658358 0.0097733475 89
0.29578483 1.2546195 0.028680105 100
0.29547912 1.2552023 0.047935657 89
0.29456702 1.2569411 0.067515619 51
0.29281703 1.260277 0.10761628 72
0.29083011 1.2640649 -0.0097384425 99
0.29244369 1.2609888 0.14856213 71
0.29625496 1.2578554 0.048109971 59
0.28802431 1.2736797 0.069709264 83
0.28609714 1.277385 -0.0099827768 96
0.29594201 1.2584571 0.14752686 71
0.2927663 1.2688082 0.029412808 100
0.2943067 1.2658213 0.048807215 58
0.29615301 1.2622411 0.068003096 51
0.291536 1.271194 -0.0098431576 97
0.29145047 1.2713599 0.15115032 77
0.29785299 1.2631629 0.048458595 59
0.29584047 1.2670991 0.14959741 70
0.29865769 1.2658516 0.0097035384 90
0.29957598 1.26404 0.048458595 59
0.29594538 1.2712026 -0.0098082526 100
0.29583034 1.2714295 0.15063268 70
0.29500282 1.2774467 0.0099129668 100
0.29769644 1.2720864 -0.0098082526 100
0.29855895 1.2747538 -0.0098431576 100
0.29945153 1.2818851 -0.0099478718 100
