# .PCD v0.7 - Point Cloud Data file format
VERSION 0.7
FIELDS x y z intensity
SIZE 4 4 4 4
TYPE F F F F
COUNT 1 1 1 1
WIDTH 760
HEIGHT 1
VIEWPOINT 0 0 0 1 0 0 0
POINTS 760
DATA ascii
-1.1643413 0.15328844 0.061547086 19
-1.1739892 0.16708341 0.020698555 29
-1.0744613 0.15674695 0.018953314 6
-1.0224867 0.15281165 0.018045789 6
-1.021947 0.15637986 0.018045789 2
-0.46783859 1.2105445 0.022653224 1
-0.46361014 1.2121701 0.022653224 1
-0.443804 1.1726359 0.021885317 2
-0.44812348 1.1966503 0.022304175 2
-0.44095686 1.1907837 0.022164555 1
-0.44664043 1.2185251 0.022653224 1
0.066485196 0.0039716363 0.015811881 13
0.053804517 0.0015289187 0.047939736 63
0.050035834 0.0015915036 0.04804441 40
0.05729416 0.024189353 0.015602452 10
0.044683576 0.0051006079 0.04804441 100
0.040909946 0.0052065849 0.048149079 88
0.037130892 0.0053295493 0.048253752 52
0.036701381 0.010434151 0.04804441 27
0.030281365 0.012389123 0.048149079 17
0.02777189 0.014116764 0.048149079 8
-1.0282998 0.6654461 0.027609708 11
-1.0346599 0.67085695 0.027714422 21
-1.0549419 0.67492998 0.028063469 15
-1.0353286 0.682199 0.027714422 15
-1.0336142 0.68756056 0.027679516 16
-1.0398843 0.69279796 0.02778423 26
-1.0581105 0.69725734 0.028098375 20
-1.070354 0.70265365 0.028307803 15
-1.0705793 0.70831013 0.028307803 11
-1.0787787 0.713691 0.028447423 12
-1.0989525 0.71875572 0.02879647 11
-1.1171119 0.72401571 0.029110614 13
-1.1412516 0.7292574 0.029529471 13
-1.153373 0.73461682 0.029738901 21
-1.1534863 0.74056292 0.029738901 15
-1.1695745 0.74628884 0.03001814 16
-1.1836441 0.75214726 0.030262472 14
-1.0514548 1.1314908 0.086040311 3
-1.0281153 1.1262225 0.14154093 3
-1.0345936 1.1335025 0.028377613 6
-1.0015159 1.1259146 0.083423518 5
-1.0190945 1.1299471 0.14084367 8
-1.0157876 1.1349463 0.028063469 10
-0.99637371 1.1304215 0.083214171 37
-1.0275302 1.1376833 0.14171524 43
-0.99309915 1.135342 0.027679516 31
-0.98927563 1.1344367 0.082900152 100
-1.0281761 1.1436467 0.14188954 91
-0.99181443 1.1407261 0.027679516 38
-1.0035293 1.143543 0.08373753 100
-0.99780446 1.1421664 0.13927488 89
-0.97496992 1.1423116 0.027400278 42
-0.97699255 1.1428053 0.082376793 100
-0.9964959 1.147567 0.13927488 89
-0.96201521 1.1447461 0.027190849 27
-0.98537487 1.1505357 0.082900152 93
-0.98936695 1.151525 0.13875194 91
-0.97427279 1.1534365 0.027435184 25
-0.97822648 1.1544311 0.082586139 46
-1.0034833 1.1607845 0.14014643 73
-0.96517485 1.1567765 0.027295563 44
-0.97687525 1.1597633 0.082586139 36
-0.9866659 1.1622624 0.13875194 80
-0.96768719 1.1630658 0.027365373 61
-0.97743887 1.1655915 0.082690813 69
-0.98142976 1.166625 0.13840333 91
-0.95470148 1.1653125 0.027155945 68
-0.97411698 1.1704133 0.082586139 100
-0.96847397 1.1689308 0.13735744 92
-0.94558328 1.168503 0.027016325 81
-0.96499032 1.1736741 0.082167454 90
-0.96707219 1.1742288 0.13735744 100
-0.95576602 1.1768508 0.027225753 93
-0.95007521 1.1753131 0.081434749 98
-0.97334558 1.1816007 0.1380547 100
-0.94662207 1.179991 0.027086135 93
-0.94479865 1.1794915 0.081225403 100
-0.96997792 1.1863892 0.13788038 98
-0.95296174 1.1870906 0.027225753 92
-0.93573445 1.1823099 0.080806717 98
-0.95706981 1.1882308 0.13683452 94
-0.93994671 1.1890857 0.027016325 92
-0.94197673 1.1896567 0.081225403 86
-0.94601089 1.1907914 0.13596296 99
-0.93462855 1.1931877 0.026946515 66
-0.95202726 1.1981472 0.081853434 70
-0.9541133 1.1987418 0.13683452 100
-0.95619637 1.205026 0.027365373 50
-0.92941648 1.1972914 0.080702044 36
-0.95069343 1.2034366 0.1366602 99
-0.93739563 1.2052267 0.027051231 52
-0.92408222 1.2013311 0.080492698 24
-0.96064454 1.2120296 0.13770607 84
-0.93586737 1.2104161 0.027051231 71
-0.91873783 1.2053387 0.080283359 28
-0.94190019 1.2122042 0.13613728 89
-0.91899902 1.2110002 0.026771991 75
-0.92294794 1.2121859 0.080597371 32
-0.92889792 1.213972 0.13509139 98
-0.91171092 1.2143804 0.026667276 81
-0.92330641 1.2179055 0.080702044 90
-0.93305796 1.2208701 0.13561434 100
-0.90250605 1.2171267 0.026527658 88
-0.91218966 1.2201076 0.080178685 98
-0.92957085 1.2254581 0.13544002 94
-0.9047547 1.2233841 0.026597468 88
-0.89726192 1.221049 0.07944598 89
-0.92797202 1.23062 0.13544002 66
-0.91460544 1.2320694 0.026806897 79
-0.90329748 1.2285018 0.079864666 72
-0.90925449 1.2303811 0.13387123 47
-0.90155405 1.2335291 0.026597468 83
-0.91120118 1.2366098 0.080388032 78
-0.90384263 1.23426 0.1335226 46
-0.88851053 1.2349035 0.026388038 88
-0.90766305 1.2410933 0.080283359 90
-0.90031737 1.2387192 0.13334829 48
-0.89448148 1.2424083 0.026527658 99
-0.89461988 1.2424536 0.079655327 100
-0.91382188 1.2487335 0.13474278 63
-0.88910979 1.2459401 0.026457848 100
-0.8854602 1.2447331 0.079236634 100
-0.9160096 1.2548363 0.13509139 78
-0.88364702 1.2496915 0.026388038 96
-0.88758248 1.2510083 0.07944598 100
-0.89352447 1.2529966 0.13317397 88
-0.87817556 1.2534107 0.02631823 93
-0.88778645 1.2566638 0.079550654 100
-0.88805526 1.2567549 0.13282534 88
-0.8651281 1.2545066 0.0261088 92
-0.88985807 1.2629735 0.07976 100
-0.88823241 1.2624171 0.13299966 100
-0.86720747 1.2607521 0.02617861 88
-0.87869197 1.2647289 0.079236634 100
-0.90156645 1.27265 0.13439415 84
-0.86737317 1.2663569 0.026213514 75
-0.86187619 1.264432 0.078399263 82
-0.91296595 1.2823234 0.13561434 54
-0.8750568 1.2746391 0.026388038 78
-0.85637635 1.268024 0.078189917 53
-0.88487524 1.278116 0.13317397 39
-0.86387342 1.2762399 0.026213514 83
-0.86027044 1.2749499 0.078503937 17
-0.8793413 1.2817782 0.13282534 43
-0.84893566 1.2764076 0.025969181 96
-0.86976725 1.2839485 0.079131968 53
-0.87941951 1.2874427 0.13299966 22
-0.85467106 1.2840366 0.0261088 99
-0.85671085 1.2847831 0.078503937 89
-0.86824936 1.2890055 0.1321281 15
-0.84536618 1.2861617 0.025969181 100
-0.85115892 1.2883044 0.07829459 100
-0.87016636 1.2953355 0.13247673 5
-0.84730202 1.2924298 0.026038991 100
-0.84185809 1.2903944 0.077875905 72
-0.87205642 1.3016851 0.13282534 1
-0.83424634 1.293063 0.025829561 100
-0.84376973 1.2966616 0.078085244 46
-0.85900921 1.3024201 0.13177948 3
-0.83054394 1.2971785 0.025794657 74
-0.84752041 1.3036611 0.078399263 51
-0.83852905 1.3002276 0.13003637 15
-0.83261269 1.3029513 0.025864467 72
-0.83465534 1.3037388 0.077771232 63
-0.85172898 1.3103201 0.13143086 52
-0.83260721 1.3085001 0.025899371 78
-0.82906169 1.3071191 0.077561885 63
-0.85726053 1.3181021 0.1321281 100
-0.83071905 1.313323 0.025899371 96
-0.82717842 1.3119297 0.077561885 59
-0.8330906 1.3142562 0.13003637 99
-0.82138115 1.3151844 0.025759751 100
-0.83270222 1.319685 0.077980578 85
-0.82562798 1.3168727 0.12951343 100
-0.80833584 1.3154968 0.025550323 100
-0.83077496 1.3245082 0.077980578 95
-0.83110613 1.3246412 0.13021068 100
-0.81012958 1.3217384 0.025620133 100
-0.81957716 1.3255708 0.077457212 97
-0.83100802 1.3302077 0.130385 100
-0.76524633 1.3035314 0.17427316 13
-0.81189615 1.327999 0.025689943 100
-0.81208497 1.3280764 0.0771432 100
-0.82904404 1.3350248 0.130385 100
-0.78541869 1.3171506 0.17719802 15
-0.81363553 1.3342788 0.025759751 100
-0.79536468 1.3267182 0.076305822 100
-0.81233543 1.3337407 0.1289905 100
-0.78533489 1.3225677 0.17744176 20
-0.79679877 1.333102 0.025480513 100
-0.80621403 1.3370385 0.077038527 100
-0.81209821 1.3394988 0.12916481 100
-0.76864892 1.3213325 0.17549185 16
-0.7874561 1.3346884 0.025340894 100
-0.79686648 1.3386617 0.076619841 96
-0.8009246 1.3403749 0.12829325 100
-0.78683299 1.3344254 0.17817298 22
-0.79303449 1.3420218 0.025480513 85
-0.79874843 1.3444555 0.07682918 58
-0.80829126 1.3485199 0.12916481 97
-0.75948447 1.3277322 0.17476064 16
-0.8093999 1.3546064 0.025829561 57
-0.81141323 1.3554723 0.077666558 53
-0.81541508 1.3571932 0.13003637 22
-0.77394205 1.3393579 0.17695428 3
-0.81468803 1.3625338 0.025969181 94
-0.80752927 1.3594255 0.077561885 100
-0.81883985 1.3643365 0.1305593 56
-0.78287178 1.3487195 0.17841671 15
-0.79979104 1.3616741 0.025724847 100
-0.81460971 1.3681698 0.078085244 100
-0.81310731 1.3675113 0.13021068 100
-0.79175216 1.3581502 0.17987914 35
-0.79040295 1.3631454 0.025585229 100
-0.81433982 1.3737377 0.078189917 100
-0.81647915 1.3746845 0.13073361 100
-0.7769838 1.3572073 0.17817298 35
-0.79745334 1.3718985 0.025759751 100
-0.80128247 1.3736089 0.077561885 100
-0.80890268 1.3770128 0.13021068 100
-0.76223856 1.3561683 0.17646681 22
-0.79716712 1.3774203 0.025794657 100
-0.8028087 1.379964 0.077771232 100
-0.81040817 1.3833904 0.1305593 100
-0.78009063 1.3697207 0.17914793 22
-0.79867882 1.3837757 0.025864467 100
-0.80430704 1.386337 0.077980578 100
-0.80100495 1.3848343 0.12986206 100
-0.7743755 1.3727155 0.17866045 15
-0.79642004 1.3887148 0.025864467 100
-0.81655747 1.3979683 0.078817949 100
-0.80236322 1.3914458 0.13021068 100
-0.77576512 1.3792232 0.17914793 14
-0.78699571 1.3900456 0.025724847 100
-0.81254524 1.4018945 0.078713275 100
-0.80380064 1.3978391 0.1305593 100
-0.76282531 1.3788363 0.1776855 11
-0.79036623 1.3970177 0.025829561 100
-0.80501503 1.4038705 0.078399263 100
-0.80892998 1.4057019 0.13125655 100
-0.75360674 1.3798219 0.17671055 7
-0.79721099 1.4059609 0.026004085 100
-0.79918188 1.4068913 0.078189917 100
-0.81030613 1.4121425 0.13160518 100
-0.74428958 1.3809791 0.17573559 3
-0.79487103 1.4108944 0.026004085 100
-0.80585355 1.416128 0.078713275 100
-0.79715186 1.4119813 0.1305593 100
-0.79400998 1.4104841 0.18280402 1
-0.79082352 1.4147184 0.025969181 100
-0.8125897 1.4251845 0.079236634 100
-0.79849392 1.4184067 0.13090792 100
-0.78867823 1.4191612 0.025969181 100
-0.81400377 1.4314423 0.07944598 100
-0.79992181 1.4246135 0.13125655 100
-0.79358906 1.4273453 0.0261088 100
-0.80271631 1.4318109 0.078922622 100
-0.8083666 1.4345752 0.13230242 100
-0.79498845 1.4335668 0.02617861 100
-0.79872316 1.4354093 0.078817949 100
-0.80615526 1.4390761 0.13230242 100
-0.79624432 1.4400396 0.02624842 100
-0.7999683 1.4418931 0.079027295 100
-0.80381149 1.4438059 0.13230242 100
-0.79020566 1.4431741 0.02617861 100
-0.80820519 1.4522152 0.079655327 100
-0.80133277 1.4487634 0.13230242 100
-0.7878477 1.4478483 0.02617861 100
-0.80581552 1.4569521 0.079655327 100
-0.80073255 1.4543767 0.13247673 100
-0.78903466 1.4543341 0.02624842 99
-0.79985243 1.4598627 0.07944598 100
-0.80720598 1.4636209 0.13334829 100
-0.79019254 1.4608365 0.02631823 100
-0.80098671 1.4664006 0.079655327 100
-0.81717318 1.4747443 0.13456847 100
-0.79854065 1.4708097 0.026527658 100
-0.79866999 1.4708769 0.079655327 100
-0.80422121 1.4737618 0.1335226 100
-0.78900152 1.4717995 0.026388038 99
-0.80506021 1.4802163 0.080178685 100
-0.79469758 1.4747849 0.13282534 100
-0.7795946 1.4724991 0.02624842 85
-0.79916579 1.4828398 0.079969339 98
-0.80116111 1.483894 0.13369691 98
-0.80745274 1.4932907 0.13456847 36
0.10996732 1.3155333 0.13623762 5
0.16382724 1.2523674 0.010785587 26
0.15805662 1.2595755 0.032866981 29
0.13908929 1.2832675 0.057522789 23
0.16235083 1.2542115 0.098240845 12
0.14264417 1.2788271 0.12669717 29
0.19071817 1.2187779 0.13272113 15
0.15036726 1.2691802 0.1713382 7
0.15920612 1.2614713 0.010960111 90
0.15843922 1.2624358 0.032971654 87
0.15815389 1.2627946 0.055082429 75
0.14476329 1.279635 0.079946287 27
0.16764694 1.2508559 0.097302236 25
0.16021824 1.2601984 0.12173614 93
0.17765412 1.2382706 0.13811995 22
0.15923885 1.2614301 0.16823238 22
0.16224891 1.2613306 0.010925206 100
0.16395864 1.2591641 0.032657638 100
0.15502551 1.2704835 0.055779677 100
0.17245919 1.2483928 0.074827775 30
0.17308322 1.2476021 0.096363634 25
0.16323379 1.2600826 0.12135452 100
0.18420193 1.2335132 0.13632034 38
0.15745229 1.2674085 0.16978529 36
0.16634756 1.2594659 0.010855397 100
0.17297554 1.2510099 0.032029606 100
0.15422913 1.2749267 0.056128297 100
0.17894605 1.2433927 0.073852822 31
0.17223185 1.2519588 0.096989371 25
0.17212784 1.2520914 0.11906482 100
0.19054973 1.2285888 0.13452072 38
0.1483781 1.2823915 0.17444403 42
0.16691631 1.2624472 0.010890301 100
0.18332541 1.2413536 0.031296901 94
0.14751902 1.2873821 0.057348479 93
0.17458931 1.2525837 0.075071514 30
0.17642665 1.2502218 0.096363634 37
0.17751372 1.2488244 0.11791996 100
0.19462603 1.2268269 0.13362093 31
0.14670026 1.2884345 0.17599694 34
0.16855142 1.2637148 0.010890301 78
0.1861116 1.2409865 0.03119223 63
0.1760357 1.2540278 0.053513627 52
0.17012334 1.2616802 0.076290213 44
0.18043664 1.2483317 0.095737889 25
0.16349953 1.2702537 0.122881 12
0.17946273 1.2495922 0.13991955 22
0.14842167 1.2897692 0.17599694 41
0.17644745 1.2571752 0.010715778 66
0.17082608 1.2645063 0.032657638 29
0.16932589 1.2664629 0.054733805 50
0.16951221 1.2662199 0.076777689 43
0.18700024 1.2434126 0.094486415 39
0.18803325 1.2420653 0.11563025 13
0.18952349 1.2401218 0.13677025 30
0.15855795 1.2805061 0.17237349 57
0.17806503 1.2584112 0.010715778 53
0.17004791 1.268939 0.032866981 29
0.16735303 1.2724779 0.055256739 49
0.19040248 1.2422101 0.072877869 47
0.19216245 1.239899 0.093547814 52
0.19792673 1.2323296 0.11295892 13
0.20171022 1.2273612 0.13272113 39
0.17546836 1.2618212 0.16564418 68
0.17977217 1.2597065 0.010715778 39
0.159747 1.2861942 0.033913698 27
0.17151245 1.2706318 0.054908119 50
0.18606728 1.25138 0.07409656 61
0.19023103 1.2458725 0.094486415 52
0.19007087 1.2460842 0.11601187 13
0.21036017 1.2192473 0.13002171 40
0.17602235 1.2646666 0.16616182 68
0.17659551 1.267328 0.010855397 52
0.19503838 1.2427645 0.030982886 31
0.18274486 1.2591379 0.053513627 52
0.19243315 1.2462343 0.073121607 93
0.1989274 1.2375848 0.092609204 53
0.19636673 1.2409953 0.1144854 13
0.21185181 1.2203711 0.13002171 40
0.17650488 1.2674488 0.16667947 67
0.17961562 1.2670898 0.010820492 78
0.18961352 1.2536716 0.031610917 30
0.18573052 1.258883 0.053339314 52
0.19418103 1.2475417 0.073121607 93
0.19710276 1.2436204 0.093547814 65
0.19340333 1.2485855 0.11601187 13
0.2111761 1.2247328 0.13092151 32
0.18294764 1.2626179 0.16460891 69
0.1895923 1.257063 0.010576159 67
0.20428759 1.2372035 0.030459527 65
0.18616861 1.2616899 0.053513627 78
0.19576657 1.248719 0.073121607 62
0.20102528 1.2416122 0.092922069 79
0.207838 1.2324054 0.11181407 14
0.21616337 1.2211543 0.12957181 32
0.18458322 1.2638324 0.16460891 69
0.1878292 1.2632163 0.010680873 80
0.21073079 1.232028 0.03004084 66
0.17971849 1.2742617 0.054733805 75
0.20457307 1.2404139 0.071659178 80
0.20509452 1.2397037 0.092296332 80
0.21883106 1.2209969 0.10876112 14
0.21781915 1.2223749 0.12957181 24
0.1886825 1.2620542 0.16357364 69
0.19182318 1.261183 0.010611063 94
0.20873445 1.2379918 0.030354854 65
0.18374053 1.2722671 0.054385185 100
0.20847413 1.2383488 0.071171694 65
0.20549014 1.2424409 0.092609204 100
0.2110745 1.2347828 0.11181407 14
0.23998857 1.1951318 0.12147357 17
0.18576324 1.2694933 0.16564418 68
0.19362587 1.2624925 0.010611063 94
0.21045202 1.2392395 0.030354854 65
0.18441591 1.2752203 0.054559495 100
0.20786557 1.2428138 0.071659178 80
0.21185613 1.2372991 0.09135773 94
0.20817661 1.242384 0.11334054 13
0.24726087 1.1883714 0.11922406 17
0.18646389 1.27239 0.16616182 68
0.18825957 1.2734151 0.010820492 91
0.20967898 1.2436068 0.030564198 97
0.1953944 1.2634859 0.053165004 100
0.20364344 1.2520062 0.072877869 63
0.21801847 1.2320012 0.090106249 96
0.2074537 1.2467036 0.11410378 20
0.23272952 1.2115285 0.12552269 16
0.20165965 1.2547669 0.15995017 72
0.20636034 1.2519429 0.010331824 84
0.21605524 1.2383461 0.030145511 98
0.19720551 1.2647823 0.053165004 100
0.19734514 1.2645864 0.074584037 91
0.21283305 1.2428652 0.091983467 93
0.21148279 1.2447588 0.11334054 20
0.24566358 1.1968215 0.12102367 17
0.20119566 1.2591863 0.16098544 72
0.20102715 1.262872 0.010541254 95
0.21183953 1.2476012 0.03066887 96
0.20115083 1.2626973 0.05281638 100
0.2127524 1.2463119 0.071659178 96
0.21440297 1.2439806 0.091983467 93
0.21079004 1.2490834 0.11410378 27
0.22343266 1.2312276 0.13047162 24
0.19612175 1.2698002 0.16409127 69
0.19930023 1.2689953 0.010645968 100
0.21925089 1.2406085 0.030145511 98
0.195999 1.2736925 0.053862248 100
0.21327564 1.2491102 0.071902916 48
0.21378782 1.2483815 0.092609204 93
0.20004672 1.2679331 0.11830158 78
0.23400891 1.2196099 0.12687239 41
0.20675513 1.258388 0.15995017 72
0.21134123 1.255456 0.010331824 84
0.22318107 1.2384839 0.029936166 99
0.19547948 1.2781932 0.054210871 100
0.21949315 1.2437705 0.070927955 65
0.22337118 1.2382114 0.090419121 96
0.20628005 1.262711 0.1167751 100
0.23112041 1.2271032 0.128672 81
0.19961962 1.2722585 0.16409127 77
0.20848432 1.2632113 0.010471444 96
0.2259554 1.2379799 0.029831495 99
0.20632938 1.2663233 0.05281638 100
0.21775872 1.2498174 0.071659178 80
0.22950569 1.2328526 0.089167647 100
0.2135902 1.2558374 0.11486702 94
0.22606167 1.2378263 0.13137141 94
0.20797354 1.2639489 0.16098544 72
0.21473858 1.2578084 0.010331824 98
0.22645965 1.2407541 0.029936166 99
0.21032098 1.264236 0.052467756 100
0.21943563 1.2509742 0.071659178 80
0.22552896 1.2421083 0.090731993 100
0.21973616 1.2505369 0.11334054 100
0.23321557 1.2309242 0.1291219 96
0.21626511 1.2555873 0.15787962 73
0.21869716 1.2556717 0.010262015 98
0.22360283 1.2484803 0.030354854 65
0.20531169 1.2752942 0.053513627 100
0.22335386 1.2488453 0.071171694 65
0.22383937 1.2481337 0.091670595 100
0.2302663 1.2387121 0.1102876 99
0.22933558 1.2400764 0.13137141 94
0.21143025 1.2663246 0.16098544 72
0.21478894 1.2651047 0.010436539 41
0.23199347 1.2396936 0.029726824 33
0.20819458 1.2748444 0.053339314 78
0.23170486 1.2401199 0.069709264 66
0.22883278 1.244362 0.090731993 95
0.22970301 1.2430767 0.11105084 91
0.23316351 1.2379656 0.13047162 100
0.21749711 1.2611047 0.15891489 73
0.20759666 1.2795498 0.010715778 39
0.22695118 1.2507473 0.030354854 32
0.20995891 1.2760346 0.053339314 52
0.22781193 1.2494664 0.070927955 97
0.23599935 1.2372823 0.089167647 100
0.23135632 1.2441919 0.11105084 84
0.23697272 1.2358336 0.12957181 96
0.21490347 1.2686763 0.16098544 72
0.21603453 1.2707601 0.010506349 40
0.21311691 1.2751348 0.03182026 30
0.2205711 1.2639577 0.051944822 54
0.22398046 1.2588457 0.072146654 79
0.23763239 1.2383754 0.089167647 100
0.23301348 1.2453012 0.11105084 91
0.2386007 1.2369236 0.12957181 96
0.22307748 1.2601997 0.15787962 73
0.22661421 1.2585826 0.01022711 28
0.2016539 1.2962935 0.033076324 29
0.22559637 1.2601204 0.051421888 55
0.23007143 1.2533593 0.071171694 65
0.24363035 1.232874 0.087916173 98
0.23684171 1.2431306 0.1102876 85
0.23915687 1.2396327 0.13002171 96
0.24206609 1.2352374 -0.0097384425 11
0.22265807 1.2645597 0.15891489 73
0.22173437 1.2697366 0.010436539 27
0.21007237 1.2874904 0.032448292 29
0.22293371 1.2679108 0.052119136 54
0.23612005 1.2478366 0.07019674 99
0.24307892 1.2372427 0.08854191 98
0.23957303 1.2425799 0.10990598 85
0.23972821 1.2423437 0.13047162 96
0.22544703 1.2640847 0.15839726 73
0.23440117 1.2541276 0.010087491 43
0.2118808 1.2886738 0.032448292 29
0.22249764 1.2723876 0.052467756 53
0.24646243 1.2356257 0.068246834 100
0.24039674 1.2449305 0.089793384 83
0.23264745 1.2568178 0.11295892 100
0.25202098 1.2270989 0.12597258 82
0.22084376 1.2749246 0.16150309 70
0.22740352 1.2686582 0.010366729 41
0.23973003 1.2496043 0.029936166 33
0.23182881 1.2618178 0.051247578 55
0.24269837 1.245016 0.069465525 49
0.24420238 1.2426912 0.089167647 84
0.24287981 1.2447355 0.10990598 85
0.24938434 1.234681 0.1277722 97
0.22470695 1.2728264 0.1604678 72
0.23113352 1.2663045 0.010296919 56
0.24663621 1.2421751 0.029412808 67
0.23552936 1.2594625 0.050898954 55
0.24419218 1.2459791 0.069465525 49
0.24995992 1.2370018 0.087916173 70
0.24225032 1.2490015 0.11066922 85
0.2529524 1.2323442 0.12687239 82
0.23046514 1.2673447 0.15839726 73
0.24146807 1.2539253 0.010017681 72
0.24935997 1.241547 0.029308135 68
0.23509762 1.2639172 0.051247578 55
0.23945248 1.2570868 0.070927955 48
0.25371578 1.234715 0.087290429 71
0.23864707 1.2583499 0.1125773 96
0.25456807 1.2333782 0.12687239 90
0.23324171 1.2668281 0.15787962 73
0.24324381 1.2550528 0.010017681 72
0.2414825 1.2578379 0.030250182 98
0.23691005 1.2650681 0.051247578 100
0.24972808 1.2447997 0.068978049 50
0.24908602 1.245815 0.089167647 70
0.25303137 1.2395765 0.10799789 87
0.25210202 1.241046 0.128672 89
0.23712996 1.2647203 0.15684435 66
0.24493882 1.2561207 0.010017681 72
0.25168031 1.245378 0.029412808 100
0.24181721 1.261095 0.05072464 84
0.25138727 1.245845 0.068978049 50
0.24864873 1.2502089 0.089793384 83
0.24736738 1.2522508 0.11066922 78
0.2558198 1.2387817 0.1277722 97
0.23680502 1.2690821 0.15787962 65
0.24020869 1.2673135 0.01022711 70
0.25114632 1.2497551 0.029622151 100
0.23501986 1.2756432 0.052119136 81
0.25716522 1.2400929 0.068003096 51
0.25859845 1.2377921 0.087290429 71
0.24481606 1.2599173 0.11219569 91
0.26252776 1.2314843 0.12552269 90
0.24760985 1.2554324 -0.0099827768 75
0.23641887 1.2733974 0.15891489 65
0.24720341 1.2598869 0.010052586 86
0.25912338 1.2406019 0.028994121 100
0.23783433 1.2750449 0.051944822 81
0.24419615 1.2647523 0.071415432 48
0.26646465 1.2287246 0.085413218 58
0.25272137 1.2509595 0.10990598 85
0.26618958 1.2291696 0.12462288 92
0.24224082 1.2679157 0.15684435 66
0.2562333 1.2490083 0.0098082526 89
0.25659123 1.2484246 0.029412808 100
0.24793208 1.262544 0.05055033 84
0.25215182 1.2556634 0.069953002 49
0.26187131 1.2398151 0.087290429 57
0.2502965 1.2586887 0.11143246 91
0.26168135 1.2401248 0.1273223 97
0.24600065 1.2656934 0.15580906 67
0.25894663 1.2483225 0.0097733475 89
0.25930125 1.2477398 0.029308135 100
0.24447483 1.2721057 0.051421888 82
0.25384891 1.2567002 0.069953002 49
0.26145935 1.2441931 0.087916173 70
0.26323006 1.2412831 0.10723466 81
0.26332414 1.2411284 0.1273223 89
0.24371597 1.2733529 0.15787962 65
0.25656891 1.2562344 0.0099129668 87
0.26208615 1.247092 0.029203463 100
0.24734664 1.2715163 0.051247578 82
0.26589137 1.2407864 0.067515619 51
0.26115802 1.2486299 0.08854191 70
0.25988743 1.2507354 0.10914274 78
0.27411476 1.2271597 0.12327318 85
0.24955553 1.267856 0.15580906 67
0.25621352 1.2606871 0.0099827768 87
0.26375327 1.2480941 0.029203463 100
0.24705216 1.2759886 0.051596198 82
0.265497 1.2451817 0.068003096 51
0.26993364 1.2377715 0.086351827 58
0.25753325 1.2584828 0.11066922 85
0.27571222 1.22812 0.12327318 85
0.25724074 1.2589715 -0.0099478718 86
0.24732569 1.2755316 0.15787962 65
0.2579281 1.2617096 0.0099827768 87
0.26542386 1.2490903 0.029203463 100
0.26103023 1.2564871 0.049504463 100
0.26107478 1.2564121 0.069465525 49
0.27560341 1.2319529 0.085100345 58
0.26224801 1.254437 0.10952436 78
0.27930346 1.2257237 0.12237337 76
0.26099181 1.2565517 -0.0098780617 87
0.25599825 1.2649586 0.15425615 75
0.26979852 1.2454979 0.0096337283 90
0.263042 1.2569637 0.029622151 100
0.26374164 1.2557764 0.049330149 87
0.26176664 1.2591279 0.069709264 33
0.27420896 1.2380135 0.086038955 58
0.26693094 1.2503642 0.10837951 79
0.2739704 1.2384183 0.12552269 82
0.2606701 1.2609887 0.15270324 68
0.27347842 1.2430204 0.0095639192 91
0.26877546 1.2510654 0.029203463 100
0.2604115 1.2653729 0.050201707 100
0.26848492 1.2515624 0.068490572 50
0.27484739 1.2406787 0.086351827 58
0.26860943 1.2513493 0.10837951 79
0.27560717 1.2393789 0.12552269 90
0.25946087 1.266999 0.15425615 75
0.26911223 1.254362 0.0097733475 89
0.2684525 1.2554996 0.029412808 100
0.25614539 1.276722 0.051247578 82
0.27016762 1.252542 0.068490572 50
0.28045595 1.2348009 0.085100345 58
0.27226114 1.248932 0.10761628 87
0.28506815 1.2268476 0.12192347 85
0.25829005 1.2730236 0.15580906 67
0.27080467 1.2553395 0.0097733475 89
0.27413258 1.2495544 0.028994121 100
0.25592899 1.2811986 0.051596198 82
0.26987401 1.2569573 0.068978049 50
0.28109503 1.2374513 0.085413218 58
0.27295569 1.2516003 0.10799789 79
0.28957963 1.222702 0.12057377 86
0.25812113 1.277388 0.15684435 66
0.26457196 1.2702057 0.010052586 86
0.27580822 1.2505145 0.028994121 100
0.26561481 1.2683783 0.050201707 85
0.28141385 1.2406907 0.066540658 69
0.28370741 1.2366713 0.085100345 58
0.26880041 1.2627954 0.1102876 85
0.28729817 1.2303786 0.12237337 85
0.26952732 1.2615216 -0.0098780617 87
0.27329826 1.2549131 0.14959741 70
0.27501529 1.2554406 0.0097384425 90
0.2714127 1.2618004 0.029622151 100
0.27405596 1.2571342 0.048981529 87
0.26821771 1.2674406 0.07019674 82
0.28906929 1.2306305 0.083848871 59
0.27905878 1.2483025 0.10685304 81
0.28682479 1.2345929 0.12327318 85
0.27291867 1.2591418 0.15063268 70
0.27769101 1.2546542 0.0097035384 90
0.27704445 1.2558049 0.029203463 100
0.27380615 1.2615683 0.049330149 87
0.28065196 1.2493843 0.067515619 51
0.28874356 1.2349828 0.084474608 59
0.27880666 1.2526685 0.10761628 79
0.29035726 1.2321107 0.12237337 76
0.26985478 1.2686011 -0.0099827768 86
0.2765204 1.2567376 0.14959741 70
0.28441808 1.2469606 0.0095290141 92
0.28279838 1.2498695 0.028784776 100
0.27666494 1.2608845 0.049155839 87
0.28249463 1.250415 0.067515619 51
0.28380391 1.2480636 0.086664692 57
0.28161708 1.251991 0.10723466 81
0.29592571 1.226294 0.12057377 77
0.2727524 1.2679111 0.15270324 68
0.2773841 1.2636392 0.0098431576 88
0.28833723 1.2438058 0.028366089 100
0.27356416 1.2705562 0.050027397 85
0.28417325 1.2513458 0.067515619 51
0.28356433 1.2524483 0.087290429 71
0.28519937 1.2494876 0.10647142 73
0.29657793 1.228884 0.12102367 77
0.28125098 1.2566372 -0.0097035384 89
0.27075642 1.2756402 0.15477379 67
0.27893627 1.2644932 0.0098431576 88
0.29174712 1.2411227 0.028156744 100
0.2789689 1.2644336 0.049330149 87
0.27996156 1.2626228 0.068978049 50
0.29362708 1.2376932 0.084474608 59
0.28198853 1.2589251 0.10837951 87
0.29708409 1.2313867 0.12147357 86
0.2808587 1.2609862 -0.0097733475 88
0.27791795 1.2663509 0.15166797 69
0.28543946 1.2566521 0.0096686333 90
0.28385395 1.2595686 0.029203463 100
0.28545445 1.2566245 0.048458595 59
0.28547522 1.2565863 0.068003096 51
0.29337424 1.2420563 0.085100345 58
0.28932294 1.2495085 0.1060898 81
0.29869616 1.2322667 0.12147357 86
0.27684364 1.2724638 -0.0099827768 86
0.28703371 1.2537194 0.14752686 71
0.29489675 1.2435801 0.0093893949 77
0.29047161 1.2517951 0.028680105 100
0.29015952 1.2523744 0.047935657 89
0.2911112 1.2506077 0.067028143 51
0.2951887 1.2430382 0.085100345 58
0.29489028 1.2435921 0.10456333 75
0.28067166 1.2699879 -0.0099129668 87
0.28522834 1.2615287 0.14959741 78
0.29466704 1.2479954 0.009459204 77
0.29591915 1.2456514 0.028261416 100
0.28808993 1.260308 0.048632905 88
0.29466102 1.2480066 0.066540658 52
0.29497999 1.2474095 0.08572609 58
0.29191989 1.2531382 0.10647142 81
0.28148437 1.2726738 0.15270324 68
0.28961346 1.2611625 0.0097035384 90
0.2821658 1.2752109 0.050027397 85
0.29430437 1.2523141 0.067028143 51
0.29343897 1.2539465 0.10647142 73
0.28961346 1.2611625 -0.0097035384 89
0.28668436 1.2666876 0.15063268 78
0.28574669 1.2726886 0.0099129668 87
0.29907936 1.247326 0.028261416 100
0.28207681 1.2796699 0.05037602 84
0.29414219 1.2567179 0.067515619 51
0.2933028 1.2583147 0.10723466 81
0.2885381 1.2673786 -0.0098082526 99
0.28931862 1.2658938 0.15011504 78
0.29783916 1.2541901 0.0095290141 92
0.29784015 1.2541883 0.047761347 60
0.29234523 1.2647394 0.068490572 50
0.29568627 1.258324 0.14752686 71
0.29525423 1.2633495 0.029098792 100
0.29587534 1.2621467 0.048458595 59
0.29589531 1.2621081 0.068003096 51
0.29985791 1.254434 0.086351827 58
0.28943866 1.2746122 -0.0099129668 97
0.29827875 1.2574922 0.14700922 81
0.298417 1.2612134 0.048284281 59
0.29020187 1.2772534 -0.0099478718 100
0.29549348 1.2669215 0.14959741 78
0.29831159 1.265676 0.0097035384 90
0.29469016 1.2728081 -0.0098431576 97
0.29198179 1.278142 0.15270324 68
0.29815781 1.27008 0.0097733475 100
0.29815781 1.27008 -0.0097733475 100
0.29633346 1.2825794 -0.0099827768 100
0.2992695 1.2861298 0.050201707 28
