# .PCD v0.7 - Point Cloud Data file format
VERSION 0.7
FIELDS x y z intensity
SIZE 4 4 4 4
TYPE F F F F
COUNT 1 1 1 1
WIDTH 727
HEIGHT 1
VIEWPOINT 0 0 0 1 0 0 0
POINTS 727
DATA ascii
-1.1682209 0.15442152 0.061756428 21
-1.1783836 0.16456249 0.020768363 20
-1.0978254 0.15331246 0.058092911 29
-1.1679045 0.16725738 0.020593839 30
-1.0802597 0.15855573 0.019058028 6
-1.0144962 0.15216057 0.017906168 5
-1.021865 0.15691493 0.018045789 1
0.084817231 0.00098347664 0.047102362 20
0.057162702 0.0099359155 0.015811881 58
0.050746441 0.0058968067 0.047835063 36
0.043823302 0.00088310242 0.048253752 100
0.038466275 0.0044355989 0.048253752 70
0.040258706 0.012852967 0.047835063 37
0.035376489 0.011331141 0.04804441 27
0.031604409 0.011483192 0.048149079 17
0.037148893 0.024633348 0.047416378 9
0.029998779 0.019862294 0.047835063 9
0.038819253 0.038056612 0.046788346 10
0.027073085 0.026777744 0.047625721 9
-1.0137572 1.1261381 0.084051549 5
-1.0410268 1.1323485 0.14276111 6
-1.0398016 1.1376191 0.028482327 8
-1.0008922 1.1286219 0.083423518 13
-1.0204048 1.133134 0.14101799 19
-1.003468 1.1349348 0.02785404 18
-1.0074084 1.1358604 0.083842203 75
-1.0074902 1.1358796 0.13997212 65
-0.98066097 1.1357844 0.027470088 37
-1.0118196 1.1432303 0.084156215 100
-1.0177009 1.1446358 0.14101799 100
-0.97937483 1.1411251 0.027470088 45
-0.9813934 1.1416149 0.082586139 100
-1.0028303 1.1468168 0.13979781 86
-0.99554485 1.1507665 0.02778423 30
-0.98008686 1.1469582 0.082586139 100
-1.0053744 1.1531882 0.14014643 86
-0.98256654 1.1532484 0.027574802 23
-0.9845745 1.1537505 0.082900152 61
-0.99436313 1.1561983 0.13927488 89
-0.96384221 1.1539044 0.027260659 34
-0.98910147 1.1603101 0.083214171 35
-0.98921138 1.1603379 0.13892625 75
-0.96055633 1.1586881 0.027225753 53
-0.99353248 1.1671734 0.083528183 43
-0.97819179 1.163226 0.1380547 89
-0.96119398 1.1641998 0.027260659 63
-0.96321803 1.1647279 0.081958108 90
-0.9865188 1.1708059 0.13892625 89
-0.95980877 1.1694726 0.027260659 74
-0.96183091 1.1700076 0.081958108 96
-0.98511034 1.176167 0.13892625 94
-0.960195 1.1757858 0.027295563 78
-0.95063967 1.1732183 0.081434749 98
-0.96622223 1.1774052 0.13735744 99
-0.94726425 1.1776396 0.027086135 96
-0.95122141 1.178717 0.081539422 100
-0.9552508 1.1798141 0.13648589 100
-0.94197696 1.1817995 0.027016325 93
-0.95171088 1.1844862 0.081644088 100
-0.95957285 1.1866561 0.13700883 92
-0.93675154 1.185668 0.026946515 92
-0.9407106 1.1867748 0.081120729 92
-0.95626408 1.1911232 0.13683452 98
-0.94676119 1.1943873 0.027155945 88
-0.92380089 1.1878772 0.080283359 84
-0.96046096 1.1982718 0.13735744 100
-0.9722541 1.2070744 0.027644612 52
-0.93200558 1.1955181 0.080806717 52
-0.94754237 1.1999791 0.13631158 100
-0.94967419 1.2059795 0.027260659 42
-0.92099708 1.1976426 0.080283359 24
-0.94802147 1.2054989 0.13648589 87
-0.92328185 1.2036104 0.026806897 66
-0.9387309 1.2081573 0.081330076 26
-0.94656903 1.2104642 0.13648589 85
-0.91968983 1.2086922 0.026771991 75
-0.92555457 1.2104428 0.080702044 28
-0.93723017 1.2139279 0.13578865 89
-0.92205554 1.2147201 0.026841801 75
-0.91643828 1.2130231 0.080283359 60
-0.94337887 1.2211621 0.13648589 94
-0.92240638 1.2204409 0.026876707 81
-0.90915316 1.2163863 0.079969339 100
-0.92083734 1.2199608 0.13456847 100
-0.9132635 1.2229557 0.026737086 88
-0.91720456 1.2241757 0.080492698 92
-0.91362733 1.2230684 0.13404553 84
-0.9000656 1.2249789 0.026527658 83
-0.91544992 1.2298059 0.080492698 74
-0.91757983 1.2304742 0.13456847 56
-0.8985489 1.2297851 0.026527658 83
-0.89868778 1.2298291 0.079655327 72
-0.91224676 1.2341329 0.13421984 43
-0.89685398 1.2350912 0.026527658 79
-0.89509124 1.2345245 0.079550654 89
-0.91432947 1.2407086 0.13456847 43
-0.90291065 1.2423596 0.026667276 93
-0.88594526 1.2368439 0.079131968 100
-0.90897089 1.2443299 0.13421984 52
-0.88605648 1.2424291 0.026388038 100
-0.8975876 1.2462225 0.079864666 100
-0.90162843 1.2475519 0.13369691 78
-0.87309724 1.2434014 0.02617861 100
-0.89789551 1.2516507 0.079969339 100
-0.90759903 1.2548786 0.13439415 87
-0.87514287 1.2498904 0.02624842 96
-0.88287061 1.2524927 0.079236634 100
-0.89825922 1.2576745 0.13369691 78
-0.87732965 1.2559026 0.02631823 93
-0.87937206 1.256598 0.079131968 100
-0.90417844 1.2650427 0.13439415 87
-0.87553912 1.2611308 0.02631823 93
-0.87569064 1.261183 0.079027295 100
-0.88540071 1.2645283 0.13282534 100
-0.85879499 1.2605942 0.026038991 79
-0.87028164 1.2645944 0.078817949 99
-0.88939756 1.2712512 0.13334829 82
-0.86075944 1.2670836 0.0261088 78
-0.86469191 1.2684692 0.07860861 65
-0.89882559 1.2804964 0.13439415 38
-0.8666386 1.2744423 0.02624842 85
-0.84986037 1.2684679 0.077875905 27
-0.89524788 1.2846296 0.13421984 36
-0.8572548 1.2769203 0.0261088 93
-0.85366124 1.2756259 0.078189917 23
-0.87835604 1.2845215 0.13282534 30
-0.85932428 1.2829521 0.02617861 96
-0.85760719 1.2823272 0.078503937 68
-0.87664205 1.2892551 0.13282534 18
-0.85001832 1.2851064 0.026038991 100
-0.85768467 1.2879272 0.07860861 100
-0.86173183 1.2894162 0.13160518 13
-0.83330721 1.2841725 0.025759751 100
-0.8465988 1.289113 0.078085244 100
-0.87307447 1.298954 0.13282534 1
-0.8351571 1.2906463 0.025829561 100
-0.82786089 1.2879038 0.0771432 46
-0.87112623 1.3041662 0.13282534 1
-0.84090096 1.2980759 0.025969181 93
-0.83360463 1.2953057 0.077561885 51
-0.84885782 1.3010969 0.13090792 7
-0.84082299 1.3038869 0.026004085 72
-0.83726388 1.3025208 0.077875905 59
-0.85992223 1.3112185 0.1321281 39
-0.8315869 1.3056048 0.025864467 74
-0.83176595 1.3056743 0.077666558 76
-0.84325832 1.3101295 0.13073361 90
-0.81863075 1.3058095 0.025655037 83
-0.83370155 1.3117096 0.077875905 63
-0.84888059 1.3176521 0.13143086 100
-0.81870598 1.3110802 0.025689943 100
-0.82446808 1.3133581 0.077457212 82
-0.83593971 1.317893 0.130385 97
-0.81652302 1.3165702 0.025689943 100
-0.81671244 1.316646 0.0771432 95
-0.84112877 1.3264117 0.13108224 97
-0.82582825 1.3255913 0.025899371 100
-0.81859618 1.3226709 0.077352546 95
-0.82634395 1.3257997 0.12986206 100
-0.81657141 1.327131 0.025759751 100
-0.82415372 1.3302222 0.077771232 100
-0.82264835 1.3296084 0.12968774 100
-0.80362111 1.3270934 0.025550323 100
-0.80381888 1.3271748 0.076724514 100
-0.81341523 1.3311242 0.1289905 100
-0.80526298 1.3335866 0.025620133 100
-0.80176765 1.3321331 0.076724514 100
-0.81870812 1.3391776 0.12968774 100
-0.80707437 1.3396256 0.025689943 100
-0.7906881 1.3327475 0.076201156 99
-0.8131389 1.3421712 0.12933913 100
-0.78069061 1.3285511 0.17719802 20
-0.80865937 1.3461571 0.025759751 100
-0.78677779 1.3368778 0.076096483 83
-0.80186123 1.3432741 0.12846756 100
-0.77132422 1.3303246 0.17622307 22
-0.80306453 1.3490858 0.025689943 61
-0.80325216 1.3491662 0.0771432 40
-0.80178446 1.3485379 0.12864187 50
-0.77675873 1.3378274 0.17719802 11
-0.80817252 1.3574523 0.025829561 71
-0.81934971 1.3622868 0.078189917 74
-0.82332569 1.3640065 0.13090792 33
-0.79643232 1.3523743 0.18012288 5
-0.80071884 1.3595531 0.025724847 100
-0.81188661 1.3644276 0.077875905 100
-0.81221813 1.3645723 0.13003637 93
-0.78903562 1.3544538 0.17939167 28
-0.79854888 1.3644998 0.025724847 100
-0.79873341 1.3645811 0.077247873 100
-0.82826072 1.377598 0.13177948 100
-0.76327103 1.3489478 0.17622307 41
-0.80387849 1.3722193 0.025864467 100
-0.8058787 1.3731091 0.077771232 100
-0.79893202 1.3700191 0.12916481 100
-0.79580528 1.3686283 0.18085411 42
-0.79629534 1.3744843 0.025759751 100
-0.81287533 1.3819287 0.07829459 100
-0.80046445 1.3763562 0.12951343 100
-0.77559823 1.3651913 0.17841671 19
-0.79064029 1.3772953 0.025689943 100
-0.81083864 1.3864448 0.07829459 100
-0.80207604 1.3824754 0.12986206 100
-0.77361721 1.3695838 0.17841671 15
-0.78851229 1.3819712 0.025689943 100
-0.80504566 1.3895303 0.078085244 100
-0.8108018 1.3921621 0.13090792 100
-0.76610011 1.3717244 0.1776855 15
-0.79907805 1.3925046 0.025934275 100
-0.80106133 1.3934197 0.077980578 100
-0.81947619 1.401917 0.13195379 100
-0.75497943 1.3721561 0.17646681 13
-0.8041479 1.4005866 0.026073895 100
-0.80430871 1.4006615 0.07829459 100
-0.80281287 1.3999648 0.1305593 100
-0.76726598 1.3834116 0.17841671 10
-0.78926975 1.3993561 0.025829561 100
-0.81113714 1.4096322 0.078817949 100
-0.8006056 1.4046831 0.1305593 100
-0.76152343 1.3863175 0.17792924 9
-0.79067844 1.4057409 0.025899371 100
-0.81611472 1.4178026 0.079236634 100
-0.80558282 1.4128084 0.13125655 100
-0.76474506 1.3934435 0.17866045 3
-0.79025501 1.4112799 0.025934275 100
-0.79943198 1.4156709 0.078399263 100
-0.81411427 1.4226961 0.13230242 100
-0.80072778 1.4218044 0.02617861 100
-0.80088097 1.4218783 0.07860861 100
-0.8083536 1.4254842 0.13195379 100
-0.80204028 1.428266 0.02624842 100
-0.80039293 1.427464 0.078713275 100
-0.80247456 1.4284775 0.13160518 100
-0.7925548 1.429455 0.0261088 100
-0.81063849 1.4383376 0.07944598 100
-0.80374438 1.4349513 0.13195379 100
-0.79024464 1.4341373 0.0261088 100
-0.81008691 1.4439698 0.079550654 100
-0.8085559 1.4432113 0.13265105 100
-0.79137856 1.440834 0.02617861 100
-0.79510325 1.4426968 0.078817949 100
-0.80607933 1.4481862 0.13265105 100
-0.79617018 1.449115 0.02631823 100
-0.79631323 1.4491872 0.079027295 100
-0.81437689 1.4582999 0.13369691 100
-0.80092031 1.4574375 0.026457848 100
-0.79749435 1.4556942 0.079236634 100
-0.80486315 1.4594439 0.13299966 100
-0.79495436 1.4603226 0.026388038 100
-0.80220014 1.4640417 0.079655327 100
-0.79713064 1.4614396 0.13247673 100
-0.78555375 1.4611028 0.02624842 100
-0.80166501 1.4694397 0.07976 100
-0.80898649 1.4732285 0.13387123 100
-0.79022437 1.4694614 0.026388038 100
-0.79744464 1.4732296 0.079655327 100
-0.81005603 1.4798115 0.13421984 100
-0.79131371 1.4759982 0.026457848 96
-0.78614479 1.4732776 0.079131968 100
-0.81638545 1.4891946 0.13509139 100
-0.79590625 1.4844263 0.026597468 44
-0.78544587 1.4788737 0.079236634 42
-0.79802829 1.4855525 0.1335226 86
0.13811556 1.2830139 0.011483683 12
0.13736698 1.2839463 0.03454173 27
0.098457694 1.3324089 0.063100755 19
0.16167513 1.2536699 0.098240845 12
0.14070499 1.2797887 0.12707879 17
0.21571249 1.1863647 0.12327318 8
0.11580595 1.3108013 0.18583207 6
0.15228653 1.2687424 0.011134636 37
0.16522342 1.2525192 0.032343622 60
0.15995058 1.2591316 0.054733805 50
0.14652738 1.2759645 0.07945881 14
0.15342844 1.2673104 0.10074379 11
0.14729387 1.2750033 0.12555231 66
0.19644037 1.2133725 0.13092151 16
0.1573486 1.2623944 0.16875002 14
0.15784022 1.2654927 0.011029921 100
0.17938951 1.2382653 0.031296901 94
0.14814469 1.277743 0.056651235 95
0.16686377 1.2540915 0.075802729 30
0.17732039 1.2408795 0.095112152 25
0.1601131 1.2626209 0.12211776 100
0.1847645 1.2314739 0.13587044 38
0.1507636 1.274434 0.17237349 42
0.15330648 1.2746511 0.011204445 100
0.17106998 1.2520533 0.032134276 100
0.16091228 1.2649754 0.055082429 100
0.17337832 1.2491168 0.074827775 30
0.17644238 1.2452189 0.095737889 38
0.16296211 1.2623677 0.12173614 100
0.18750113 1.2311505 0.13542053 45
0.15243858 1.2757552 0.17237349 42
0.16991919 1.2571819 0.010785587 100
0.17283934 1.2534389 0.032134276 90
0.16272905 1.2663982 0.055082429 100
0.16170532 1.2677103 0.077508904 29
0.18061683 1.2434698 0.095112152 25
0.17201504 1.2544955 0.11944643 100
0.18559769 1.2370855 0.13677025 37
0.15429494 1.2772088 0.17237349 42
0.17276165 1.2568589 0.010750682 92
0.17444456 1.254687 0.032134276 60
0.16193664 1.2708294 0.055431053 74
0.17308477 1.2564418 0.07555899 30
0.16767007 1.26343 0.098866582 24
0.18685105 1.2386754 0.11524864 47
0.1871486 1.2382913 0.13677025 30
0.14296335 1.2953162 0.17806751 33
0.17324412 1.2597578 0.010785587 65
0.18222767 1.2480798 0.031610917 30
0.16611686 1.2690227 0.055082429 50
0.17478508 1.2577546 0.07555899 90
0.17421257 1.2584988 0.097615108 37
0.17412457 1.2586132 0.11982805 12
0.18403262 1.2457334 0.13856985 22
0.14833325 1.2921402 0.1765146 55
0.17244226 1.2641824 0.010855397 52
0.17411479 1.2619933 0.032448292 29
0.16656423 1.2718761 0.055256739 49
0.18845606 1.2432221 0.073121607 62
0.19142479 1.2393364 0.093547814 52
0.1912415 1.2395763 0.11486702 13
0.19507685 1.2345562 0.13497064 38
0.16531366 1.2735131 0.16978529 66
0.17425606 1.265563 0.010855397 39
0.18074739 1.2570016 0.032029606 30
0.17562887 1.2637523 0.054210871 51
0.17939872 1.2587804 0.075315252 90
0.19553438 1.2374992 0.092922069 53
0.17991719 1.2580966 0.11906482 13
0.20384628 1.2265369 0.13227122 39
0.17649922 1.2626045 0.16564418 68
0.18552458 1.2540267 0.010576159 40
0.15353021 1.2965155 0.03454173 27
0.17846677 1.2633995 0.054036561 51
0.18818623 1.250492 0.073852822 62
0.19352183 1.2434063 0.093860678 52
0.19570944 1.240501 0.1144854 13
0.20067316 1.2339091 0.13407083 38
0.17813483 1.2638403 0.16564418 68
0.18969515 1.2521555 0.010506349 68
0.17937401 1.2659671 0.032448292 29
0.17789236 1.2679499 0.054385185 51
0.18163174 1.2629459 0.07555899 90
0.19407687 1.246292 0.094173551 65
0.19743627 1.2417965 0.1144854 13
0.20470887 1.2320644 0.13317102 31
0.17994735 1.2651999 0.16564418 68
0.19010431 1.2549535 0.010541254 81
0.20006481 1.2415318 0.030773543 32
0.180733 1.2675812 0.054210871 51
0.1974645 1.2450358 0.072634131 78
0.19565827 1.2474697 0.094173551 78
0.20602271 1.2335038 0.11219569 14
0.21088839 1.2269473 0.13137141 31
0.18389407 1.2633218 0.16460891 69
0.1870549 1.2626467 0.010680873 80
0.22303662 1.2138066 0.028889447 69
0.18601742 1.2640549 0.053687938 78
0.19912484 1.2462635 0.072634131 63
0.20201379 1.2423421 0.092922069 79
0.20065585 1.2441853 0.1144854 13
0.21826485 1.2202836 0.1291219 32
0.1833266 1.2677073 0.16564418 68
0.18632907 1.2670753 0.010750682 92
0.20446181 1.242291 0.03066887 64
0.19471639 1.2556113 0.05264207 100
0.20305037 1.2442203 0.072146654 95
0.21174678 1.2323337 0.090731993 95
0.20570791 1.2405877 0.11334054 13
0.23932114 1.1946443 0.12147357 17
0.19752666 1.2517701 0.15995017 72
0.19763675 1.2555208 0.010471444 82
0.21331653 1.2339157 0.03004084 66
0.19190261 1.2634219 0.053339314 78
0.20020995 1.2519752 0.073121607 62
0.20888346 1.240024 0.091983467 93
0.21443623 1.2323728 0.11105084 14
0.22607395 1.2163372 0.1273223 16
0.19143626 1.2640644 0.16357364 69
0.20158708 1.253442 0.010401634 83
0.2101858 1.2415109 0.030459527 97
0.19587061 1.261374 0.05299069 79
0.20413139 1.2499117 0.072634131 78
0.210444 1.2411525 0.091983467 93
0.21826708 1.2302976 0.1102876 14
0.23325273 1.2095041 0.12507279 16
0.19759461 1.2589817 0.16150309 70
0.20094973 1.257908 0.010471444 96
0.21183375 1.2426941 0.030459527 97
0.19179174 1.2707092 0.053862248 100
0.21273875 1.2414291 0.071171694 81
0.20404524 1.253581 0.094173551 100
0.21530664 1.2378397 0.11181407 14
0.23478881 1.2106072 0.12507279 16
0.18918741 1.2743496 0.16616182 68
0.2002534 1.2623233 0.010541254 95
0.21340311 1.2438129 0.030459527 97
0.18883863 1.2783914 0.054559495 100
0.20970535 1.2490182 0.072146654 63
0.21709093 1.2386217 0.091044858 100
0.19866794 1.264555 0.11791996 19
0.2306087 1.2195934 0.1273223 16
0.19533712 1.2692437 0.16409127 69
0.20436445 1.2603329 0.010471444 96
0.2185941 1.2401462 0.030145511 98
0.19988769 1.2666838 0.053165004 100
0.20460108 1.2599972 0.073609084 77
0.21881074 1.2398388 0.091044858 100
0.19595847 1.272258 0.11944643 57
0.22889042 1.2255393 0.128672 24
0.20273447 1.2626452 0.16150309 70
0.2105791 1.2549233 0.010331824 98
0.21213794 1.2526963 0.030878214 63
0.19925168 1.2711067 0.053513627 100
0.20622787 1.2611399 0.073609084 62
0.22150335 1.2393161 0.090731993 100
0.20100334 1.268604 0.11830158 100
0.22928533 1.2281982 0.1291219 56
0.20658562 1.2606288 0.1604678 72
0.21447155 1.2527622 0.010262015 98
0.21716005 1.248894 0.030564198 97
0.20318949 1.2689949 0.053165004 100
0.22145346 1.2427166 0.070684217 81
0.22418883 1.2387809 0.090419121 100
0.22618824 1.235904 0.1102876 85
0.22413349 1.2388605 0.13182132 86
0.20711195 1.2633512 0.16098544 72
0.21607429 1.2538722 0.010262015 98
0.21874997 1.249995 0.030564198 97
0.19805622 1.2799811 0.054210871 100
0.22076786 1.247071 0.071171694 81
0.22013521 1.2479877 0.091983467 100
0.2221595 1.2450545 0.11219569 91
0.23233125 1.2303152 0.1291219 88
0.21094438 1.2613056 0.15995017 72
0.21341679 1.2617514 0.010401634 97
0.22623593 1.2430226 0.03004084 99
0.20001701 1.2813287 0.054210871 100
0.22484455 1.2450554 0.070684217 65
0.22866744 1.2394701 0.090106249 100
0.21955043 1.2527902 0.11372216 89
0.23630244 1.2283154 0.12822211 97
0.20846874 1.2689806 0.16202073 70
0.21392533 1.2645189 0.010436539 68
0.22443843 1.2490493 0.030354854 65
0.21403334 1.26436 0.052293446 80
0.22195852 1.2526984 0.071659178 80
0.23577765 1.2323642 0.08854191 100
0.22115323 1.2538834 0.11372216 100
0.23344257 1.2358 0.13002171 96
0.21446875 1.2637193 0.15995017 72
0.21574011 1.2657473 0.010436539 41
0.20944795 1.2750793 0.031924933 30
0.21250597 1.2705438 0.05281638 53
0.2181811 1.262127 0.072877869 94
0.23968306 1.230237 0.087916173 98
0.22841674 1.2469463 0.11181407 98
0.2362414 1.2353414 0.12957181 96
0.22060058 1.2585387 0.15787962 81
0.22851011 1.2502358 0.010087491 43
0.22667968 1.2529701 0.030459527 32
0.21749276 1.2666934 0.052293446 53
0.22975355 1.2483784 0.070684217 81
0.23351872 1.2427541 0.090106249 100
0.23873731 1.2349586 0.10876112 94
0.23561808 1.2396181 0.13047162 96
0.22222242 1.2596283 0.15787962 73
0.22797519 1.2546864 0.0101573 42
0.22394645 1.2607501 0.030878214 31
0.21371573 1.2761486 0.053165004 52
0.23801655 1.2395728 0.069221787 83
0.23735717 1.2405653 0.089480512 97
0.23818934 1.2393128 0.10952436 85
0.23725927 1.2407126 0.13047162 96
0.22179541 1.2639877 0.15891489 73
0.22297773 1.265767 0.010366729 27
0.22117665 1.2684975 0.031296901 31
0.21539602 1.2772609 0.053165004 52
0.23738933 1.2439189 0.069709264 83
0.24544552 1.2317058 0.087603301 99
0.23650429 1.2452607 0.11066922 92
0.24633312 1.2303602 0.1273223 97
0.21918041 1.2715237 0.16098544 72
0.22589195 1.2652891 0.010331824 28
0.23394221 1.2529869 0.030250182 32
0.23471281 1.2518094 0.05037602 56
0.22499791 1.2666552 0.072877869 100
0.24822143 1.231166 0.087290429 85
0.23179826 1.2562633 0.11295892 100
0.2426872 1.2396232 0.12957181 96
0.22948331 1.2598009 0.15684435 74
0.23080438 1.2613304 0.01022711 42
0.23772174 1.2506826 0.03004084 33
0.23305601 1.2578645 0.050898954 55
0.23421681 1.2560778 0.071171694 81
0.24760008 1.2354772 0.087916173 84
0.24731672 1.2359134 0.10799789 87
0.24424621 1.2406397 0.12957181 96
0.2332142 1.257621 0.15580906 75
0.24993938 1.235603 0.0096686333 45
0.24381337 1.2451086 0.029622151 33
0.23160836 1.2640471 0.051421888 55
0.24890459 1.2372086 0.068246834 68
0.247168 1.2399032 0.08854191 84
0.25328043 1.2304187 0.10647142 88
0.2449176 1.2433952 0.13002171 80
0.23395705 1.2604027 0.1563267 74
0.22993159 1.2702847 0.010366729 69
0.25292507 1.2343445 0.028889447 69
0.23861712 1.2567086 0.05055033 56
0.24724615 1.243221 0.068978049 50
0.24446967 1.2475609 0.089793384 55
0.24951872 1.2396688 0.10837951 87
0.25279036 1.2345551 0.1273223 89
0.22517392 1.2777212 0.16150309 70
0.23176739 1.2714543 0.010366729 55
0.25141841 1.2404892 0.029203463 68
0.22759217 1.2780335 0.05264207 53
0.24898264 1.2443274 0.068978049 50
0.25045589 1.2420059 0.08854191 70
0.24177447 1.2556857 0.11181407 100
0.26076016 1.225769 0.12462288 83
0.23221269 1.2707527 0.15891489 65
0.24409086 1.2555875 0.010017681 72
0.25191566 1.2431667 0.029308135 100
0.23777458 1.2656137 0.051247578 55
0.23785999 1.2654781 0.071902916 96
0.26044616 1.2296257 0.086038955 58
0.25071198 1.2450774 0.10914274 71
0.25707951 1.2349699 0.12687239 99
0.24005333 1.2619965 0.15580906 67
0.24587268 1.2567055 0.010017681 87
0.25576869 1.2408686 0.029098792 100
0.23959318 1.2667547 0.051247578 82
0.24809361 1.2531512 0.069953002 49
0.26003915 1.2340344 0.086664692 71
0.24517268 1.2578256 0.11181407 100
0.26085103 1.232735 0.12597258 82
0.23981121 1.2664058 0.15684435 66
0.24959642 1.2543126 0.0099478718 73
0.24364585 1.2639062 0.030459527 97
0.23809162 1.2728608 0.051770512 81
0.25388286 1.247402 0.068978049 50
0.26157951 1.2349933 0.086664692 71
0.26127979 1.2354766 0.10647142 81
0.25622398 1.2436277 0.128672 97
0.24145907 1.2674317 0.15684435 66
0.25233692 1.2536552 0.0099129668 87
0.25165275 1.2547669 0.029831495 99
0.24715877 1.262069 0.05055033 84
0.25138929 1.255195 0.069953002 99
0.2611337 1.2393619 0.087290429 71
0.2557033 1.2481854 0.10914274 85
0.26911446 1.2263944 0.12372308 100
0.24117219 1.2717962 0.15787962 65
0.24143293 1.2751174 0.010331824 84
0.25742668 1.2489361 0.029412808 100
0.23632842 1.2834734 0.05264207 79
0.24782568 1.2646526 0.071171694 65
0.26475129 1.2369459 0.086664692 71
0.25422028 1.2541848 0.1102876 85
0.27164534 1.2256603 0.12327318 93
0.24082375 1.2761147 0.15891489 65
0.24734399 1.269351 0.010192205 85
0.25910026 1.2499543 0.029412808 100
0.25051516 1.2641189 0.05055033 84
0.26601696 1.2385426 0.067271881 34
0.27252629 1.2278028 0.084787481 59
0.26201782 1.2451407 0.10799789 79
0.2681872 1.2349619 0.12552269 90
0.24659759 1.2705824 0.15684435 66
0.25930974 1.2532165 0.0098431576 88
0.26069346 1.2509164 0.029412808 100
0.25831768 1.2548656 0.049504463 86
0.26040924 1.2513888 0.068978049 50
0.266918 1.2405694 0.086977564 57
0.26157096 1.2494577 0.10876112 79
0.27073514 1.234224 0.12507279 83
0.25025097 1.268275 0.15580906 67
0.26313183 1.2508441 0.0097733475 100
0.26245803 1.2519735 0.029412808 100
0.2560136 1.2627755 0.050201707 85
0.26420966 1.2490375 0.068490572 50
0.27168083 1.2365144 0.086038955 58
0.26735362 1.2437676 0.10723466 81
0.27044165 1.2385916 0.12597258 90
0.25405878 1.2660522 0.15477379 67
0.26269028 1.2552342 0.0098431576 88
0.2650755 1.2512058 0.029308135 100
0.25460401 1.268891 0.05072464 84
0.25973144 1.2602313 0.069953002 99
0.2661843 1.2493331 0.088229038 70
0.2629247 1.2548382 0.10952436 85
0.27795431 1.229455 0.12327318 85
0.25176832 1.2736802 0.15684435 66
0.26244566 1.2597327 0.0099129668 87
0.27392009 1.2401907 0.028575432 100
0.25340807 1.2751245 0.051247578 82
0.26454556 1.2561564 0.069221787 50
0.27394426 1.2401495 0.086351827 58
0.27166209 1.2440363 0.10685304 66
0.28260025 1.2254076 0.12192347 85
0.25361639 1.2747698 0.15684435 66
0.27011198 1.2503171 0.0097035384 90
0.26844186 1.2531832 0.029308135 100
0.26912835 1.2520051 0.048807215 88
0.26715872 1.2553852 0.068978049 50
0.27749395 1.2376488 0.08572609 58
0.2692818 1.2517418 0.10837951 87
0.28313076 1.2279755 0.12237337 85
0.26306444 1.2624114 -0.0099478718 86
0.26307297 1.2623968 0.15270324 68
0.27587613 1.244414 0.0095639192 91
0.27720934 1.2421067 0.028575432 100
0.26491609 1.263382 0.049853086 85
0.26893964 1.2564186 0.068978049 50
0.28612781 1.2266718 0.083536007 60
0.2779249 1.2408682 0.10570818 81
0.27798641 1.2407618 0.12552269 82
0.2610136 1.2701359 0.15477379 67
0.27546144 1.2487899 0.0096337283 90
0.26884148 1.260335 0.029622151 100
0.26159841 1.2729666 0.05072464 84
0.27450398 1.2504597 0.068003096 51
0.27880016 1.2429672 0.086351827 58
0.27655813 1.2468773 0.10685304 88
0.28633451 1.2298274 0.12237337 76
0.26555657 1.2660638 0.15322088 76
0.2723617 1.2585332 0.0098082526 74
0.27664727 1.2509923 0.028994121 100
0.2645162 1.2723382 0.05055033 84
0.27438918 1.2549657 0.068490572 50
0.28159425 1.2422876 0.086038955 58
0.27839121 1.2479237 0.10685304 81
0.28810209 1.2308364 0.12237337 85
0.26459986 1.272191 0.15477379 75
0.27398324 1.2594513 0.0098082526 74
0.28413025 1.2414579 0.028366089 100
0.27107698 1.2646048 0.049678773 86
0.27794909 1.2524188 0.068003096 51
0.28219154 1.2448957 0.086351827 58
0.27419135 1.2590822 0.10914274 85
0.29441789 1.2232152 0.12012386 77
0.27201873 1.2629349 -0.0098780617 87
0.26247099 1.2798655 0.15684435 66
0.27560785 1.2603638 0.0098082526 89
0.28374451 1.2458229 0.028575432 100
0.28050202 1.2516176 0.048284281 88
0.28148904 1.2498536 0.067515619 51
0.28955549 1.2354381 0.084474608 73
0.27677342 1.2582809 0.10876112 79
0.29116419 1.2325633 0.12237337 93
0.27463135 1.2621089 -0.0098431576 76
0.27359691 1.2639576 0.15166797 69
0.27917686 1.2577745 0.0097384425 75
0.28532386 1.2467033 0.028575432 100
0.28210062 1.2525086 0.048284281 88
0.27922738 1.2576835 0.068490572 50
0.29014149 1.2380263 0.084787481 59
0.28506514 1.2471693 0.1060898 81
0.29269955 1.2334191 0.12237337 85
0.27898747 1.2581155 0.14959741 70
0.28402808 1.2536012 0.0096337283 90
0.28723961 1.2477618 0.028575432 100
0.2869201 1.2483428 0.047761347 90
0.28692701 1.2483302 0.067028143 51
0.28916651 1.2442583 0.08572609 58
0.28887495 1.2447884 0.10532656 82
0.29456189 1.2344482 0.12237337 85
0.28094909 1.2591995 0.14959741 70
0.28371751 1.2579913 0.0097035384 90
0.2926521 1.2416177 0.028156744 100
0.27800995 1.268451 0.049678773 86
0.28851464 1.2492 0.067028143 51
0.29263306 1.2416526 0.085100345 58
0.29139125 1.2439283 0.10494494 75
0.29797035 1.2318714 0.12147357 86
0.28257281 1.260089 0.14959741 78
0.2864593 1.257205 0.0096686333 75
0.29438239 1.2425578 0.028156744 100
0.28931803 1.2519202 0.047935657 89
0.28838384 1.2536472 0.067515619 51
0.29906267 1.2339053 0.083536007 60
0.28939372 1.2517803 0.10647142 81
0.28265366 1.2642405 -0.0098082526 99
0.27885607 1.2712611 0.15270324 76
0.28618523 1.2616004 0.0097384425 75
0.29595086 1.2434027 0.028156744 100
0.28338063 1.2668265 0.049330149 87
0.28998911 1.2545121 0.067515619 51
0.29686612 1.2416973 0.084787481 59
0.28727943 1.2595613 0.10799789 72
0.28429407 1.2651243 -0.0098082526 88
0.28417379 1.2653486 0.15063268 70
0.28986701 1.2590331 0.0096686333 90
0.29393581 1.251384 0.028575432 100
0.29081744 1.2572464 0.048284281 88
0.29176667 1.2554618 0.067515619 51
0.29552948 1.2483879 0.10532656 82
0.28423238 1.2696258 -0.0098780617 97
0.29143459 1.2560861 0.14752686 71
0.29180509 1.2592962 0.028994121 100
0.29243463 1.2581031 0.048284281 88
0.29245153 1.2580712 0.067759357 34
0.29803354 1.2474928 0.10494494 75
0.2876384 1.2671922 0.15063268 78
0.29775301 1.2518892 0.0094941091 92
0.2894347 1.2677805 0.049155839 58
0.29597643 1.2552832 0.10647142 81
0.28749678 1.2714827 0.15166797 77
0.2975094 1.2562726 0.0095639192 91
0.29108682 1.2686418 0.049155839 58
0.29843849 1.2544832 0.067028143 51
0.2864514 1.2775692 -0.0099827768 96
0.28560024 1.2792084 0.15373851 68
0.29563341 1.264307 0.0097035384 90
0.2984722 1.2587905 0.10685304 66
0.29365599 1.2681497 0.15011504 78
0.29736042 1.2651919 0.0097035384 100
0.29948357 1.2610304 0.028889447 69
0.29849476 1.2672486 0.029203463 100
0.29910797 1.2660363 0.048632905 59
0.29975247 1.2690799 0.14959741 78
0.29470679 1.2838345 0.15373851 76
