# .PCD v0.7 - Point Cloud Data file format
VERSION 0.7
FIELDS x y z intensity
SIZE 4 4 4 4
TYPE F F F F
COUNT 1 1 1 1
WIDTH 738
HEIGHT 1
VIEWPOINT 0 0 0 1 0 0 0
POINTS 738
DATA ascii
-1.1643413 0.15328844 0.061547086 19
-1.0944995 0.14817666 0.057883568 28
-1.1805074 0.16380894 0.020803269 21
-1.1601021 0.16531357 0.02045422 30
-1.0645676 0.15530361 0.01877879 6
-1.034353 0.15458509 0.018255217 6
-1.0496486 0.16043133 0.018534455 2
-1.0846148 0.16984613 0.019162742 1
0.12353203 0.026849449 0.044904251 13
0.053333521 0.00050479174 0.015986403 123
0.056104869 0.0047984719 0.047730394 66
0.051258892 0.0031785369 0.047939736 43
0.056322366 0.022434711 0.015637357 9
0.045469105 0.011768878 0.047730394 95
0.041977882 0.011698365 0.047835063 75
0.035981774 0.0085100532 0.048149079 26
0.032070696 0.0087478757 0.048253752 17
0.026028872 0.0056182742 0.048567768 16
0.03130877 0.018955886 0.047835063 9
0.037944555 0.033797264 0.046997689 10
0.017039418 0.0094186068 0.048672438 8
0.0076107979 0.0013990402 0.049300469 7
-1.0301208 1.1263855 0.14171524 3
-1.048301 1.1363534 0.028621947 6
-1.0152054 1.1287674 0.084156215 5
-1.0152731 1.128783 0.14049506 6
-1.0081241 1.1325868 0.02792385 10
-1.0062258 1.132145 0.08373753 26
-1.0276585 1.1371326 0.14171524 37
-0.9912805 1.1343433 0.027644612 30
-0.99134642 1.1343589 0.083004825 88
-1.0263674 1.1426375 0.14171524 84
-0.98805493 1.1392543 0.027609708 38
-0.9920072 1.1402032 0.083109498 100
-1.0211823 1.1472075 0.14136662 95
-0.992585 1.1460416 0.027714422 42
-0.99264604 1.1460565 0.083214171 100
-1.0043705 1.1489147 0.13997212 87
-0.98155731 1.1490221 0.027539898 22
-0.98550767 1.1499997 0.082900152 97
-0.99336809 1.151945 0.13910057 91
-0.95889097 1.1490072 0.027155945 26
-0.98804599 1.1563305 0.083109498 46
-0.99395782 1.1578153 0.13927488 84
-0.97112292 1.1577294 0.027400278 41
-0.97894663 1.1597235 0.082690813 33
-0.99838668 1.1646788 0.13979781 74
-0.96395224 1.1615347 0.027295563 61
-0.96984237 1.1630579 0.08227212 64
-0.98928386 1.1680858 0.13910057 91
-0.96064216 1.1663096 0.027260659 67
-0.9684611 1.1683607 0.08227212 100
-0.97632176 1.170423 0.1380547 92
-0.95345217 1.1700376 0.027155945 78
-0.9651311 1.1731452 0.082167454 92
-0.9633624 1.1726745 0.13700883 100
-0.94818527 1.1742414 0.027086135 89
-0.96178633 1.1779113 0.082062781 100
-0.96579474 1.1789927 0.13735744 100
-0.95062274 1.1805239 0.027155945 93
-0.94494158 1.1789697 0.081225403 100
-0.97012323 1.1858586 0.13788038 98
-0.9568885 1.1878972 0.027295563 92
-0.93773097 1.1825843 0.08091139 100
-0.97058231 1.1916947 0.1380547 91
-0.94772023 1.1909902 0.027155945 92
-0.93820447 1.1883154 0.081016064 88
-0.95183843 1.1921477 0.13648589 98
-0.94047195 1.1945721 0.027051231 71
-0.93865603 1.1940548 0.081120729 74
-0.94269115 1.1952043 0.13578865 100
-0.95242971 1.2036541 0.027295563 55
-0.93716675 1.1992486 0.081120729 38
-0.94694048 1.2020696 0.13631158 99
-0.93178922 1.2030247 0.026946515 48
-0.92423266 1.2008165 0.080492698 22
-0.9550615 1.2098256 0.13718314 85
-0.9302687 1.2081945 0.026946515 75
-0.9227199 1.2059599 0.080492698 26
-0.94969612 1.2139455 0.13683452 84
-0.92298371 1.2116361 0.026841801 75
-0.9154498 1.2093772 0.080178685 32
-0.93859512 1.2163167 0.13596296 91
-0.91377944 1.2144511 0.026702182 75
-0.92537373 1.2179716 0.080806717 88
-0.92558938 1.218037 0.1349171 100
-0.9064849 1.217795 0.026597468 81
-0.92189199 1.2225319 0.080702044 100
-0.91449445 1.2202575 0.13404553 94
-0.90873152 1.2240651 0.026667276 92
-0.90886134 1.2241054 0.080074012 86
-0.92432791 1.2289197 0.13509139 75
-0.90332323 1.2279522 0.026597468 85
-0.90345746 1.2279944 0.079864666 76
-0.92651767 1.235261 0.13544002 47
-0.91314667 1.2366683 0.026806897 83
-0.90755838 1.2348859 0.080178685 70
-0.90400463 1.2337525 0.1335226 46
-0.89636618 1.236606 0.026527658 85
-0.90790957 1.24033 0.080283359 86
-0.90435487 1.2391832 0.13369691 45
-0.88332278 1.2379284 0.02631823 96
-0.90815753 1.2460361 0.080388032 100
-0.91217834 1.2473487 0.13456847 59
-0.88539547 1.2444338 0.026388038 100
-0.89312845 1.2469897 0.079655327 100
-0.91420239 1.2539551 0.1349171 80
-0.89131659 1.251978 0.026527658 100
-0.88198394 1.2488573 0.079131968 100
-0.91439372 1.2596951 0.13509139 85
-0.88979524 1.2565037 0.026527658 99
-0.88047248 1.2533536 0.079131968 100
-0.90152282 1.2604663 0.13404553 75
-0.87673491 1.2576461 0.02631823 96
-0.89011604 1.2622197 0.07976 100
-0.89037532 1.2623082 0.13317397 100
-0.85990447 1.2573966 0.026038991 89
-0.88838905 1.2672436 0.07976 100
-0.88864809 1.2673331 0.13317397 97
-0.86952049 1.2662747 0.02624842 83
-0.86590558 1.265011 0.07860861 91
-0.90194947 1.2776122 0.13456847 59
-0.86760443 1.2717216 0.02624842 81
-0.84704918 1.2644466 0.077666558 57
-0.89998966 1.2831835 0.13456847 40
-0.87337559 1.279362 0.026388038 89
-0.85283667 1.272012 0.078085244 21
-0.89068586 1.2855566 0.13387123 40
-0.85663444 1.2786393 0.0261088 99
-0.86431187 1.2814155 0.078817949 48
-0.87397903 1.2849112 0.13247673 26
-0.8435815 1.2794268 0.025899371 96
-0.86064214 1.2856634 0.078713275 89
-0.86281663 1.2864583 0.13160518 15
-0.84554631 1.2856746 0.025969181 100
-0.84946638 1.287123 0.078189917 100
-0.86848074 1.2941492 0.13230242 7
-0.84373766 1.2905427 0.025969181 100
-0.83268458 1.2864145 0.077352546 80
-0.87224191 1.3011887 0.13282534 1
-0.84574586 1.2965734 0.026038991 100
-0.84404534 1.2959318 0.078085244 48
-0.87047261 1.305902 0.13282534 1
-0.83642524 1.2985927 0.025899371 77
-0.84406716 1.3015063 0.078189917 53
-0.82205147 1.2931125 0.12846756 13
-0.82141739 1.298636 0.025655037 72
-0.84210974 1.3066123 0.078189917 63
-0.85172898 1.3103201 0.13143086 52
-0.82711083 1.3060825 0.025794657 75
-0.82729417 1.306154 0.077457212 65
-0.85735613 1.3178566 0.1321281 100
-0.83081394 1.313082 0.025899371 93
-0.81797963 1.3080342 0.077038527 65
-0.84616452 1.3191195 0.13125655 100
-0.82528836 1.3161819 0.025829561 100
-0.82361287 1.3155165 0.077457212 89
-0.82767051 1.3171279 0.12968774 97
-0.81585413 1.3182392 0.025689943 100
-0.82345766 1.3212912 0.077561885 95
-0.82380694 1.3214314 0.12951343 100
-0.80661541 1.3197615 0.025550323 100
-0.83272821 1.3303435 0.078189917 95
-0.82935697 1.3289773 0.13021068 100
-0.79854828 1.3164923 0.17866045 15
-0.80838948 1.3260086 0.025620133 100
-0.81227976 1.327601 0.0771432 100
-0.81817776 1.3300151 0.12933913 100
-0.77826101 1.3136766 0.17622307 16
-0.80653828 1.3305101 0.025620133 100
-0.80303961 1.3290645 0.076724514 100
-0.81631321 1.334549 0.12933913 100
-0.77645081 1.3180783 0.17622307 16
-0.80816537 1.3370192 0.025689943 100
-0.80466765 1.3355589 0.076933853 100
-0.80688041 1.3364826 0.12864187 100
-0.77992862 1.3252306 0.17695428 18
-0.79522103 1.3368607 0.025480513 100
-0.79358214 1.3361701 0.076410495 100
-0.80499452 1.3409791 0.12864187 100
-0.78539735 1.3327211 0.17792924 18
-0.78577477 1.3386543 0.025340894 89
-0.80252391 1.3457847 0.077038527 72
-0.79372674 1.3420396 0.12777032 100
-0.77054054 1.3321689 0.17622307 16
-0.80960387 1.3541319 0.025829561 59
-0.81345254 1.3557854 0.077771232 51
-0.81195885 1.3551437 0.12968774 28
-0.77231687 1.3381121 0.17671055 5
-0.81662577 1.3630917 0.026004085 90
-0.80213565 1.3568032 0.077247873 100
-0.83539277 1.3712362 0.1321281 58
-0.77750975 1.3461161 0.1776855 11
-0.80549282 1.3636094 0.025829561 100
-0.81298894 1.3668921 0.077980578 100
-0.82061595 1.3702323 0.13090792 100
-0.79377574 1.3584782 0.18012288 33
-0.78867763 1.3621025 0.025550323 100
-0.80165917 1.3678443 0.077457212 100
-0.80929631 1.3712223 0.13003637 100
-0.78979439 1.3625965 0.17987914 35
-0.79218513 1.3689833 0.025655037 100
-0.81426018 1.378835 0.07829459 100
-0.80911452 1.3765385 0.13021068 100
-0.78782183 1.3670361 0.17987914 36
-0.79737908 1.37695 0.025794657 100
-0.80302161 1.3794918 0.077771232 100
-0.80698901 1.381279 0.13021068 100
-0.75315088 1.3570266 0.17549185 22
-0.7971794 1.3822421 0.025829561 100
-0.80099303 1.3839753 0.077771232 100
-0.82309312 1.3940189 0.13195379 100
-0.76384765 1.367094 0.17719802 16
-0.80219632 1.3905118 0.025969181 100
-0.80780989 1.3930877 0.07829459 100
-0.80631012 1.3923995 0.1305593 100
-0.77247554 1.376873 0.17866045 15
-0.79105765 1.3907921 0.025794657 100
-0.81298608 1.400943 0.078713275 100
-0.80062252 1.3952198 0.13021068 100
-0.79207307 1.3912622 0.18158533 12
-0.78515011 1.3940098 0.025724847 100
-0.808855 1.4050887 0.07860861 100
-0.80554181 1.4035403 0.13090792 100
-0.77000493 1.3869314 0.17890419 7
-0.79030865 1.4018447 0.025864467 100
-0.80493492 1.4087398 0.078503937 100
-0.80703789 1.4097311 0.13125655 100
-0.75358719 1.3845335 0.17695428 3
-0.80062336 1.4127681 0.0261088 100
-0.79717439 1.4111267 0.078189917 100
-0.81188017 1.4181253 0.13195379 100
-0.78000551 1.402956 0.18085411 1
-0.80389279 1.4198393 0.026213514 100
-0.80224329 1.4190476 0.07860861 100
-0.80613106 1.4209137 0.13160518 100
-0.79070431 1.4195658 0.026004085 100
-0.80704492 1.4274828 0.079027295 100
-0.80015022 1.4241424 0.13125655 100
-0.79033965 1.424886 0.026038991 100
-0.80665177 1.4328561 0.079131968 100
-0.80871433 1.4338639 0.13230242 100
-0.79174811 1.4310948 0.0261088 100
-0.80086297 1.4355857 0.078922622 100
-0.81365436 1.4418882 0.13299966 100
-0.7931301 1.43732 0.02617861 100
-0.79507107 1.4382844 0.078713275 100
-0.81855601 1.4499526 0.13369691 100
-0.80128235 1.4478521 0.026388038 100
-0.79963607 1.4470263 0.079131968 100
-0.80524975 1.4498423 0.13265105 100
-0.79545826 1.4505243 0.02631823 100
-0.80094808 1.453301 0.079341307 100
-0.79054254 1.448038 0.13143086 100
-0.78583056 1.4518148 0.02617861 100
-0.80555028 1.4618798 0.07976 100
-0.80934364 1.4638159 0.1335226 100
-0.79067451 1.4599007 0.02631823 99
-0.79614478 1.4627156 0.079341307 100
-0.81766492 1.4737897 0.13456847 100
-0.79878527 1.4703389 0.026527658 100
-0.79005176 1.4658041 0.079131968 100
-0.81153971 1.4769615 0.13421984 100
-0.79291207 1.4729531 0.026457848 100
-0.79304546 1.4730229 0.07944598 100
-0.80212718 1.4777768 0.1335226 100
-0.79032665 1.4778703 0.026457848 85
-0.78869361 1.4770079 0.079341307 100
-0.79423863 1.4799364 0.13299966 100
-0.79187697 1.4843901 0.13299966 46
0.13708419 1.2819149 0.12784202 5
0.16115832 1.2553537 0.010855397 13
0.13790539 1.2843782 0.03454173 27
0.11897853 1.3080027 0.060311776 21
0.14736074 1.2725759 0.10199527 11
0.1473766 1.2725561 0.12517071 24
0.20152748 1.2049649 0.128672 8
0.14777729 1.272056 0.17237349 7
0.15663069 1.264533 0.011029921 76
0.16332656 1.2561152 0.032552965 59
0.16302904 1.2564892 0.054385185 51
0.15456033 1.2671359 0.077996381 14
0.16264424 1.2569729 0.09855371 24
0.15524408 1.2662762 0.12326261 85
0.17999864 1.2351555 0.13722014 15
0.15193745 1.2704332 0.1713382 14
0.16951364 1.2517793 0.010715778 100
0.16997722 1.2511923 0.032134276 100
0.15732053 1.2672185 0.055431053 99
0.16244966 1.2607238 0.076777689 29
0.17781371 1.2412696 0.095112152 25
0.16062915 1.263029 0.12211776 100
0.18524796 1.2318562 0.13587044 45
0.15608135 1.2687875 0.17030293 43
0.16626215 1.2593991 0.010855397 100
0.16672969 1.2588028 0.032552965 100
0.15659979 1.2717218 0.055779677 100
0.17763856 1.2448901 0.07409656 30
0.179461 1.2425659 0.095112152 25
0.16840953 1.2566603 0.12020966 100
0.18445748 1.2361937 0.13677025 37
0.15782484 1.2701595 0.17030293 43
0.1679728 1.2607355 0.010855397 100
0.17702645 1.2491056 0.03182026 91
0.15590572 1.2762364 0.056128297 97
0.17564029 1.2508862 0.074827775 30
0.18111283 1.2438564 0.095112152 25
0.18337658 1.2409484 0.11601187 100
0.18608701 1.2374668 0.13677025 30
0.14651933 1.2882937 0.17599694 34
0.17335674 1.2573195 0.010750682 79
0.17381561 1.2567258 0.032238949 60
0.15767521 1.2776089 0.056128297 48
0.16760966 1.2647552 0.076777689 43
0.17552117 1.254519 0.096989371 25
0.17061573 1.2608659 0.12059128 19
0.19010442 1.2356505 0.13587044 22
0.14596823 1.2927561 0.17703223 27
0.16897339 1.2665635 0.010925206 65
0.16214249 1.2754657 0.033390339 28
0.16793972 1.2679107 0.054908119 50
0.18384039 1.2471886 0.073852822 46
0.19765779 1.2291813 0.091670595 54
0.17830727 1.2543994 0.1186832 19
0.19884995 1.2276276 0.13317102 23
0.15837976 1.2803694 0.17237349 57
0.17555621 1.2615278 0.010785587 52
0.16632989 1.273639 0.033180997 28
0.17933899 1.2565621 0.053513627 52
0.17347887 1.2642546 0.076290213 44
0.1992628 1.2304084 0.091670595 54
0.19308719 1.238515 0.1144854 13
0.19926858 1.2304008 0.13362093 46
0.17421183 1.2632926 0.16616182 68
0.17727426 1.2628318 0.010785587 39
0.16809025 1.2749752 0.033180997 28
0.17503056 1.2657984 0.054385185 51
0.19077295 1.2449833 0.073121607 62
0.19372267 1.241083 0.093547814 52
0.20064604 1.2319287 0.1125773 13
0.2032288 1.2285137 0.13272113 47
0.17943195 1.2599788 0.16460891 69
0.18860209 1.2513368 0.010506349 40
0.18424562 1.2571391 0.031924933 30
0.18154857 1.2607312 0.053687938 52
0.18885747 1.2509967 0.073852822 46
0.20011345 1.2360051 0.092296332 53
0.19165161 1.2472752 0.11601187 13
0.21068174 1.2219296 0.13047162 40
0.17650488 1.2674488 0.16667947 67
0.18055102 1.2652929 0.010785587 65
0.19771951 1.2422764 0.030878214 31
0.17951828 1.2666774 0.054210871 51
0.19274414 1.2489464 0.073365346 46
0.20394135 1.2339352 0.091670595 54
0.20019582 1.2389566 0.11372216 13
0.21443352 1.2198691 0.12957181 32
0.18037963 1.2655227 0.16564418 68
0.18823227 1.2585442 0.010611063 81
0.20531309 1.2354777 0.030354854 65
0.19073969 1.2551582 0.05281638 79
0.19323683 1.251786 0.073609084 77
0.20556289 1.2351403 0.091670595 67
0.19949824 1.2433302 0.1144854 13
0.2136865 1.22417 0.13047162 32
0.18096191 1.2683624 0.16616182 68
0.19476181 1.2534213 0.010471444 96
0.19164658 1.2576606 0.031715591 61
0.19252029 1.2564716 0.05281638 79
0.19500506 1.2530904 0.073609084 93
0.20376086 1.2411751 0.092609204 93
0.20937327 1.2335374 0.11181407 14
0.22343105 1.2144072 0.1273223 24
0.18965471 1.2603712 0.163056 70
0.19409445 1.2578894 0.010541254 81
0.19805926 1.2524543 0.031296901 62
0.18717545 1.2673743 0.053862248 100
0.19552362 1.2559303 0.073852822 93
0.20657185 1.2407849 0.092296332 100
0.22487763 1.2156906 0.10723466 14
0.23532051 1.2013751 0.12327318 17
0.1902301 1.2631868 0.16357364 69
0.19579968 1.2591288 0.010541254 81
0.21380252 1.234268 0.03004084 66
0.17956531 1.2815475 0.055256739 99
0.20537198 1.24591 0.072146654 79
0.20358294 1.2483807 0.093547814 100
0.21146616 1.2374943 0.11219569 14
0.2333993 1.207206 0.12462288 16
0.195353 1.2597456 0.16202073 70
0.1975092 1.2603621 0.010541254 81
0.22241977 1.2257082 0.029412808 67
0.1906566 1.2698951 0.053862248 100
0.20935264 1.2438865 0.071659178 80
0.21563184 1.2351512 0.090731993 100
0.20966235 1.2434555 0.11334054 13
0.25085163 1.1861558 0.11832426 8
0.19142675 1.2688237 0.16460891 69
0.20154607 1.2583342 0.010471444 82
0.21705189 1.2366037 0.03004084 66
0.19471827 1.2679027 0.053513627 100
0.21100891 1.2450726 0.071659178 64
0.21611017 1.2379235 0.091044858 100
0.20105398 1.2590237 0.1167751 19
0.24325076 1.1998879 0.12192347 17
0.20102492 1.2590644 0.16098544 72
0.20547956 1.2562237 0.010401634 97
0.21282753 1.2458534 0.030564198 97
0.2055864 1.2560729 0.052119136 100
0.2079955 1.2526729 0.072634131 63
0.21652165 1.2406399 0.09135773 100
0.21402794 1.2441593 0.11295892 27
0.23228487 1.2183932 0.12687239 16
0.20711616 1.2539139 0.15891489 73
0.21169662 1.2508217 0.010262015 98
0.21670595 1.2437021 0.030354854 97
0.19573531 1.2735071 0.053862248 100
0.20959798 1.2538044 0.072634131 94
0.21467409 1.2465899 0.092296332 100
0.20543468 1.2597216 0.11639348 72
0.23265216 1.2210381 0.1273223 32
0.20427614 1.2613682 0.16098544 72
0.20413083 1.2650549 0.010541254 95
0.22285411 1.2382556 0.029936166 99
0.20197126 1.268146 0.053165004 100
0.22029939 1.2419124 0.070684217 65
0.2139937 1.2509378 0.092922069 100
0.2115581 1.254424 0.11486702 100
0.22298881 1.2380629 0.13182132 86
0.20812032 1.2593447 0.15995017 72
0.2106756 1.259864 0.010401634 97
0.22246185 1.2428489 0.030145511 98
0.19943568 1.2760904 0.053862248 100
0.217675 1.2497593 0.071659178 80
0.22492561 1.239292 0.090419121 100
0.22021297 1.2460954 0.1125773 96
0.23041865 1.231362 0.12957181 96
0.20128709 1.2734177 0.16409127 69
0.2055026 1.2708721 0.010611063 94
0.214977 1.2570971 0.030982886 95
0.20337403 1.273967 0.053513627 100
0.21926776 1.2508588 0.071659178 64
0.22872248 1.2371123 0.089793384 100
0.22179356 1.2471864 0.1125773 96
0.22642866 1.2404473 0.13182132 94
0.20843223 1.2666128 0.16150309 70
0.21410373 1.262221 0.010401634 83
0.23365149 1.2335758 0.029412808 67
0.216454 1.2587769 0.051770512 100
0.21879452 1.255347 0.072146654 63
0.23377708 1.2333918 0.088854775 100
0.22686464 1.2435212 0.11143246 91
0.23145044 1.2368011 0.13047162 96
0.22005504 1.2534999 0.15684435 74
0.22134626 1.2550547 0.01022711 70
0.21950603 1.2577707 0.030878214 63
0.21360633 1.2664781 0.052467756 80
0.22040582 1.2564428 0.072146654 79
0.22977528 1.2426145 0.090419121 100
0.23284164 1.2380888 0.10990598 85
0.22862774 1.2443081 0.13227122 94
0.21840933 1.2593893 0.15839726 73
0.21625942 1.2660971 0.010436539 41
0.22781435 1.2489209 0.030250182 32
0.21303034 1.270897 0.05281638 53
0.23088506 1.2443564 0.07019674 82
0.23024166 1.2453128 0.090731993 95
0.23439562 1.2391381 0.10990598 92
0.24216759 1.2275852 0.1273223 97
0.21464241 1.2685007 0.16098544 72
0.21790639 1.2672011 0.010436539 41
0.22718561 1.2533084 0.030459527 32
0.21026671 1.278639 0.053513627 52
0.23025468 1.2487135 0.070684217 65
0.23949984 1.234872 0.08854191 100
0.23268175 1.2450798 0.11105084 84
0.23502767 1.2415676 0.13092151 96
0.21415135 1.272823 0.16202073 70
0.206476 1.2884182 0.010855397 39
0.23337212 1.2478287 0.03004084 33
0.22533977 1.2599505 0.051421888 55
0.23310792 1.2482275 0.070440479 98
0.24447918 1.2310669 0.087603301 99
0.22358063 1.2626052 0.11486702 100
0.24321675 1.232972 0.12822211 100
0.22239918 1.2643882 0.15891489 73
0.22138557 1.2695074 0.010436539 41
0.2173951 1.275573 0.031715591 30
0.22368121 1.2660179 0.051944822 54
0.23578653 1.2476172 0.07019674 82
0.24166709 1.2386786 0.088854775 98
0.24140123 1.2390828 0.10914274 85
0.24368268 1.2356148 0.128672 97
0.2293492 1.2574023 0.1563267 74
0.23187682 1.257256 0.0101573 28
0.22352943 1.2700415 0.031296901 31
0.23521754 1.2521392 0.05037602 56
0.24071133 1.2437246 0.069465525 99
0.24330497 1.2397521 0.088854775 98
0.23982066 1.2450888 0.1102876 92
0.24317914 1.2399447 0.12957181 96
0.22577193 1.2666067 0.15891489 73
0.23131907 1.2616644 0.01022711 42
0.24691588 1.2376015 0.029203463 34
0.23139971 1.2615399 0.051247578 55
0.24120423 1.2464135 0.069709264 83
0.24271557 1.2440817 0.089480512 97
0.24460128 1.2411724 0.10914274 85
0.25321868 1.2278774 0.12597258 99
0.22636977 1.2693002 0.15943253 73
0.23104689 1.2662488 0.010296919 56
0.24979344 1.2370816 0.029098792 68
0.23221222 1.2644358 0.051421888 55
0.24303579 1.2475955 0.069709264 66
0.24774233 1.2402729 0.08854191 84
0.23898226 1.2539024 0.11181407 98
0.25603265 1.2273743 0.12552269 99
0.22515577 1.2754146 0.16098544 72
0.23592111 1.2622464 0.010192205 85
0.2491954 1.241442 0.029308135 68
0.23278189 1.2671664 0.051596198 54
0.23928246 1.2569783 0.070927955 97
0.25780374 1.2279505 0.086038955 72
0.24903673 1.2416906 0.10876112 79
0.25650275 1.2299894 0.12597258 82
0.24237478 1.2521317 -0.0099827768 86
0.23722479 1.2602031 0.15580906 75
0.24512932 1.2515131 0.0099478718 73
0.2476376 1.2475516 0.029622151 100
0.23451924 1.2682707 0.051596198 82
0.24098423 1.2580599 0.070927955 48
0.25095034 1.2423193 0.08854191 70
0.24858463 1.2460558 0.10952436 99
0.25081298 1.2425363 0.1291219 96
0.23687097 1.2645564 0.15684435 66
0.24459952 1.2559075 0.010017681 72
0.25241134 1.2434785 0.029308135 100
0.23723352 1.2676272 0.051421888 82
0.24894246 1.2489978 0.069465525 49
0.2588253 1.2332737 0.086664692 57
0.25852272 1.2337551 0.10647142 81
0.2544556 1.240226 0.12822211 97
0.24056873 1.2623208 0.15580906 67
0.24964035 1.2519853 0.0099129668 87
0.25423154 1.2446177 0.029308135 100
0.23071665 1.282352 0.05281638 79
0.25078389 1.2501502 0.069465525 49
0.25433782 1.2444472 0.08854191 84
0.24992222 1.2515329 0.1102876 99
0.25832462 1.2380496 0.1273223 97
0.23633102 1.2733426 0.15891489 65
0.2480844 1.2580805 0.010017681 72
0.25580707 1.2455959 0.029308135 100
0.23975432 1.2715471 0.051596198 82
0.2502892 1.2545162 0.069953002 49
0.26006949 1.2387053 0.087290429 85
0.25771749 1.2425076 0.10799789 72
0.26602933 1.2290705 0.12462288 100
0.22987166 1.2875235 0.163056 63
0.24874392 1.2608356 0.010052586 86
0.257469 1.2466199 0.029308135 100
0.24046475 1.274325 0.051770512 100
0.24990553 1.2589432 0.070440479 65
0.26170734 1.2397145 0.087290429 71
0.24704504 1.2636037 0.1125773 82
0.26661414 1.2317199 0.12507279 92
0.24582765 1.2655872 0.15580906 67
0.25349438 1.2567087 0.0099478718 87
0.25697294 1.2509987 0.029517479 100
0.25043139 1.2617366 0.05037602 84
0.24946302 1.2633262 0.070927955 48
0.26737744 1.23392 0.086038955 58
0.26706898 1.2344263 0.10570818 81
0.26713294 1.2343214 0.12552269 90
0.2494829 1.2632935 0.15477379 67
0.25631434 1.2560806 0.0099129668 87
0.26493493 1.2418127 0.028889447 100
0.2439931 1.2764736 0.051770512 81
0.26256526 1.2457348 0.068246834 34
0.27112272 1.2315712 0.085413218 58
0.26369679 1.2438619 0.10761628 79
0.26984441 1.2336869 0.12507279 92
0.24729684 1.2710056 0.15684435 66
0.2599847 1.2536219 0.0098431576 88
0.2623924 1.249607 0.029308135 100
0.2487483 1.2723595 0.051247578 82
0.26822805 1.2398756 0.067271881 34
0.26859123 1.23927 0.086664692 57
0.26123101 1.2515436 0.10914274 78
0.27539247 1.2279284 0.12327318 85
0.25094697 1.2686931 0.15580906 67
0.2576707 1.2615566 0.0099827768 100
0.27027747 1.2403581 0.028680105 100
0.24651799 1.2803102 0.051944822 81
0.2709668 1.2391989 0.067028143 51
0.27334216 1.2352047 0.08572609 58
0.2629979 1.2525988 0.10914274 85
0.27607661 1.2306068 0.12372308 92
0.24685207 1.2797483 0.15891489 65
0.26243672 1.2574072 0.0098780617 88
0.26481682 1.2533729 0.029412808 100
0.25640044 1.2676383 0.05055033 84
0.26655409 1.2504284 0.068490572 50
0.27898279 1.2293622 0.084474608 59
0.26069379 1.2603613 0.11066922 78
0.27867633 1.2298818 0.12327318 76
0.25452316 1.2708203 0.15580906 67
0.26312971 1.2601337 0.0099129668 87
0.26650587 1.2543654 0.029412808 100
0.26115856 1.2635016 0.050027397 100
0.26823282 1.2514149 0.068490572 50
0.28158575 1.2286006 0.084161744 74
0.27034083 1.2478132 0.10761628 79
0.28323638 1.2257805 0.12192347 93
0.2611095 1.2635854 -0.0099827768 86
0.26212817 1.261845 0.15270324 76
0.2668505 1.2576735 0.0098431576 88
0.26920119 1.2536249 0.029308135 100
0.26288298 1.2645068 0.050027397 85
0.27190849 1.248962 0.068003096 51
0.27922073 1.2363681 0.085413218 58
0.27102464 1.2504843 0.10799789 87
0.28287199 1.2300794 0.12282328 85
0.26287678 1.2645175 0.15322088 76
0.26955256 1.2569261 0.0098082526 74
0.2728847 1.2511407 0.029098792 100
0.26063332 1.2724121 0.05072464 84
0.27358207 1.2499299 0.068003096 51
0.27690673 1.2441574 0.086664692 57
0.27270356 1.2514552 0.10799789 79
0.28545222 1.2293204 0.12237337 100
0.25978383 1.2738869 0.15580906 67
0.26728603 1.2648473 0.0099478718 73
0.27258435 1.2555734 0.029308135 100
0.26041213 1.2768791 0.051073264 83
0.28215215 1.2388264 0.06629692 35
0.28150326 1.2399622 0.08572609 58
0.27243802 1.2558296 0.10876112 87
0.28995726 1.2251649 0.12102367 94
0.25962785 1.2782518 0.15684435 66
0.26802918 1.2675709 0.0099827768 87
0.28018928 1.2461131 0.028680105 100
0.26513016 1.2726866 0.05055033 84
0.27498189 1.255302 0.068490572 50
0.28606713 1.2357408 0.084787481 59
0.27897531 1.2482553 0.10685304 66
0.29250845 1.2243743 0.12057377 77
0.2690151 1.2658311 -0.0099478718 96
0.27092838 1.262455 0.15166797 69
0.27466694 1.2598362 0.0098082526 89
0.27891693 1.2522751 0.028994121 100
0.26883909 1.2702043 0.050201707 85
0.28251365 1.2458763 0.067028143 51
0.29253405 1.2280493 0.083223134 60
0.28064638 1.2491983 0.10685304 88
0.29505095 1.2235717 0.12012386 77
0.2707476 1.266809 -0.0099478718 86
0.27454227 1.2600579 0.15063268 70
0.2822209 1.2503147 0.0095988233 76
0.27768436 1.2584518 0.029308135 100
0.27931851 1.2555207 0.048632905 88
0.28030989 1.2537425 0.068003096 51
0.29221073 1.232396 0.083848871 59
0.28710073 1.2415618 0.10494494 82
0.29094219 1.2346714 0.12282328 85
0.27249172 1.2677659 0.15270324 68
0.28196386 1.2547464 0.0096686333 75
0.28518981 1.2489123 0.028680105 100
0.27426621 1.2686677 0.049853086 85
0.28200009 1.2546809 0.068003096 51
0.2823559 1.2540375 0.087603301 57
0.28304833 1.2527852 0.10723466 81
0.29822364 1.2253404 0.12012386 86
0.27610058 1.2653503 0.15166797 69
0.28365758 1.2556791 0.0096686333 75
0.29070455 1.2428288 0.028261416 100
0.27121851 1.2783619 0.05072464 84
0.2894206 1.2451701 0.066540658 52
0.29354545 1.2376485 0.084474608 59
0.28095919 1.2605996 0.10876112 72
0.27411571 1.2730789 0.15373851 68
0.28535455 1.2566059 0.0096686333 75
0.2866312 1.2542584 0.028889447 100
0.2825138 1.2618291 0.048981529 87
0.28159663 1.2635156 0.068978049 50
0.29895452 1.2315995 0.083223134 60
0.28736329 1.2529124 0.10685304 81
0.27771136 1.2706594 -0.0099478718 86
0.2860263 1.2553706 0.1480445 79
0.28800398 1.2557666 0.0096337283 90
0.2902194 1.251659 0.028680105 100
0.2880154 1.2557455 0.048284281 88
0.2852056 1.2609551 0.068490572 50
0.29681647 1.2394274 0.084474608 59
0.28998253 1.2520983 0.10647142 81
0.27946064 1.2716069 -0.0099478718 86
0.28497103 1.2613901 0.14959741 70
0.29535988 1.2460983 0.0094242999 93
0.29190227 1.252563 0.028680105 100
0.28595391 1.2636845 0.048981529 87
0.29253832 1.2513738 0.067028143 51
0.29752499 1.2420502 0.084787481 59
0.29537064 1.2460781 0.10494494 75
0.28121322 1.2725482 -0.0099478718 86
0.28304344 1.2691262 0.15166797 69
0.29421249 1.252284 0.0095290141 92
0.29545993 1.2499321 0.02847076 100
0.29234645 1.2558025 0.048109971 59
0.29794064 1.2452548 0.066053182 52
0.29335451 1.2539017 0.10647142 73
0.28478736 1.2700551 0.15166797 69
0.29589754 1.2531741 0.0095290141 76
0.29899606 1.2472821 0.028261416 100
0.28106049 1.2813865 0.05055033 56
0.2959052 1.2531594 0.067028143 51
0.29595903 1.253057 0.1060898 73
0.28658974 1.2708726 -0.0098780617 87
0.28293768 1.277817 0.15373851 68
0.29195178 1.2646517 0.0097384425 75
0.29659066 1.2557594 0.067271881 51
0.29665425 1.2556374 0.10647142 73
0.28640234 1.2752893 -0.0099478718 96
0.29177132 1.2649975 0.14959741 70
0.2927613 1.2673255 0.0097733475 89
0.29190379 1.2689834 0.068978049 50
0.28908643 1.2744303 -0.0099129668 100
0.29997388 1.2575443 0.0095639192 91
0.2975443 1.2622819 0.028994121 100
0.29725066 1.2628545 0.048458595 59
0.29523334 1.2667882 0.14959741 70
0.29806963 1.2655097 0.048632905 59
0.29959562 1.2625084 0.1480445 79
0.29348299 1.2789204 -0.0099478718 100
0.29436013 1.2771802 0.1521856 77
0.29794246 1.2744462 -0.0098431576 100
0.29958606 1.271157 0.15011504 78
0.29970485 1.2753232 -0.0098431576 100
0.29882634 1.2815788 -0.0099478718 100
