# .PCD v0.7 - Point Cloud Data file format
VERSION 0.7
FIELDS x y z intensity
SIZE 4 4 4 4
TYPE F F F F
COUNT 1 1 1 1
WIDTH 723
HEIGHT 1
VIEWPOINT 0 0 0 1 0 0 0
POINTS 723
DATA ascii
-1.1662434 0.16473517 0.020558935 5
-1.1399624 0.16488041 0.020105172 6
-1.0642124 0.15771864 0.01877879 7
-1.0597013 0.16083236 0.01870898 6
-1.1974531 0.1860176 0.021152318 40
0.057826161 0.0095061064 0.015811881 112
0.054231882 0.015552104 0.047311705 24
0.046220958 0.0088728666 0.047835063 100
0.033121884 0.00080418587 0.048567768 41
0.039266348 0.015933037 0.047730394 28
0.036768615 0.017630875 0.047730394 19
0.0306198 0.014579594 0.04804441 18
0.030391634 0.019590139 0.047835063 9
-1.0317228 1.1281974 0.084993593 3
-1.0511844 1.1326048 0.14363267 6
-1.0401857 1.1359541 0.028482327 7
-0.99348146 1.125206 0.083004825 5
-1.0304925 1.1337234 0.14188954 11
-1.0175436 1.1362211 0.028098375 11
-1.0136888 1.1353205 0.084156215 54
-1.021517 1.1371495 0.1411923 50
-0.99466115 1.1374204 0.027714422 35
-1.0005515 1.1388215 0.083528183 100
-1.0122774 1.1416107 0.14049506 91
-0.97593945 1.1383179 0.027400278 42
-0.99931985 1.1439613 0.083528183 100
-1.0013525 1.144452 0.13962349 87
-0.97859424 1.1443274 0.027470088 36
-0.97479194 1.1433963 0.08227212 100
-1.0078433 1.15149 0.14032075 87
-0.98898882 1.1522868 0.027679516 22
-0.96773022 1.1470062 0.081958108 82
-1.004636 1.1561736 0.14014643 84
-0.98363191 1.1572142 0.027609708 25
-0.97982687 1.1562536 0.082690813 39
-1.00121 1.1616523 0.13997212 69
-0.96490449 1.1578343 0.027295563 48
-0.98047251 1.1618198 0.082795486 35
-0.9767409 1.1608645 0.13788038 82
-0.96153742 1.1628809 0.027260659 63
-0.98675829 1.1694365 0.083214171 75
-0.9810831 1.1679614 0.13840333 91
-0.95829254 1.1673818 0.027225753 70
-0.96224898 1.1684241 0.081958108 96
-0.98360819 1.1740515 0.13875194 92
-0.95689625 1.1726443 0.027225753 78
-0.94927162 1.170607 0.081330076 94
-0.97641391 1.1778594 0.13822901 100
-0.9516924 1.1765939 0.027155945 81
-0.94986278 1.1760986 0.081434749 100
-0.96543723 1.1803155 0.13735744 100
-0.94247895 1.1799765 0.027016325 93
-0.95029014 1.1821221 0.081539422 100
-0.96392316 1.1858671 0.13735744 99
-0.94111127 1.1849234 0.027016325 96
-0.9489153 1.1870949 0.081539422 94
-0.96061641 1.190351 0.13718314 94
-0.94350296 1.1912115 0.027086135 92
-0.93399435 1.1885297 0.080806717 86
-0.95338708 1.1939991 0.1366602 100
-0.96132606 1.2016535 0.027435184 58
-0.92683691 1.191803 0.080492698 66
-0.95580441 1.2000765 0.13700883 100
-0.96734029 1.2096796 0.027574802 42
-0.93287975 1.1996939 0.08091139 26
-0.94457358 1.2030826 0.13613728 94
-0.93133503 1.2045763 0.026946515 56
-0.93336314 1.2051712 0.081016064 24
-0.94312924 1.2080363 0.13613728 84
-0.92014843 1.207153 0.026771991 74
-0.92792934 1.2094667 0.080806717 26
-0.9300552 1.2100987 0.13509139 89
-0.91486102 1.2108731 0.026702182 75
-0.92455143 1.2137896 0.080702044 42
-0.93431121 1.216727 0.13561434 99
-0.92287725 1.2188987 0.026876707 78
-0.91153032 1.2154404 0.080074012 94
-0.93464857 1.2224863 0.13578865 94
-0.92138058 1.2237804 0.026876707 78
-0.90622813 1.2191074 0.079864666 95
-0.91790873 1.2227097 0.13439415 94
-0.90825528 1.2255924 0.026667276 89
-0.91029137 1.2262285 0.080178685 78
-0.91814131 1.228681 0.13456847 61
-0.89902955 1.2282679 0.026527658 85
-0.92011577 1.2349365 0.080806717 62
-0.90513343 1.2301983 0.1335226 46
-0.90123016 1.2345424 0.026597468 81
-0.89565772 1.2327586 0.079550654 82
-0.91490346 1.2389193 0.13456847 43
-0.90340441 1.2408378 0.026667276 92
-0.89023346 1.2365711 0.079341307 100
-0.91894394 1.245872 0.13509139 49
-0.89431638 1.2429125 0.026527658 99
-0.89825112 1.2442008 0.079864666 100
-0.91176122 1.2486244 0.13456847 64
-0.88506395 1.2454357 0.026388038 100
-0.89279515 1.247997 0.079655327 100
-0.89684254 1.2493379 0.13334829 88
-0.87564462 1.2483978 0.02624842 99
-0.89662963 1.2554396 0.079969339 100
-0.89688021 1.2555237 0.1335226 84
-0.87396604 1.2533712 0.02624842 96
-0.89114374 1.2592024 0.07976 100
-0.89706331 1.2612118 0.13369691 78
-0.8724404 1.2578424 0.02624842 93
-0.87259668 1.2578959 0.078817949 100
-0.89739758 1.2664018 0.13387123 100
-0.87828594 1.265426 0.026388038 88
-0.87654573 1.2648224 0.079131968 100
-0.89753836 1.272104 0.13404553 85
-0.86891311 1.2680086 0.02624842 77
-0.8709535 1.2687248 0.078922622 78
-0.89380831 1.2767463 0.13387123 50
-0.85585886 1.2689456 0.026038991 78
-0.86543947 1.2723458 0.078713275 42
-0.89203066 1.2817831 0.13387123 36
-0.86172587 1.2763051 0.02617861 93
-0.85812587 1.2750139 0.078399263 17
-0.89220101 1.2872348 0.13404553 33
-0.85994989 1.2812299 0.02617861 96
-0.85259908 1.2785646 0.078189917 57
-0.87914842 1.2881911 0.13299966 20
-0.85815674 1.2861483 0.02617861 100
-0.85269064 1.2841449 0.07829459 100
-0.86610681 1.2890624 0.13195379 13
-0.84134549 1.2855027 0.025899371 100
-0.85463303 1.2904258 0.078503937 100
-0.86054975 1.292618 0.13160518 3
-0.83588272 1.2887118 0.025829561 100
-0.84728795 1.2929806 0.078189917 59
-0.8718707 1.3021815 0.13282534 1
-0.83406359 1.2935462 0.025829561 99
-0.83798164 1.2950282 0.077771232 51
-0.86068672 1.3036169 0.13195379 3
-0.84147424 1.3021872 0.026004085 72
-0.82858604 1.2972581 0.077352546 55
-0.85127777 1.3059368 0.13125655 22
-0.83960801 1.3070412 0.026004085 72
-0.83232611 1.3042269 0.077666558 72
-0.84382313 1.3086703 0.13073361 58
-0.82850522 1.3080111 0.025829561 81
-0.82496518 1.3066294 0.077352546 65
-0.84574133 1.314738 0.13108224 100
-0.81173652 1.3069514 0.025550323 96
-0.8323738 1.315089 0.077875905 68
-0.83456379 1.3159525 0.13021068 100
-0.81728476 1.3146616 0.025689943 100
-0.82304078 1.3169546 0.077457212 91
-0.8437553 1.3252063 0.13125655 100
-0.81908554 1.320924 0.025759751 100
-0.81741744 1.3202529 0.077247873 91
-0.8399604 1.3293241 0.13108224 100
-0.80356282 1.3146777 0.17914793 21
-0.81715411 1.3256997 0.025759751 100
-0.8117879 1.3235185 0.077038527 100
-0.83246225 1.3319219 0.1305593 100
-0.77958542 1.3104293 0.17622307 13
-0.80790371 1.3271937 0.025620133 100
-0.80994493 1.3280313 0.077038527 100
-0.8140021 1.3296962 0.1289905 100
-0.79982394 1.3238783 0.17914793 14
-0.7948665 1.3273369 0.025410704 100
-0.81536907 1.3358335 0.077457212 99
-0.80467767 1.3314029 0.12829325 100
-0.79788238 1.3285868 0.17914793 24
-0.80039006 1.3348804 0.025550323 100
-0.79874486 1.3341922 0.076619841 100
-0.81016082 1.3389676 0.1289905 100
-0.7832033 1.3276911 0.17744176 18
-0.79831058 1.339826 0.025550323 100
-0.78195018 1.3329117 0.075782463 92
-0.81540722 1.3470514 0.12968774 100
-0.77932185 1.3318009 0.17719802 20
-0.80193168 1.3466477 0.025655037 74
-0.80395883 1.3475124 0.0771432 48
-0.8061555 1.3484493 0.1289905 84
-0.7737996 1.3346484 0.17671055 15
-0.80705291 1.355001 0.025794657 63
-0.81640416 1.3590322 0.077980578 55
-0.81856149 1.359962 0.130385 16
-0.80078858 1.3523005 0.18061037 5
-0.795937 1.3555094 0.025620133 100
-0.80894893 1.3611698 0.077666558 100
-0.80380851 1.3589337 0.12916481 61
-0.76972526 1.3441067 0.17671055 15
-0.79012042 1.3588297 0.025550323 100
-0.8031159 1.3645399 0.077457212 100
-0.81988162 1.3719064 0.13090792 100
-0.77669913 1.3529327 0.17792924 37
-0.79181653 1.3648915 0.025620133 100
-0.7993111 1.3682141 0.077352546 100
-0.82152098 1.3780608 0.13125655 100
-0.76931459 1.3549153 0.17719802 30
-0.80615908 1.3769233 0.025934275 100
-0.8008607 1.3745522 0.077561885 100
-0.80484146 1.3763337 0.12986206 100
-0.76545292 1.358706 0.17695428 22
-0.79684883 1.3781255 0.025794657 100
-0.80977041 1.3839599 0.078189917 100
-0.79919153 1.3791833 0.12951343 100
-0.78520411 1.3728678 0.17987914 22
-0.78733295 1.3797396 0.025655037 100
-0.81296283 1.3914253 0.078503937 100
-0.80420119 1.3874304 0.13021068 100
-0.76492339 1.3695223 0.17744176 16
-0.79620403 1.3891847 0.025864467 100
-0.80363649 1.3926032 0.078085244 100
-0.80938667 1.3952479 0.13090792 100
-0.76473147 1.3747089 0.1776855 15
-0.8048076 1.3991681 0.026073895 100
-0.80315691 1.3984016 0.078189917 100
-0.81069988 1.4019046 0.13125655 100
-0.75710505 1.3770152 0.17695428 11
-0.8045246 1.4045057 0.0261088 100
-0.80287427 1.4037325 0.07829459 100
-0.80498844 1.4047229 0.13090792 100
-0.77126366 1.3889251 0.17914793 7
-0.79326206 1.4049571 0.025934275 100
-0.80968231 1.4127189 0.078817949 100
-0.79736084 1.4068944 0.130385 100
-0.79422075 1.4054103 0.18256028 3
-0.79475909 1.4111291 0.026004085 100
-0.8129521 1.4198028 0.079131968 100
-0.80423361 1.4156462 0.13125655 100
-0.79059833 1.4151864 0.025969181 100
-0.79796344 1.418731 0.078399263 100
-0.80903929 1.4240614 0.13195379 100
-0.80284339 1.4266137 0.02624842 100
-0.79221123 1.4214532 0.078189917 100
-0.81403261 1.4320445 0.13265105 100
-0.80042773 1.4315677 0.02624842 100
-0.78981453 1.4263684 0.078189917 100
-0.80801839 1.4352863 0.13230242 100
-0.79105502 1.4324994 0.0261088 100
-0.79837459 1.4361154 0.078817949 100
-0.79865962 1.4362562 0.13160518 100
-0.78503865 1.4356258 0.026038991 100
-0.80486113 1.4455088 0.079341307 100
-0.80334085 1.4447508 0.13230242 100
-0.78997058 1.4436419 0.02617861 99
-0.79904467 1.4482038 0.079131968 100
-0.81177646 1.4546044 0.13334829 100
-0.80175918 1.4557865 0.026457848 100
-0.79298764 1.4513365 0.078922622 100
-0.81281167 1.4613938 0.13369691 100
-0.79947752 1.4602654 0.026457848 100
-0.80138975 1.4612434 0.079550654 100
-0.80873758 1.4650019 0.1335226 100
-0.79007202 1.4610704 0.02631823 100
-0.79909009 1.465721 0.079550654 100
-0.79934233 1.4658511 0.13282534 100
-0.78422445 1.4636656 0.02624842 100
-0.80031961 1.4720335 0.07976 100
-0.80940157 1.4767553 0.13404553 100
-0.78863388 1.4725006 0.026388038 100
-0.7940771 1.4753571 0.079550654 100
-0.81020623 1.4838214 0.13439415 100
-0.79159969 1.479741 0.026492752 71
-0.77407628 1.4704707 0.078503937 85
-0.81663734 1.4929866 0.13526571 91
-0.80518979 1.4933 0.13439415 21
0.12512651 1.2974927 0.13165821 11
0.16274646 1.2540636 0.010820492 26
0.16446593 1.2519143 0.032343622 30
0.16167203 1.2554066 0.054385185 25
0.14524367 1.2759418 0.10262101 11
0.148954 1.2713041 0.12478908 48
0.19452697 1.2143382 0.13137141 15
0.15054154 1.2693197 0.1713382 7
0.15466237 1.2680773 0.011099731 88
0.17004424 1.248698 0.032029606 91
0.15239078 1.2709391 0.055953987 97
0.16371998 1.2566657 0.076290213 29
0.16806671 1.2511894 0.097302236 25
0.16552836 1.2543874 0.12020966 100
0.18775508 1.2263844 0.13452072 31
0.14285356 1.2829549 0.17547931 42
0.16003022 1.2646743 0.010995016 100
0.18399867 1.2342705 0.030982886 100
0.15282068 1.2738196 0.056128297 97
0.15550429 1.2704154 0.078240119 28
0.17088744 1.2509019 0.096989371 37
0.15619782 1.2695357 0.12364423 100
0.19530275 1.2199314 0.13227122 39
0.14934078 1.2782338 0.17340876 42
0.16175935 1.2660325 0.010995016 100
0.18192849 1.2402636 0.031296901 100
0.15703776 1.272065 0.055779677 98
0.16581804 1.260847 0.076533951 29
0.18474364 1.2366668 0.093860678 26
0.1652042 1.2616313 0.12135452 100
0.18726665 1.2334433 0.13587044 38
0.1511173 1.2796292 0.17340876 42
0.15972453 1.2720536 0.011099731 100
0.17613524 1.2509427 0.031924933 91
0.16481882 1.2655003 0.054908119 100
0.16379291 1.2668201 0.077265166 29
0.17174488 1.2565905 0.097615108 24
0.18611529 1.2381043 0.11524864 100
0.18043342 1.2454135 0.13901976 29
0.15043819 1.2839997 0.17444403 42
0.17727807 1.252768 0.010645968 66
0.1716294 1.2600844 0.032448292 59
0.16159377 1.2730831 0.055605363 49
0.17757368 1.2523851 0.074827775 45
0.17336056 1.2578422 0.097615108 24
0.18677557 1.2404664 0.13722014 22
0.15450603 1.2822635 0.17340876 42
0.17888102 1.2540014 0.010645968 53
0.18662497 1.243902 0.031296901 31
0.16932589 1.2664629 0.054733805 50
0.18400696 1.2473164 0.073852822 46
0.18820223 1.241845 0.094173551 52
0.19042248 1.2389494 0.11486702 20
0.18715191 1.2432147 0.13767004 30
0.15855795 1.2805061 0.17237349 57
0.16863537 1.2713382 0.010995016 38
0.17877367 1.2580106 0.032134276 30
0.16037863 1.2821925 0.056302611 48
0.19185165 1.2408185 0.072634131 63
0.19958431 1.2306532 0.091670595 54
0.19103715 1.2418892 0.11524864 20
0.20902875 1.2182376 0.13002171 48
0.17338669 1.2650923 0.16667947 67
0.17271075 1.2694091 0.010925206 39
0.15390757 1.2942984 0.03443706 27
0.18009418 1.2596358 0.053687938 52
0.18144894 1.2578425 0.075071514 90
0.20349529 1.2286603 0.091044858 54
0.19497082 1.239944 0.1144854 13
0.20699298 1.2240305 0.13137141 39
0.17735955 1.2632556 0.16564418 68
0.18182671 1.2612531 0.010715778 39
0.16790166 1.2798332 0.033390339 28
0.1855616 1.2562696 0.053165004 52
0.19522989 1.2433692 0.072634131 47
0.19933558 1.237891 0.092609204 53
0.19913268 1.2381617 0.11372216 13
0.20640144 1.2284631 0.13227122 39
0.18620771 1.2554075 0.16253836 78
0.18465173 1.2608671 0.010680873 80
0.19821429 1.242645 0.030878214 31
0.17052191 1.2798514 0.055605363 49
0.19680157 1.2445431 0.072634131 94
0.1973508 1.2438052 0.093547814 52
0.20537588 1.233023 0.11219569 14
0.21025071 1.2264733 0.13137141 31
0.18089873 1.2659094 0.16564418 68
0.18390426 1.2652922 0.010750682 79
0.20453227 1.2373844 0.030459527 65
0.18168896 1.2682892 0.054210871 76
0.20309693 1.2393264 0.071659178 64
0.19657561 1.248149 0.094173551 78
0.20924711 1.2310057 0.11143246 14
0.21292463 1.2260303 0.13092151 32
0.18713844 1.2609166 0.16357364 69
0.1879153 1.2632794 0.010680873 80
0.21435696 1.227257 0.029726824 67
0.18570131 1.2662956 0.053862248 100
0.19995663 1.2468752 0.072634131 63
0.20634541 1.2381715 0.091983467 100
0.20845431 1.2352984 0.11219569 14
0.22827631 1.2082943 0.12552269 16
0.18190953 1.2714612 0.16667947 67
0.19208041 1.2613704 0.010611063 81
0.21603513 1.2284842 0.029726824 67
0.18048438 1.2772901 0.054908119 100
0.2017068 1.2481549 0.072634131 78
0.2115528 1.2346377 0.091044858 100
0.19744697 1.254003 0.11639348 13
0.23103225 1.2078954 0.12507279 16
0.1905745 1.2634379 0.16357364 69
0.20074382 1.2528332 0.010401634 97
0.21170449 1.2376804 0.030250182 65
0.19151038 1.2655981 0.053513627 100
0.19631368 1.2589577 0.07409656 76
0.20846444 1.2421597 0.092296332 100
0.21286166 1.2360808 0.11181407 14
0.24162322 1.196319 0.12147357 8
0.20013845 1.2536702 0.15995017 72
0.20484796 1.2508609 0.010331824 98
0.21225628 1.2405398 0.030354854 97
0.19565284 1.2636715 0.053165004 100
0.20505342 1.2505748 0.072634131 63
0.20674169 1.2482227 0.093234941 100
0.21342736 1.2389083 0.11219569 14
0.22955173 1.216444 0.12687239 16
0.19740754 1.2612269 0.16202073 70
0.20644444 1.252003 0.010331824 84
0.21729624 1.236778 0.03004084 66
0.19729188 1.2648438 0.053165004 100
0.2112577 1.24525 0.071659178 80
0.2129156 1.242924 0.091983467 100
0.20928663 1.2480154 0.11410378 20
0.23668939 1.2095697 0.12462288 16
0.19903848 1.2623934 0.16202073 70
0.20350918 1.2597289 0.010471444 96
0.2166205 1.2411973 0.030250182 98
0.19211686 1.2758307 0.054210871 100
0.21406522 1.244809 0.071415432 64
0.22027308 1.2360349 0.090419121 100
0.20755553 1.2540098 0.11524864 40
0.22922137 1.2233874 0.12822211 24
0.19294888 1.2746549 0.16564418 68
0.19823778 1.2706928 0.010680873 93
0.22392562 1.2341291 0.029726824 100
0.19952297 1.2688634 0.053339314 100
0.20993581 1.2540419 0.072634131 63
0.22522703 1.2322767 0.089480512 100
0.19900504 1.2696006 0.1186832 91
0.23520765 1.2180704 0.12642249 49
0.20461929 1.2616094 0.16098544 72
0.21151072 1.2555741 0.010331824 98
0.21991819 1.2435133 0.030250182 98
0.20477185 1.2652413 0.05281638 100
0.21625298 1.2487712 0.071659178 80
0.22692353 1.2334639 0.089480512 97
0.22216994 1.2402831 0.11143246 91
0.22459355 1.2368064 0.13137141 78
0.20863295 1.2597024 0.15995017 72
0.2108466 1.2599823 0.010401634 97
0.21921679 1.2478898 0.030459527 97
0.20414814 1.2696598 0.053165004 100
0.21106374 1.2596687 0.073121607 93
0.22059241 1.2459024 0.091670595 100
0.21926183 1.2478248 0.11295892 100
0.22059783 1.2458946 0.13362093 85
0.20805976 1.2640086 0.16098544 72
0.21038061 1.264519 0.010471444 82
0.23453879 1.2293423 0.029203463 68
0.20147008 1.2774936 0.053862248 100
0.21960354 1.2510896 0.071659178 64
0.22233889 1.2471066 0.091670595 94
0.22657251 1.240942 0.11105084 84
0.22786039 1.2390667 0.13137141 100
0.20987269 1.2652586 0.16098544 72
0.21999303 1.2541351 0.01022711 70
0.23614413 1.2304406 0.029203463 68
0.20773244 1.2721219 0.053165004 100
0.22352102 1.2489593 0.071171694 81
0.23513237 1.231925 0.08854191 100
0.21716061 1.2582903 0.11486702 94
0.23169491 1.2369679 0.13047162 96
0.21160352 1.2664428 0.16098544 72
0.21272075 1.2685342 0.010506349 40
0.22208497 1.2546928 0.03066887 32
0.21730232 1.2617621 0.051944822 54
0.21295908 1.2681818 0.073852822 100
0.23785362 1.2313851 0.088229038 98
0.22106731 1.2561971 0.11410378 100
0.23332685 1.2380761 0.13047162 96
0.21550351 1.2644209 0.15995017 72
0.22115144 1.2597475 0.010296919 42
0.2215521 1.2591507 0.030878214 31
0.21791023 1.2645745 0.052119136 54
0.22355291 1.256171 0.071902916 96
0.23396012 1.2406718 0.089793384 100
0.23152184 1.244303 0.11105084 100
0.23604903 1.2375607 0.13002171 96
0.21938527 1.2623779 0.15891489 73
0.2206451 1.2642205 0.010366729 41
0.23212227 1.2469982 0.03004084 33
0.2251631 1.2574409 0.051247578 55
0.23075616 1.2490481 0.070684217 81
0.22903228 1.251635 0.091670595 100
0.24080053 1.2339758 0.10837951 87
0.23227963 1.246762 0.13227122 100
0.22003466 1.2651365 0.15943253 73
0.22457853 1.2620313 0.010296919 28
0.23158568 1.2514366 0.030250182 32
0.21697471 1.2735281 0.05281638 53
0.23462042 1.2468481 0.07019674 82
0.23834342 1.241219 0.089480512 97
0.23917294 1.2399648 0.10952436 85
0.24147087 1.2364904 0.1291219 96
0.22602782 1.25984 0.15736198 74
0.23060229 1.2564216 0.0101573 28
0.18933395 1.3192705 0.03443706 27
0.22411418 1.2663025 0.051944822 54
0.23838261 1.2445726 0.069709264 66
0.24532893 1.2339938 0.087916173 100
0.23642278 1.2475574 0.11105084 91
0.24301949 1.2375109 0.1291219 96
0.22235224 1.2689859 0.15995017 72
0.21810949 1.2793133 0.010611063 27
0.23705089 1.2502462 0.03004084 33
0.22258532 1.2724447 0.052467756 53
0.24112484 1.2439944 0.069465525 99
0.24263656 1.2416744 0.089167647 100
0.23487613 1.2535836 0.11219569 91
0.24571723 1.2369469 0.128672 97
0.22726011 1.2652709 0.15839726 73
0.22966236 1.2653562 0.010296919 42
0.24306744 1.2446271 0.029622151 33
0.23624232 1.2551812 0.05055033 56
0.23846942 1.2517374 0.070440479 49
0.25072101 1.232792 0.087290429 99
0.24616098 1.2398434 0.10876112 87
0.24523258 1.241279 0.12957181 88
0.231089 1.26315 0.15736198 74
0.25083381 1.2361782 0.0096686333 75
0.24472606 1.2456956 0.029622151 67
0.22610101 1.2747183 0.052467756 53
0.2401529 1.2528218 0.070440479 49
0.24593693 1.2438087 0.089167647 84
0.25098389 1.2359443 0.10761628 87
0.24793202 1.2407 0.1291219 96
0.23281237 1.2642603 0.15736198 74
0.23742494 1.2608336 0.0101573 57
0.24853408 1.243389 0.029412808 67
0.22679454 1.2775264 0.05264207 53
0.24610534 1.2472029 0.069465525 49
0.25183702 1.2382025 0.087916173 84
0.24944848 1.2419531 0.10876112 79
0.25481075 1.2335328 0.12687239 90
0.2252003 1.2800298 0.16202073 70
0.24448138 1.2534695 0.0099827768 87
0.2491214 1.2461269 0.029517479 100
0.23388985 1.2702301 0.051770512 81
0.24883339 1.2465826 0.069221787 33
0.2598047 1.229221 0.086038955 87
0.24060994 1.2595959 0.1125773 96
0.26163572 1.2263235 0.12462288 100
0.23111063 1.274628 0.15995017 72
0.23979685 1.264698 0.010192205 85
0.24866313 1.2505584 0.029726824 100
0.23457944 1.2730185 0.051944822 81
0.24311674 1.2594036 0.070927955 48
0.25511292 1.2402726 0.087916173 70
0.25275064 1.2440399 0.10876112 79
0.25805399 1.2355824 0.12687239 99
0.23697925 1.2691914 0.15787962 65
0.24786407 1.2555906 0.0099827768 87
0.25034243 1.2516074 0.029726824 100
0.24475771 1.2605832 0.05055033 100
0.24902177 1.2537299 0.069953002 99
0.26093057 1.2345902 0.086664692 57
0.24818414 1.2550762 0.11105084 84
0.25762194 1.2399077 0.1277722 97
0.2458677 1.2587991 0.15425615 75
0.25691435 1.2447314 0.0097384425 75
0.2520254 1.2526504 0.029726824 100
0.25170526 1.2531689 0.049678773 86
0.25488338 1.2480211 0.068978049 50
0.26151633 1.2372773 0.086977564 57
0.25606728 1.2461035 0.10876112 79
0.26028773 1.2392673 0.1273223 97
0.24250156 1.2680769 0.15684435 66
0.25021693 1.2593932 0.010017681 72
0.26205811 1.2400626 0.028889447 100
0.24610859 1.2661 0.050898954 83
0.26070145 1.2422774 0.068003096 51
0.26005366 1.2433348 0.087916173 56
0.25670546 1.2488008 0.10914274 85
0.26599923 1.2336287 0.12552269 90
0.24424204 1.2691472 0.15684435 66
0.25080258 1.2620933 0.010052586 86
0.26154324 1.244428 0.029098792 100
0.24672028 1.2688075 0.051073264 100
0.26226917 1.2432342 0.068003096 51
0.26367739 1.2409179 0.087290429 57
0.25217515 1.2598358 0.11143246 77
0.27361271 1.2245772 0.12282328 93
0.24188441 1.2767611 0.15891489 65
0.25355503 1.2614224 0.010017681 72
0.26216942 1.2471422 0.029203463 100
0.24949244 1.268157 0.050898954 83
0.26187208 1.2476351 0.068490572 50
0.27144504 1.2317659 0.085413218 58
0.25388682 1.2608725 0.11143246 91
0.27318797 1.2288766 0.12372308 75
0.2496424 1.2679085 0.15580906 67
0.26246071 1.2504431 0.0097733475 89
0.25665697 1.2601404 0.029936166 100
0.25634903 1.260655 0.050027397 85
0.25742453 1.258858 0.069953002 49
0.26798642 1.2412103 0.086977564 57
0.27072525 1.236634 0.10570818 73
0.27379069 1.2315121 0.12417299 83
0.2573348 1.2590079 0.15270324 68
0.26618138 1.248005 0.0097035384 90
0.26244843 1.254292 0.029517479 100
0.25501192 1.2668165 0.05055033 84
0.26724052 1.2462212 0.068003096 51
0.27064148 1.2404934 0.086664692 57
0.26533952 1.2494228 0.10837951 87
0.27142367 1.239176 0.12597258 82
0.25707093 1.2633488 0.15373851 68
0.26379198 1.2558849 0.0098431576 88
0.26819542 1.2484093 0.029098792 100
0.25472552 1.2712766 0.050898954 83
0.259837 1.262599 0.07019674 82
0.27830097 1.2312534 0.084787481 59
0.26601833 1.2521052 0.10876112 79
0.27899748 1.2300711 0.12327318 76
0.25879484 1.2643683 0.15373851 68
0.26347196 1.260334 0.0099129668 87
0.27389777 1.2424923 0.028680105 100
0.25647709 1.2723043 0.050898954 83
0.27658126 1.2379001 0.066540658 52
0.27193967 1.2458433 0.087290429 71
0.26572192 1.2564837 0.10952436 78
0.28060508 1.2310141 0.12327318 85
0.26448086 1.2586074 -0.0098780617 87
0.25467423 1.2753894 0.15684435 66
0.26719102 1.257871 0.0098431576 88
0.27054054 1.2520928 0.029203463 100
0.26522669 1.2612598 0.049678773 100
0.26826075 1.2560257 0.068978049 50
0.28152773 1.233139 0.084787481 59
0.26742178 1.257473 0.10952436 78
0.28123865 1.2336377 0.12372308 83
0.26317957 1.2647913 -0.0099827768 96
0.26225325 1.2663893 0.15373851 68
0.27387986 1.2501876 0.0096686333 90
0.27521187 1.2478712 0.028889447 100
0.27190915 1.2536149 0.048807215 88
0.27193809 1.2535645 0.068490572 50
0.28019193 1.2392106 0.08572609 58
0.27010375 1.2567545 0.10914274 85
0.28577295 1.2295049 0.12237337 85
0.26398772 1.2673906 0.15373851 68
0.27654848 1.2494116 0.0096337283 90
0.2709443 1.2592368 0.029517479 100
0.26668894 1.2666972 0.050027397 85
0.27362776 1.2545321 0.068490572 50
0.28281012 1.2384337 0.085413218 58
0.27569541 1.2509072 0.10761628 87
0.28351644 1.2371955 0.12417299 83
0.26763999 1.2650298 0.15270324 68
0.27428481 1.2573249 0.0097733475 89
0.27560422 1.2549928 0.029203463 100
0.26548117 1.2728853 0.05055033 84
0.2792308 1.248583 0.067515619 51
0.28152874 1.2445214 0.086351827 58
0.27930924 1.2484443 0.10685304 81
0.28898731 1.2313384 0.12237337 85
0.26556453 1.272738 0.15477379 67
0.27500898 1.2600282 0.0098082526 89
0.28902793 1.2350467 0.0279474 100
0.27796373 1.2547629 0.048632905 88
0.27896008 1.2529875 0.068003096 51
0.28995377 1.233397 0.084161744 59
0.28002021 1.2510984 0.10723466 88
0.29250664 1.2288477 0.12147357 86
0.26921198 1.2703583 0.15373851 68
0.2825563 1.2505015 0.0095988233 76
0.28871015 1.2394452 0.028156744 100
0.27190578 1.2696368 0.050027397 85
0.28064767 1.2539307 0.068003096 51
0.28965151 1.2377539 0.084787481 59
0.28361079 1.2486069 0.10647142 73
0.29221439 1.2331493 0.12237337 85
0.27574864 1.2627325 -0.0098431576 76
0.27847648 1.2578315 0.14959741 78
0.28423518 1.2514322 0.0095988233 76
0.28069803 1.2578397 0.029203463 100
0.28713194 1.2461847 0.047587037 90
0.27850109 1.2618194 0.068978049 50
0.29224053 1.2369305 0.084474608 59
0.28338546 1.2529714 0.10723466 81
0.29477444 1.2323403 0.12192347 76
0.27650383 1.2654374 -0.0098780617 87
0.28391549 1.2520113 0.14752686 71
0.28783792 1.2488489 0.0095290141 76
0.28048429 1.2622806 0.029412808 100
0.2811414 1.2610803 0.048981529 87
0.28403267 1.2557993 0.068003096 51
0.293872 1.2378274 0.084474608 59
0.29167256 1.2418447 0.10456333 75
0.29638988 1.2332284 0.12192347 76
0.27631432 1.2698971 -0.0099478718 86
0.27632245 1.2698823 0.15270324 68
0.28569433 1.2567905 0.0096686333 75
0.2917344 1.245666 0.028366089 100
0.28285724 1.2620158 0.048981529 87
0.28478283 1.2584692 0.068246834 68
0.29456401 1.2404546 0.084787481 59
0.28957406 1.249645 0.1060898 81
0.29893824 1.2323983 0.12147357 86
0.27806902 1.2708346 0.15270324 68
0.28644711 1.2594708 0.0097035384 90
0.29718387 1.2395306 0.0279474 100
0.28079805 1.2699623 0.049678773 86
0.28743064 1.2576442 0.068003096 51
0.28938839 1.2540083 0.10685304 81
0.27981088 1.2717956 -0.0099478718 86
0.27798718 1.2751826 0.15373851 76
0.28627354 1.2639158 0.0097733475 89
0.28753558 1.2615522 0.029203463 100
0.29005238 1.2568386 0.048284281 88
0.29100445 1.2550555 0.067515619 51
0.28923005 1.2583787 0.10761628 79
0.28062224 1.2744997 -0.0099827768 96
0.2815721 1.2727208 0.15270324 68
0.29642069 1.2489281 0.009459204 77
0.29672962 1.2483445 0.028366089 100
0.28988877 1.2612647 0.048632905 88
0.29455695 1.252448 0.067028143 51
0.29644841 1.2488756 0.10532656 75
0.29056033 1.2599963 0.14856213 71
0.29995307 1.2462692 0.0093893949 77
0.29654408 1.2527623 0.028575432 100
0.29345748 1.2586415 0.048284281 88
0.29255155 1.260367 0.068003096 51
0.29903415 1.2480195 0.10494494 82
0.28868032 1.2677407 0.15063268 70
0.2982308 1.2536442 0.028575432 100
0.29424474 1.2613013 0.048458595 59
0.29979774 1.2506341 0.10532656 67
0.28685123 1.2755041 0.15270324 68
0.29669285 1.2603536 0.0096337283 90
0.28847405 1.2762636 0.049853086 57
0.29945374 1.2550091 0.067028143 51
0.29198718 1.2694628 0.15063268 70
0.29658288 1.2647945 0.0097035384 100
0.29933843 1.2594143 0.067515619 51
0.29293659 1.2719138 -0.0098431576 100
0.2937322 1.2703605 0.15063268 70
0.29124677 1.2800305 -0.0099827768 100
0.29812333 1.2747452 0.15115032 77
0.29642293 1.2826236 -0.0099827768 100
