# .PCD v0.7 - Point Cloud Data file format
VERSION 0.7
FIELDS x y z intensity
SIZE 4 4 4 4
TYPE F F F F
COUNT 1 1 1 1
WIDTH 730
HEIGHT 1
VIEWPOINT 0 0 0 1 0 0 0
POINTS 730
DATA ascii
-1.1443812 0.15187997 0.060500365 21
-1.1724136 0.16393739 0.020663649 22
-1.122348 0.16093306 0.019791029 4
-1.0525607 0.1544902 0.01856936 6
-1.0183712 0.15328702 0.017975979 6
-1.0099516 0.15544643 0.01783636 1
0.05578655 0.0060622692 0.015881689 126
0.053728282 0.008720696 0.047625721 37
0.047784328 0.0054496527 0.047939736 26
0.045251727 0.007119298 0.047939736 100
0.040509522 0.0054732561 0.048149079 79
0.036730587 0.0055982471 0.048253752 43
0.040911794 0.017231107 0.047625721 28
0.036899924 0.017541289 0.047730394 19
0.032146096 0.015954137 0.047939736 18
0.027112424 0.014572799 0.048149079 8
0.024610221 0.016310871 0.048149079 8
0.023975611 0.026518881 0.047730394 9
-1.0278268 1.1273153 0.084784247 3
-1.047298 1.1317247 0.14328404 4
-1.044019 1.1371293 0.028552137 7
-1.010936 1.1295097 0.083946876 7
-1.0304291 1.1339992 0.14188954 9
-1.0174794 1.1364946 0.028098375 11
-1.0136249 1.1355934 0.084156215 52
-1.0195129 1.13697 0.14101799 48
-0.99472529 1.1371508 0.027714422 35
-1.0006158 1.1385509 0.083528183 100
-1.0084655 1.1404166 0.14014643 91
-0.97593945 1.1383179 0.027400278 42
-1.0070858 1.1458358 0.083946876 100
-1.0052261 1.1453869 0.13997212 87
-0.97846347 1.144861 0.027470088 37
-0.98048085 1.1453557 0.082586139 100
-1.00384 1.1510847 0.13997212 87
-0.98115951 1.1506257 0.027539898 21
-0.96378797 1.1463073 0.081748761 86
-1.002635 1.1559643 0.13997212 81
-0.97587651 1.155256 0.027470088 25
-0.975954 1.1552757 0.082481466 44
-0.99734634 1.1606768 0.13962349 71
-0.96490449 1.1578343 0.027295563 48
-0.98047251 1.1618198 0.082795486 30
-0.9767409 1.1608645 0.13788038 82
-0.9576667 1.1618749 0.027190849 63
-0.99255735 1.1709437 0.083528183 78
-0.9810831 1.1679614 0.13840333 91
-0.95829254 1.1673818 0.027225753 70
-0.96997446 1.1704595 0.082376793 100
-0.98360819 1.1740515 0.13875194 92
-0.95682591 1.1729074 0.027225753 81
-0.95691961 1.1729324 0.081748761 92
-0.98019224 1.1791551 0.13857763 100
-0.95548159 1.1779019 0.027225753 93
-0.94593638 1.1753156 0.081225403 100
-0.96536559 1.1805799 0.13735744 100
-0.94255048 1.1797159 0.027016325 96
-0.95999211 1.1845038 0.082062781 100
-0.96015316 1.1845479 0.13700883 100
-0.93725818 1.1838512 0.026946515 93
-0.95276362 1.1881658 0.081748761 92
-0.96061641 1.190351 0.13718314 94
-0.93972713 1.1898658 0.027016325 96
-0.93791205 1.1893543 0.081016064 86
-0.95346111 1.1937366 0.1366602 100
-0.96125072 1.2019173 0.027435184 57
-0.93060392 1.1931584 0.080702044 68
-0.96339208 1.2025292 0.13770607 99
-0.96749359 1.20915 0.027574802 43
-0.92727405 1.1975107 0.080597371 28
-0.94855231 1.2036685 0.13648589 94
-0.93517262 1.2057021 0.027016325 56
-0.93336314 1.2051712 0.081016064 24
-0.94121736 1.2074754 0.13596296 84
-0.92221791 1.207209 0.026806897 75
-0.93957037 1.2123623 0.081434749 26
-0.94166845 1.2129853 0.13613728 89
-0.91677588 1.2114494 0.026737086 78
-0.91498882 1.2109115 0.080178685 36
-0.93049544 1.2155786 0.13526571 99
-0.91530389 1.216311 0.026737086 81
-0.90396565 1.2128575 0.079655327 99
-0.93282169 1.2216467 0.13561434 99
-0.92145973 1.2235236 0.026876707 88
-0.91584975 1.2217946 0.080388032 92
-0.91989177 1.2230403 0.13456847 92
-0.90467554 1.2236381 0.026597468 88
-0.91053003 1.2254637 0.080178685 76
-0.9107731 1.2255396 0.13387123 66
-0.89918953 1.227762 0.026527658 85
-0.91456443 1.2326186 0.080492698 64
-0.905294 1.2296903 0.1335226 48
-0.89385384 1.2313479 0.026457848 85
-0.89970475 1.2332175 0.07976 82
-0.90755731 1.2357265 0.13387123 43
-0.89595836 1.2378681 0.026527658 89
-0.89419669 1.237298 0.079550654 97
-0.90773612 1.241679 0.13404553 47
-0.89819998 1.2439044 0.026597468 99
-0.90213019 1.2451904 0.080074012 100
-0.91563195 1.2496086 0.1349171 64
-0.88126749 1.2441779 0.02631823 100
-0.89848286 1.2498814 0.079969339 100
-0.90251642 1.2512177 0.13387123 85
-0.87589484 1.2476512 0.02624842 99
-0.89688355 1.2546821 0.079969339 100
-0.9009127 1.2560318 0.13387123 80
-0.87792224 1.2541585 0.02631823 93
-0.88942295 1.258058 0.079655327 100
-0.90289527 1.2626259 0.13421984 80
-0.87252551 1.2575941 0.02624842 93
-0.88023919 1.2602382 0.079236634 100
-0.89559942 1.2655032 0.13369691 100
-0.87828594 1.265426 0.026388038 89
-0.8727718 1.2635133 0.078922622 100
-0.88624412 1.2681865 0.13299966 91
-0.8690868 1.2675133 0.02624842 77
-0.88243622 1.2721934 0.079550654 76
-0.89022475 1.274924 0.1335226 56
-0.85971528 1.2700372 0.0261088 78
-0.86929184 1.273434 0.078922622 46
-0.88273114 1.2782011 0.13299966 37
-0.85804933 1.2747092 0.0261088 93
-0.85445374 1.2734203 0.078189917 17
-0.89041573 1.2863109 0.13387123 36
-0.8598606 1.281476 0.02617861 96
-0.86189801 1.2822151 0.078713275 57
-0.88280386 1.2897995 0.13334829 20
-0.85815674 1.2861483 0.02617861 93
-0.85456592 1.2848322 0.078399263 100
-0.85862404 1.2863197 0.13125655 13
-0.84143537 1.2852597 0.025899371 100
-0.85659689 1.2908742 0.07860861 100
-0.84756213 1.2875285 0.130385 3
-0.83222729 1.2870686 0.025759751 100
-0.85112053 1.2941363 0.078399263 63
-0.87196356 1.3019333 0.13282534 1
-0.83406359 1.2935462 0.025829561 100
-0.83611351 1.2943217 0.077666558 51
-0.86068672 1.3036169 0.13195379 3
-0.83979183 1.3009878 0.025969181 79
-0.83623296 1.299628 0.077771232 55
-0.85146481 1.3054476 0.13125655 20
-0.84343249 1.3082397 0.026073895 71
-0.83241934 1.3039856 0.077666558 68
-0.84020001 1.3069911 0.130385 58
-0.82487327 1.3063171 0.025759751 81
-0.82878023 1.3078412 0.077561885 68
-0.84583634 1.3144945 0.13108224 100
-0.81917769 1.3098855 0.025689943 96
-0.8305158 1.3143563 0.077771232 68
-0.82900327 1.31376 0.12968774 97
-0.81737977 1.314423 0.025689943 100
-0.82128066 1.3159761 0.077352546 95
-0.84200102 1.3242259 0.13108224 99
-0.81537527 1.3194311 0.025689943 100
-0.81556457 1.3195072 0.0771432 95
-0.83626372 1.3278365 0.13073361 100
-0.82466155 1.3284717 0.025899371 100
-0.8155852 1.3247843 0.077247873 97
-0.8307144 1.3309307 0.130385 100
-0.77416247 1.3079557 0.17549185 16
-0.80790371 1.3271937 0.025620133 100
-0.8173359 1.3310641 0.077457212 100
-0.82321829 1.3334779 0.12986206 100
-0.774113 1.3133283 0.17573559 13
-0.79865867 1.3286327 0.025480513 100
-0.80993217 1.3333023 0.0771432 97
-0.81582004 1.3357412 0.12933913 100
-0.78697592 1.3237935 0.1776855 20
-0.79660207 1.333572 0.025480513 100
-0.79311913 1.3321143 0.076305822 100
-0.81741315 1.3422817 0.12968774 100
-0.77211887 1.3233254 0.17597933 20
-0.80577832 1.3427032 0.025689943 100
-0.78756791 1.3350108 0.076096483 92
-0.81367248 1.3460379 0.12951343 100
-0.77759117 1.3307965 0.17695428 22
-0.80918795 1.3500232 0.025794657 75
-0.79467303 1.343829 0.076619841 49
-0.79872447 1.3455579 0.12829325 90
-0.77370113 1.3348794 0.17671055 15
-0.807257 1.3545272 0.025794657 61
-0.82761592 1.3632951 0.07860861 55
-0.78822941 1.3463326 0.17890419 3
-0.79226953 1.353914 0.025550323 96
-0.81261188 1.3627633 0.077875905 100
-0.80563551 1.3597285 0.12933913 60
-0.78428775 1.3504417 0.17866045 17
-0.79032582 1.358362 0.025550323 100
-0.80149454 1.3632646 0.077352546 100
-0.82009166 1.3714283 0.13090792 100
-0.78235561 1.3548632 0.17866045 36
-0.80095702 1.3689439 0.025794657 100
-0.80661458 1.3714521 0.077771232 100
-0.81787819 1.3764458 0.13090792 100
-0.77112931 1.3557198 0.17744176 33
-0.80809039 1.3775032 0.025969181 100
-0.81008202 1.3783941 0.078085244 100
-0.8049472 1.3760972 0.12986206 100
-0.76193148 1.3568554 0.17646681 22
-0.79674274 1.3783606 0.025794657 100
-0.81148344 1.3850194 0.07829459 100
-0.7990852 1.3794188 0.12951343 100
-0.78871697 1.3747351 0.18036664 21
-0.79107863 1.3811648 0.025724847 100
-0.81488878 1.3920157 0.07860861 100
-0.80430883 1.3871942 0.13021068 100
-0.75960892 1.3668232 0.17671055 16
-0.79246277 1.3877478 0.025794657 100
-0.80352789 1.3928394 0.078085244 100
-0.80927747 1.3954852 0.13090792 100
-0.75019938 1.3682998 0.17573559 13
-0.79766208 1.3955638 0.025934275 100
-0.80326658 1.3981655 0.078189917 100
-0.81081015 1.4016671 0.13125655 100
-0.76621383 1.3809661 0.17817298 14
-0.79728109 1.4011126 0.025969181 100
-0.81010896 1.4071215 0.078713275 100
-0.80137998 1.4030327 0.1305593 100
-0.77485889 1.3906093 0.17963541 7
-0.79337281 1.4047226 0.025934275 100
-0.80979449 1.4124815 0.078817949 100
-0.79567045 1.4058082 0.13021068 100
-0.79971617 1.4077197 0.18329149 3
-0.7874276 1.4079202 0.025864467 100
-0.80923325 1.418321 0.078922622 100
-0.80052429 1.414167 0.13090792 100
-0.79251295 1.4158193 0.026004085 100
-0.80347615 1.4210932 0.078713275 100
-0.80915338 1.4238242 0.13195379 100
-0.79721814 1.4244645 0.026143705 100
-0.79916972 1.4254127 0.07860861 100
-0.81738561 1.4342618 0.13299966 100
-0.7968362 1.4298081 0.02617861 100
-0.79878241 1.4307617 0.078713275 100
-0.80443996 1.4335333 0.13195379 100
-0.78735405 1.4309615 0.026038991 100
-0.80900139 1.4416603 0.07944598 100
-0.79854327 1.4364916 0.13160518 100
-0.79231387 1.4389606 0.02617861 100
-0.81034178 1.4479449 0.079655327 100
-0.80345851 1.4445146 0.13230242 100
-0.78985292 1.4438758 0.02617861 100
-0.80249494 1.4502341 0.079341307 100
-0.80987698 1.4539468 0.13317397 100
-0.79831189 1.4537418 0.026388038 100
-0.79845041 1.4538121 0.079236634 100
-0.81826323 1.4638593 0.13421984 100
-0.79959804 1.4600298 0.026457848 100
-0.79973203 1.4600983 0.07944598 100
-0.81063288 1.4656718 0.13369691 100
-0.79019254 1.4608365 0.02631823 99
-0.80098671 1.4664006 0.079655327 100
-0.79592186 1.4637898 0.13247673 100
-0.78753012 1.4659774 0.02631823 100
-0.80716151 1.4761925 0.080178685 100
-0.80738741 1.47631 0.13387123 100
-0.78875643 1.4722669 0.026388038 99
-0.79773754 1.4769781 0.07976 100
-0.80680209 1.481733 0.13404553 100
-0.79147583 1.4799751 0.026492752 70
-0.78278035 1.475373 0.079027295 80
-0.8077063 1.4885651 0.13439415 98
-0.81058961 1.4958769 0.1349171 22
0.12768108 1.2945085 0.13089497 11
0.15524623 1.2602735 0.14531837 7
0.16541275 1.2510749 0.010750682 26
0.14842138 1.2723291 0.033704355 28
0.17428246 1.23998 0.05264207 26
0.12815168 1.2976843 0.10700117 10
0.15403262 1.2653102 0.12326261 49
0.20076632 1.2068516 0.1291219 16
0.15433475 1.2649323 0.16978529 7
0.15714878 1.2649447 0.011029921 89
0.17128593 1.2471335 0.031924933 91
0.14867482 1.2756208 0.056476921 72
0.17359295 1.2442269 0.074340299 30
0.16683865 1.2527366 0.097615108 24
0.16552836 1.2543874 0.12020966 100
0.19017813 1.2233317 0.13362093 23
0.1464566 1.2784154 0.1739264 28
0.16003022 1.2646743 0.010995016 100
0.17163375 1.2499553 0.032029606 100
0.15035373 1.2769489 0.056476921 100
0.17516762 1.2454726 0.074340299 30
0.16599569 1.2571071 0.098240845 24
0.15862867 1.2664521 0.122881 100
0.19168341 1.2245225 0.13362093 46
0.1517328 1.2751995 0.17237349 42
0.15929431 1.269182 0.011064826 100
0.17331141 1.2512732 0.032029606 100
0.15703776 1.272065 0.055779677 100
0.16337103 1.2639734 0.077021427 29
0.18961373 1.2304447 0.092609204 40
0.1627841 1.2647233 0.12211776 100
0.19327217 1.2257705 0.13362093 31
0.15945217 1.2689803 0.16978529 51
0.1696282 1.2594898 0.010820492 100
0.17009163 1.2588934 0.032448292 59
0.16735035 1.262421 0.054559495 100
0.16509765 1.2653199 0.077021427 29
0.17910233 1.2472978 0.095737889 25
0.18017378 1.245919 0.11715672 100
0.18529937 1.2393229 0.13722014 30
0.1564548 1.2764423 0.17185585 36
0.17988956 1.2497315 0.010576159 67
0.17668051 1.2538911 0.032029606 60
0.16055238 1.2747961 0.055779677 49
0.1886552 1.2383697 0.072634131 31
0.1711176 1.2611017 0.098240845 24
0.17979765 1.2498507 0.13991955 22
0.1523248 1.2854607 0.17444403 42
0.16454306 1.2732459 0.011064826 51
0.17594293 1.2583625 0.032238949 30
0.16837436 1.2682439 0.054908119 50
0.1818428 1.2506597 0.074340299 46
0.19205281 1.2373297 0.093234941 39
0.18111771 1.2516063 0.11791996 13
0.19806445 1.229481 0.13362093 31
0.15882531 1.2807109 0.17237349 64
0.17598531 1.2618543 0.010785587 39
0.16556063 1.2755635 0.03328567 28
0.17011589 1.269573 0.054908119 50
0.18592599 1.2487817 0.073852822 46
0.19368628 1.2385763 0.093234941 53
0.19230786 1.2403891 0.11486702 13
0.20438874 1.2245018 0.13182132 39
0.17113444 1.2682335 0.16771474 67
0.17288512 1.2695408 0.010925206 39
0.17695469 1.26415 0.032448292 29
0.17906466 1.261355 0.053862248 51
0.17563906 1.2658927 0.076290213 100
0.20127505 1.2319344 0.091670595 54
0.19986641 1.2338003 0.11295892 13
0.20832562 1.222595 0.13092151 48
0.17753175 1.2633857 0.16564418 68
0.17942819 1.2644534 0.010785587 52
0.17389065 1.2718421 0.032866981 29
0.18078208 1.2626469 0.053862248 51
0.17975333 1.2640195 0.075802729 100
0.19933558 1.237891 0.092609204 53
0.19913268 1.2381617 0.11372216 13
0.20757014 1.2269037 0.13182132 39
0.18504915 1.2569534 0.163056 70
0.17996272 1.2673483 0.010820492 78
0.18995127 1.2539232 0.031610917 30
0.1860719 1.2591373 0.053339314 52
0.18621984 1.2589384 0.074827775 100
0.19507521 1.2470363 0.094173551 65
0.21366009 1.2220573 0.10952436 14
0.20916712 1.2280961 0.13182132 31
0.18329164 1.2628741 0.16460891 69
0.1923936 1.2541604 0.010506349 68
0.20113558 1.2423246 0.030773543 64
0.18423039 1.2652125 0.053862248 77
0.19736385 1.2474312 0.072877869 47
0.2037842 1.2387388 0.092296332 80
0.21524012 1.2232287 0.10952436 14
0.21308383 1.226148 0.13092151 32
0.18501431 1.2641511 0.16460891 85
0.18817362 1.263469 0.010680873 80
0.21341541 1.2290435 0.029831495 66
0.1847831 1.268093 0.054036561 77
0.19785875 1.2502601 0.073121607 62
0.20542252 1.2399443 0.092296332 80
0.20521531 1.240227 0.11334054 13
0.21813506 1.2226067 0.12957181 16
0.17760286 1.2778857 0.16875002 81
0.18989834 1.2647289 0.010680873 93
0.20679227 1.2415191 0.030564198 64
0.18183398 1.2758082 0.054733805 75
0.19720089 1.2546962 0.073609084 62
0.20939001 1.2379501 0.091670595 100
0.21148023 1.2350785 0.11181407 14
0.2357724 1.2017045 0.12327318 17
0.18392551 1.2729348 0.16667947 67
0.20082811 1.2528942 0.010401634 83
0.21061584 1.2393579 0.030354854 65
0.19626665 1.2592025 0.05281638 100
0.2057043 1.2461505 0.072146654 79
0.20970434 1.2406186 0.091983467 100
0.21754447 1.2297759 0.1102876 14
0.2337046 1.207427 0.12462288 16
0.20022285 1.2537313 0.15995017 72
0.20251584 1.2541101 0.010401634 97
0.21109164 1.2421623 0.030459527 97
0.19332924 1.2669086 0.053513627 100
0.20042324 1.2570255 0.073609084 77
0.2101973 1.2434084 0.092296332 100
0.22258583 1.2261488 0.10914274 14
0.23523346 1.2085284 0.12462288 16
0.19740754 1.2612269 0.16202073 70
0.19956633 1.2618344 0.010541254 95
0.21274185 1.2433425 0.030459527 97
0.18812916 1.2778865 0.054559495 100
0.21134064 1.2453091 0.071659178 80
0.21299815 1.2429829 0.091983467 100
0.20937008 1.2480748 0.11410378 20
0.23224288 1.2159728 0.12642249 16
0.1968824 1.2656013 0.163056 70
0.19666654 1.2695851 0.010680873 93
0.2247757 1.2298411 0.029517479 100
0.19220513 1.2758932 0.054210871 100
0.20841682 1.2529712 0.072634131 78
0.21579185 1.2425435 0.091670595 100
0.20310545 1.2604811 0.1167751 46
0.23155102 1.2202613 0.1273223 24
0.19973001 1.2652537 0.16253836 70
0.19841257 1.2708155 0.010680873 93
0.21949735 1.2407815 0.030145511 98
0.20198667 1.2657244 0.05299069 100
0.21922949 1.241163 0.070684217 65
0.22311839 1.2356235 0.090106249 100
0.20143554 1.2665095 0.11791996 91
0.23088527 1.22456 0.12822211 48
0.2070109 1.2585677 0.15995017 72
0.21159548 1.2556332 0.010331824 98
0.22685203 1.233739 0.029622151 100
0.20485827 1.2653015 0.05281638 100
0.21633655 1.2488295 0.071659178 80
0.22474572 1.2367617 0.090106249 100
0.21439505 1.2516156 0.11410378 96
0.22467503 1.2368631 0.13137141 94
0.21092737 1.256592 0.15891489 73
0.21565217 1.2535806 0.010262015 98
0.21719536 1.2513486 0.03066887 96
0.20667598 1.2665632 0.05281638 100
0.21922272 1.2484163 0.071415432 48
0.22084165 1.2460748 0.091670595 100
0.2239781 1.2415384 0.11143246 84
0.22417185 1.2412583 0.13227122 86
0.21271309 1.2578315 0.15891489 73
0.21055326 1.2646375 0.010471444 82
0.22339806 1.2459202 0.030250182 98
0.20502934 1.272687 0.053339314 100
0.21864825 1.2528416 0.071902916 96
0.22250545 1.2472209 0.091670595 100
0.2200717 1.2507674 0.11334054 100
0.23243478 1.2327521 0.12957181 96
0.20785937 1.268563 0.16202073 70
0.21548781 1.2607445 0.010366729 69
0.23389426 1.2337413 0.029412808 67
0.20661026 1.2737682 0.053339314 100
0.22799334 1.2423983 0.07019674 82
0.22845674 1.2417184 0.090419121 100
0.22379526 1.248557 0.1125773 100
0.23608533 1.2305269 0.128672 89
0.21160352 1.2664428 0.16098544 72
0.2149618 1.2652216 0.010436539 41
0.2276808 1.2464216 0.030145511 32
0.21618587 1.2634122 0.052119136 81
0.2207455 1.2566727 0.072146654 95
0.23453289 1.2362936 0.089167647 100
0.2221674 1.254571 0.11372216 89
0.23441884 1.2364621 0.13002171 96
0.21550351 1.2644209 0.15995017 72
0.22115144 1.2597475 0.010296919 42
0.22266549 1.2574927 0.030773543 32
0.21791023 1.2645745 0.052119136 54
0.22465953 1.254523 0.071659178 64
0.23396012 1.2406718 0.089793384 100
0.22933301 1.2475629 0.11181407 84
0.22953102 1.247268 0.13272113 94
0.22369295 1.2559625 0.15684435 74
0.22286299 1.2608924 0.010296919 28
0.21772361 1.2686044 0.031401575 31
0.216324 1.2707046 0.05264207 53
0.22965533 1.2507 0.070927955 97
0.235605 1.2417721 0.089793384 100
0.23862308 1.2372432 0.10914274 85
0.23227963 1.246762 0.13227122 100
0.21789205 1.2683517 0.1604678 72
0.22237226 1.2653672 0.010366729 27
0.22607678 1.259766 0.030773543 32
0.21367744 1.2785136 0.053339314 52
0.23462042 1.2468481 0.07019674 82
0.23398459 1.2478095 0.090731993 95
0.23050877 1.2530649 0.1125773 100
0.23824582 1.2413666 0.13047162 96
0.22069934 1.2678965 0.15995017 72
0.22849259 1.2598207 0.01022711 28
0.18833387 1.3210032 0.03454173 27
0.21982768 1.2730219 0.05264207 53
0.23628688 1.247946 0.07019674 82
0.24649388 1.2323956 0.087603301 99
0.23650613 1.247612 0.11105084 84
0.24417043 1.2359353 0.128672 97
0.22243932 1.269043 0.15995017 72
0.22147274 1.2743446 0.010506349 27
0.20552114 1.2988329 0.033076324 29
0.23028529 1.2608159 0.051247578 55
0.23579016 1.2523649 0.070684217 65
0.25134432 1.2284867 0.086664692 100
0.23603207 1.2519935 0.11181407 98
0.24579871 1.2370001 0.128672 97
0.22840101 1.2637085 0.15787962 73
0.2384336 1.2519772 0.010017681 43
0.23989746 1.2497127 0.029936166 33
0.23849028 1.2518895 0.050201707 56
0.23963118 1.2501246 0.07019674 66
0.25080177 1.2328442 0.087290429 85
0.24411136 1.243194 0.10952436 85
0.24531484 1.2413323 0.12957181 96
0.23117509 1.2632058 0.15736198 74
0.24651372 1.24291 0.0098082526 74
0.24688348 1.2423339 0.029412808 67
0.24331823 1.2478894 0.049678773 57
0.24551359 1.2444685 0.069221787 67
0.25020447 1.2371588 0.087916173 84
0.25204423 1.234292 0.10723466 88
0.24687952 1.24234 0.12957181 96
0.23281237 1.2642603 0.15736198 74
0.24816635 1.2439665 0.0098082526 74
0.25282541 1.2366503 0.028994121 68
0.22893497 1.2741653 0.052293446 80
0.24717164 1.2455285 0.069221787 67
0.24759269 1.2448673 0.089167647 84
0.24944848 1.2419531 0.10876112 72
0.25062367 1.2401078 0.128672 97
0.23246419 1.2686234 0.15839726 73
0.24448138 1.2534695 0.0099827768 87
0.2512553 1.24275 0.029308135 68
0.23282549 1.2719144 0.051944822 81
0.25201473 1.2415483 0.068490572 50
0.25769418 1.2325609 0.086664692 57
0.24060994 1.2595959 0.1125773 100
0.25851262 1.2312657 0.12597258 99
0.23317465 1.2713618 0.15891489 65
0.24085918 1.2630038 0.0101573 71
0.25184628 1.2454821 0.029412808 100
0.24410555 1.2578266 0.05037602 84
0.24522591 1.25604 0.070440479 49
0.2593106 1.2335783 0.086664692 71
0.2485787 1.2506931 0.1102876 78
0.25494817 1.2405353 0.12822211 97
0.23595294 1.270828 0.15839726 56
0.24900496 1.2539452 0.0099478718 73
0.25148132 1.2499636 0.029622151 100
0.24589559 1.2589445 0.05037602 84
0.25329983 1.2470398 0.068978049 67
0.25579524 1.2430277 0.088229038 56
0.25034255 1.2517946 0.1102876 85
0.25873318 1.238304 0.1273223 97
0.24289215 1.2637734 0.15580906 67
0.2516619 1.2532392 0.0099129668 87
0.25097618 1.2543499 0.029831495 100
0.24123877 1.2701223 0.051421888 82
0.25488338 1.2480211 0.068978049 50
0.26255405 1.2355964 0.086664692 57
0.25606728 1.2461035 0.10876112 87
0.26028773 1.2392673 0.1273223 89
0.24047187 1.2713645 0.15787962 65
0.25648418 1.249162 0.0098082526 89
0.25475523 1.2519845 0.029622151 100
0.24506786 1.267799 0.051073264 83
0.25551689 1.2507411 0.069221787 50
0.25592631 1.2500727 0.089167647 70
0.25978199 1.2437783 0.10799789 72
0.26599923 1.2336287 0.12552269 90
0.24424204 1.2691472 0.15684435 66
0.25080258 1.2620933 0.010052586 100
0.25635517 1.2529609 0.029622151 100
0.24465013 1.2722123 0.051421888 100
0.25917527 1.2483226 0.068734311 33
0.26880863 1.2324786 0.08572609 58
0.25625494 1.2531258 0.10990598 85
0.26956308 1.2312378 0.12462288 92
0.23987716 1.2800624 0.15995017 64
0.25570604 1.2580492 0.0099478718 87
0.26122135 1.2489028 0.029308135 100
0.25369474 1.2613847 0.050201707 100
0.2527298 1.262985 0.070684217 49
0.27152562 1.2318144 0.085413218 58
0.25600007 1.2575617 0.11066922 92
0.27125546 1.2322625 0.12462288 92
0.24972934 1.2679609 0.15580906 67
0.26040685 1.2538749 0.0098431576 88
0.26178536 1.2515715 0.029412808 100
0.2573722 1.2589455 0.049853086 100
0.26048282 1.2537479 0.069221787 50
0.26900086 1.2395153 0.086664692 57
0.2666924 1.2433724 0.10723466 81
0.27779371 1.2248236 0.12237337 76
0.2573348 1.2590079 0.15270324 68
0.25809976 1.2618115 0.0099827768 87
0.26151356 1.2560598 0.029622151 100
0.25611556 1.2651547 0.05037602 84
0.26732367 1.2462705 0.068003096 51
0.27173182 1.2388434 0.086351827 58
0.26742727 1.2460959 0.10761628 79
0.27051094 1.2409004 0.12642249 82
0.25814304 1.2617385 0.15322088 76
0.2648069 1.2541618 0.0098082526 74
0.26616806 1.2518511 0.029308135 100
0.25270307 1.2747099 0.051247578 82
0.2689046 1.2472053 0.068003096 51
0.27028033 1.2448697 0.087290429 57
0.26701477 1.2504137 0.10837951 79
0.28097558 1.2267128 0.12237337 85
0.2529119 1.2743555 0.15684435 66
0.26759195 1.2534771 0.0097733475 89
0.27095813 1.2477143 0.028994121 100
0.2585746 1.2689147 0.05055033 84
0.27466047 1.241376 0.067028143 51
0.28098971 1.2305404 0.084474608 59
0.26580682 1.2565333 0.10952436 78
0.28461713 1.2243304 0.12147357 86
0.25086492 1.2821136 0.15891489 65
0.2681939 1.2561411 0.0098082526 74
0.27254382 1.248637 0.028994121 100
0.26222906 1.2664309 0.050201707 85
0.26626965 1.2594606 0.069465525 49
0.27954638 1.236557 0.085413218 58
0.26840636 1.2557745 0.10914274 85
0.28710252 1.2235219 0.12102367 77
0.26418242 1.2630612 -0.0099478718 86
0.26612863 1.2597039 0.15166797 69
0.26898107 1.2589043 0.0098431576 88
0.27529529 1.2479191 0.028889447 100
0.26603627 1.2640276 0.049853086 85
0.27103326 1.255334 0.068734311 67
0.28224263 1.2358325 0.085100345 58
0.2731238 1.2516971 0.10799789 79
0.28293976 1.2346196 0.12372308 75
0.26499498 1.2658391 -0.0099827768 86
0.26792538 1.260741 0.15166797 69
0.27456695 1.2528856 0.0097035384 90
0.27292341 1.255767 0.029308135 100
0.2617532 1.2753505 0.050898954 83
0.2755948 1.2510835 0.068003096 51
0.28476757 1.2350019 0.084787481 59
0.2766681 1.2492018 0.10723466 81
0.2815854 1.2405809 0.12507279 92
0.27146858 1.2583175 0.15063268 70
0.27633867 1.2538918 0.0097035384 90
0.28847042 1.2324402 0.027842728 100
0.26556894 1.2729349 0.05055033 84
0.28322315 1.2417185 0.066540658 52
0.2835564 1.2411293 0.08572609 58
0.27456048 1.257036 0.10876112 79
0.28906783 1.2313839 0.12237337 85
0.27135825 1.2626983 0.15166797 77
0.27011588 1.2687476 0.0099827768 87
0.27827626 1.2542059 0.029098792 100
0.26723829 1.2738755 0.05055033 84
0.27507418 1.259912 0.068978049 50
0.28898704 1.2351196 0.084474608 59
0.27713785 1.2562346 0.10837951 87
0.29727501 1.2203506 0.11922406 78
0.2710945 1.2670038 -0.0099478718 86
0.2654303 1.2770972 0.15580906 75
0.28069574 1.2540431 0.0096686333 90
0.27811074 1.2586893 0.029308135 100
0.28361696 1.2487924 0.047935657 89
0.28073213 1.2539777 0.068003096 51
0.29069355 1.2360731 0.084474608 59
0.27414933 1.2658095 0.1102876 78
0.29419011 1.2297885 0.12147357 86
0.27291799 1.2680227 -0.0099478718 86
0.27668315 1.2612553 0.15063268 70
0.28423518 1.2514322 0.0095988233 76
0.28166327 1.2560911 0.029098792 100
0.28039172 1.2583945 0.048807215 88
0.28425726 1.2513921 0.067515619 51
0.28937653 1.2421186 0.085413218 58
0.28718069 1.2460964 0.10570818 81
0.29383266 1.2340463 0.12237337 85
0.27843669 1.2619361 -0.0098082526 88
0.27831373 1.2621589 0.15063268 78
0.2868776 1.2506028 0.0095639192 91
0.27952513 1.2640324 0.029517479 100
0.27922782 1.2645755 0.049330149 87
0.28117281 1.2610229 0.068734311 84
0.29007751 1.2447581 0.08572609 58
0.29072976 1.2435668 0.10494494 75
0.29358238 1.2383564 0.12327318 76
0.27632245 1.2698823 0.15270324 68
0.28656384 1.2549872 0.0096337283 90
0.29260468 1.243866 0.028261416 100
0.27516344 1.2759755 0.05037602 84
0.28754011 1.2531898 0.067515619 51
0.28976753 1.2490891 0.086351827 58
0.28855327 1.2513247 0.10647142 81
0.27982581 1.2673919 0.15166797 69
0.29118729 1.2506673 0.0095290141 76
0.29055572 1.2518404 0.028680105 100
0.28835458 1.2559283 0.048284281 88
0.29025397 1.2524008 0.067271881 51
0.29808077 1.2378647 0.084161744 59
0.28752691 1.2574655 0.10761628 79
0.28360301 1.2647529 -0.0098082526 88
0.27798718 1.2751826 0.15373851 68
0.28807172 1.2603421 0.0097035384 90
0.28621244 1.2638228 0.048981529 87
0.2937257 1.2497575 0.066784397 34
0.29191989 1.2531382 0.10647142 73
0.29089826 1.2550507 -0.0095988233 90
0.28512526 1.2658579 0.15063268 78
0.29548496 1.2506952 0.0094941091 92
0.2976642 1.2465794 0.028261416 100
0.28429496 1.2718295 0.049678773 86
0.2908414 1.2594655 0.068003096 51
0.29461107 1.2523458 0.1060898 66
0.28519207 1.2701352 -0.0098780617 97
0.29056033 1.2599963 0.14856213 71
0.2970804 1.2515366 0.0094941091 92
0.29738855 1.25095 0.02847076 100
0.29707801 1.2515411 0.047587037 90
0.29800433 1.2497776 0.066540658 52
0.2859222 1.2727809 -0.0099129668 87
0.29039004 1.2642745 0.14959741 70
0.29977039 1.2506866 0.009459204 77
0.28964481 1.2701377 0.049330149 87
0.29798469 1.2541169 0.1060898 66
0.28863528 1.272077 0.15166797 69
0.29494348 1.2639514 0.0097035384 90
0.29953837 1.2550528 0.067028143 51
0.29778996 1.2584388 0.10685304 73
0.29035613 1.2728355 -0.0098780617 100
0.28852898 1.276374 0.15270324 68
0.29675561 1.2648829 0.0097035384 100
0.29768085 1.2630749 0.048458595 59
0.29770067 1.2630361 0.068003096 51
0.29868752 1.2611077 0.10723466 66
0.29037896 1.277344 -0.0099478718 100
0.29918712 1.2601314 0.14752686 71
0.29672885 1.2692246 0.068734311 84
0.2948657 1.2728972 -0.0098431576 100
0.29408702 1.2880282 0.05055033 28
