# .PCD v0.7 - Point Cloud Data file format
VERSION 0.7
FIELDS x y z intensity
SIZE 4 4 4 4
TYPE F F F F
COUNT 1 1 1 1
WIDTH 731
HEIGHT 1
VIEWPOINT 0 0 0 1 0 0 0
POINTS 731
DATA ascii
-1.1486204 0.16081482 0.020244792 23
-1.1234853 0.15729573 0.059453648 30
-1.1539613 0.16587721 0.020349506 32
-1.0564635 0.15543976 0.01863917 6
-1.010435 0.15227281 0.01783636 5
-1.0375936 0.15988633 0.018325027 1
0.087152004 0.004239738 0.046893016 21
0.055120081 0.0064938664 0.015881689 69
0.054636687 0.0057480931 0.047730394 50
0.047549069 0.011454821 0.015881689 4
0.039842546 0.0059181452 0.048149079 71
0.043998837 0.017558277 0.047521047 48
0.033400118 0.0078450441 0.048253752 26
0.028623402 0.0062632561 0.048463095 17
0.022431314 0.0032431483 0.048777111 8
0.024441838 0.011563361 0.048358422 8
0.014804065 0.0036699772 0.048986454 7
0.019159794 0.015250921 0.048358422 8
0.023456693 0.026886284 0.047730394 9
-1.0177767 1.1264778 0.084260888 5
-1.0314393 1.1295844 0.14188954 4
-1.0319445 1.1360931 0.028342709 8
-0.99888378 1.1284423 0.083318844 11
-1.0125771 1.1316112 0.14032075 17
-0.9995746 1.1340201 0.02778423 16
-1.0171299 1.1381441 0.084365562 75
-1.0171881 1.1381578 0.14084367 68
-0.98461491 1.136446 0.027539898 37
-0.99440104 1.1387829 0.083214171 100
-1.0177662 1.1443622 0.14101799 100
-0.99505204 1.1443584 0.027749326 45
-0.97569972 1.1396694 0.08227212 100
-1.0165162 1.149559 0.14101799 87
-0.99962777 1.1509118 0.02785404 30
-0.98222357 1.1466337 0.082690813 100
-0.99396616 1.1495202 0.13910057 91
-0.97507256 1.1502433 0.027435184 25
-0.98096627 1.1517128 0.082690813 60
-0.98883265 1.1536741 0.13875194 91
-0.97166282 1.1556051 0.027400278 33
-0.98723346 1.1595509 0.083109498 37
-0.99121088 1.1605587 0.13910057 78
-0.96262866 1.1586585 0.027260659 50
-0.9762612 1.1621612 0.082586139 40
-0.98797756 1.1651716 0.13892625 87
-0.96692973 1.1659789 0.027365373 61
-0.95735162 1.1634786 0.081644088 94
-0.99030441 1.1720805 0.13927488 89
-0.96754152 1.1715184 0.027400278 71
-0.96569258 1.1710293 0.082167454 98
-0.97355372 1.1731093 0.13788038 98
-0.94867808 1.1724107 0.027086135 81
-0.95649678 1.1745101 0.081748761 96
-0.96244484 1.1761073 0.13700883 100
-0.94733542 1.1773783 0.027086135 92
-0.95900148 1.1805522 0.081958108 100
-0.95724481 1.1800743 0.1366602 100
-0.9459762 1.1823413 0.027086135 96
-0.94222814 1.1813083 0.081120729 100
-0.97316355 1.1898351 0.13822901 94
-0.94074851 1.1862245 0.027016325 93
-0.9331612 1.1841061 0.080702044 90
-0.97368187 1.1954195 0.13840333 92
-0.95453101 1.1963067 0.027295563 83
-0.93540353 1.1908869 0.08091139 84
-0.95095104 1.1952922 0.13648589 100
-0.94926482 1.2001904 0.027225753 60
-0.93783921 1.1969121 0.081120729 54
-0.93804175 1.1969702 0.13544002 100
-0.94199342 1.2037466 0.027121039 42
-0.93250424 1.2009878 0.08091139 24
-0.94610828 1.2049428 0.13631158 91
-0.93287355 1.2064334 0.026981421 64
-0.91573888 1.2013904 0.080074012 24
-0.95039171 1.2115893 0.13683452 84
-0.92750829 1.2104644 0.026911611 74
-0.91422409 1.2065041 0.080074012 30
-0.94693178 1.2162547 0.1366602 91
-0.92979056 1.2167751 0.026981421 75
-0.92225152 1.214499 0.080597371 56
-0.9339208 1.2180221 0.13561434 99
-0.91674811 1.2184298 0.026771991 83
-0.91878098 1.2190514 0.080492698 100
-0.92472655 1.2208691 0.1349171 100
-0.90562242 1.2205904 0.026597468 85
-0.92102045 1.2253568 0.080702044 92
-0.92124039 1.225425 0.13474278 87
-0.90777737 1.2271192 0.026667276 85
-0.90790707 1.2271599 0.080074012 72
-0.92146248 1.2314104 0.1349171 56
-0.90998477 1.2334149 0.026737086 83
-0.90059143 1.2304333 0.07976 74
-0.9198429 1.236544 0.1349171 43
-0.91216606 1.2397317 0.026806897 79
-0.90277845 1.2367158 0.079969339 84
-0.90872079 1.2386248 0.13404553 45
-0.89150029 1.23865 0.026457848 93
-0.89924103 1.2411666 0.079864666 100
-0.90328664 1.2424818 0.13369691 54
-0.88233966 1.2409294 0.02631823 100
-0.89767069 1.2459699 0.079864666 100
-0.90549725 1.2485431 0.13404553 77
-0.88068706 1.2459263 0.02631823 100
-0.89031488 1.2491291 0.079550654 100
-0.91327065 1.2567654 0.1349171 85
-0.89038855 1.2547443 0.026527658 93
-0.87916893 1.2509685 0.079027295 100
-0.90212089 1.2586927 0.13404553 77
-0.8849017 1.2584803 0.026457848 93
-0.88693494 1.2591726 0.079550654 100
-0.90229231 1.2644006 0.13421984 85
-0.8718434 1.2595799 0.02624842 93
-0.88710707 1.2648356 0.079655327 100
-0.88171929 1.2629805 0.13247673 100
-0.8625719 1.2619095 0.0261088 83
-0.87971252 1.2678785 0.079341307 100
-0.90068692 1.2751826 0.13439415 78
-0.86839086 1.2694943 0.02624842 79
-0.85912722 1.266232 0.07829459 70
-0.90267318 1.281567 0.13474278 42
-0.87040621 1.2757839 0.02631823 78
-0.84233421 1.2657878 0.077457212 29
-0.89524788 1.2846296 0.13421984 36
-0.86863214 1.2807389 0.02631823 96
-0.85374945 1.2753808 0.078189917 23
-0.88032049 1.284947 0.13299966 31
-0.85180789 1.2802163 0.026038991 99
-0.86699122 1.2857426 0.079027295 72
-0.87289757 1.2878923 0.13247673 18
-0.84644419 1.2832381 0.025969181 100
-0.85786539 1.2874358 0.07860861 100
-0.85817295 1.2875488 0.13125655 13
-0.83714598 1.2853239 0.025829561 100
-0.84107274 1.2867826 0.077771232 100
-0.88063747 1.301481 0.1335226 1
-0.84273583 1.2932175 0.025969181 100
-0.82047254 1.2848537 0.076724514 49
-0.87121946 1.3039181 0.13282534 1
-0.84463996 1.2994955 0.026038991 89
-0.84107357 1.2981415 0.077980578 51
-0.84699517 1.3003896 0.13073361 7
-0.82971412 1.2993463 0.025794657 72
-0.83922154 1.302994 0.077980578 57
-0.85629636 1.309545 0.13177948 39
-0.82785791 1.3041592 0.025794657 72
-0.84666365 1.3114498 0.078503937 68
-0.84511596 1.3108497 0.13090792 86
-0.82989746 1.3099426 0.025864467 83
-0.83007616 1.3100126 0.077666558 61
-0.85454243 1.319586 0.13195379 97
-0.82976872 1.315732 0.025899371 99
-0.8225159 1.3128633 0.077352546 76
-0.8358441 1.318135 0.130385 99
-0.83147293 1.32227 0.025969181 100
-0.81680793 1.3164074 0.0771432 91
-0.83012563 1.3217314 0.13003637 99
-0.8108986 1.3198388 0.025620133 100
-0.82961065 1.3273988 0.077980578 95
-0.82994157 1.3275325 0.13021068 100
-0.80166143 1.3213277 0.025480513 100
-0.82405597 1.3304621 0.077771232 100
-0.82808512 1.3321055 0.13021068 100
-0.79362875 1.3180511 0.17817298 21
-0.80332929 1.3278021 0.025550323 100
-0.80168039 1.3271224 0.076619841 100
-0.8168053 1.3333565 0.12933913 100
-0.77876383 1.3176769 0.17646681 16
-0.80536133 1.3333499 0.025620133 100
-0.78711146 1.3257644 0.075887136 100
-0.82248694 1.3404682 0.13003637 100
-0.78079909 1.3231409 0.17695428 20
-0.80697483 1.3398623 0.025689943 100
-0.79243129 1.3337548 0.076305822 100
-0.80201715 1.3377804 0.12829325 100
-0.79157466 1.333395 0.17866045 17
-0.79024941 1.3383501 0.025410704 100
-0.79045528 1.3384373 0.076305822 92
-0.80002695 1.3424964 0.12829325 100
-0.78411716 1.3357496 0.17792924 18
-0.79550976 1.3464082 0.025550323 64
-0.81039351 1.3527844 0.077561885 40
-0.8015824 1.3490098 0.12864187 56
-0.77838522 1.3390722 0.17744176 11
-0.80480832 1.3551552 0.025759751 71
-0.81415898 1.3591939 0.077875905 68
-0.83095282 1.3664473 0.13160518 31
-0.78580278 1.3469466 0.17866045 10
-0.80998605 1.3633155 0.025899371 100
-0.79917592 1.3585994 0.0771432 100
-0.8159743 1.3659279 0.130385 93
-0.78549868 1.3526325 0.17890419 26
-0.79886001 1.3637936 0.025724847 100
-0.80452853 1.366289 0.077561885 100
-0.81946117 1.3728626 0.13090792 100
-0.78900975 1.3594574 0.17963541 33
-0.79484731 1.3679211 0.025689943 100
-0.811459 1.3753066 0.078085244 100
-0.80631894 1.3730214 0.12986206 100
-0.78139859 1.3619417 0.17890419 28
-0.78738362 1.3699222 0.025585229 100
-0.81673342 1.3830879 0.078503937 100
-0.80431181 1.3775158 0.12986206 100
-0.76493865 1.3598537 0.17695428 22
-0.79974788 1.3814209 0.025864467 100
-0.81083864 1.3864448 0.07829459 100
-0.80570573 1.3841197 0.13021068 100
-0.7663843 1.3663075 0.17744176 18
-0.80135053 1.3875558 0.025934275 100
-0.80515379 1.3892938 0.078085244 100
-0.80728608 1.3902683 0.1305593 100
-0.75537223 1.366544 0.17622307 16
-0.79907805 1.3925046 0.025934275 100
-0.80831534 1.3967669 0.078399263 100
-0.80138534 1.3935692 0.13021068 100
-0.77841145 1.3829684 0.17963541 12
-0.79338044 1.3952872 0.025864467 100
-0.80985087 1.4029534 0.07860861 100
-0.79931015 1.3980472 0.13021068 100
-0.77097231 1.3848572 0.17890419 10
-0.78745991 1.3985057 0.025794657 100
-0.8219828 1.4147289 0.07944598 100
-0.80781847 1.4080727 0.13125655 100
-0.76691335 1.3888503 0.17866045 5
-0.79067844 1.4057409 0.025899371 100
-0.80889612 1.4143796 0.078817949 100
-0.80558282 1.4128084 0.13125655 100
-0.77012604 1.3959951 0.17939167 3
-0.79375046 1.4132407 0.026004085 100
-0.8011207 1.4167688 0.078503937 100
-0.81040615 1.4212136 0.13195379 100
-0.8025288 1.4226735 0.026213514 100
-0.80088097 1.4218783 0.07860861 100
-0.80117601 1.4220207 0.13125655 100
-0.79473418 1.4249992 0.0261088 100
-0.80566496 1.4303236 0.079027295 100
-0.7951948 1.4252236 0.13090792 100
-0.78896505 1.4276917 0.026038991 100
-0.81243116 1.4392182 0.079550654 100
-0.80374438 1.4349513 0.13195379 100
-0.79394442 1.4356786 0.02617861 100
-0.80125576 1.4393001 0.079027295 100
-0.80510265 1.4412055 0.13230242 100
-0.79519027 1.4421535 0.02624842 100
-0.79712456 1.44312 0.078922622 100
-0.81700975 1.4530561 0.13369691 100
-0.80009729 1.4502096 0.026388038 100
-0.80201966 1.4511781 0.079341307 100
-0.80406123 1.4522066 0.13265105 100
-0.78689986 1.4497156 0.02617861 100
-0.80485505 1.4588444 0.079655327 100
-0.80155164 1.457165 0.13265105 100
-0.78463846 1.4541452 0.02617861 100
-0.80789536 1.4660668 0.079969339 100
-0.79926556 1.4616431 0.13265105 100
-0.79265779 1.4647789 0.026388038 100
-0.80343884 1.4703577 0.079864666 100
-0.81252545 1.4750597 0.13421984 100
-0.79389232 1.4710773 0.026457848 100
-0.8011089 1.4748421 0.079864666 100
-0.81017989 1.4795742 0.13421984 100
-0.79143685 1.475764 0.026457848 96
-0.79510528 1.477694 0.079655327 100
-0.80769473 1.4843178 0.13421984 100
-0.77848953 1.4745868 0.02624842 46
-0.79627997 1.4840224 0.079864666 51
-0.79123729 1.4813479 0.13282534 90
0.1305128 1.2922966 0.011693113 11
0.13727728 1.2838743 0.03454173 27
0.098359555 1.3323301 0.063100755 19
0.13815725 1.2827786 0.12784202 17
0.1851325 1.2242905 0.13452072 7
0.13627675 1.28512 0.17703223 6
0.15727353 1.2624886 0.010995016 38
0.16273296 1.2556424 0.032552965 59
0.15498179 1.2653625 0.055431053 49
0.15395325 1.2666523 0.077996381 14
0.15342844 1.2673104 0.10074379 11
0.14362177 1.2796082 0.12669717 58
0.19765535 1.2118489 0.13047162 16
0.14650854 1.2759881 0.17340876 14
0.16130635 1.2605852 0.010925206 100
0.17914438 1.2380712 0.031296901 94
0.15777728 1.2650394 0.055256739 99
0.15428272 1.2694499 0.078240119 28
0.1770739 1.2406844 0.095112152 38
0.158636 1.2639556 0.12249938 100
0.19057387 1.2236456 0.13362093 31
0.14810014 1.2772533 0.17340876 28
0.16302118 1.261939 0.010925206 100
0.17707598 1.2440722 0.031610917 100
0.15334848 1.2742352 0.056128297 97
0.16339248 1.261467 0.076777689 29
0.16894862 1.2544038 0.097615108 37
0.17250085 1.2498882 0.1186832 100
0.18493047 1.2340872 0.13632034 45
0.15584528 1.2710612 0.17082056 43
0.17221034 1.2538968 0.010715778 100
0.17021245 1.2564558 0.032343622 100
0.16010362 1.2694038 0.055431053 100
0.1615316 1.2675748 0.077508904 29
0.18774527 1.2339987 0.093234941 39
0.17788672 1.2466261 0.11753834 100
0.17943853 1.2446384 0.13901976 36
0.15530673 1.275548 0.17185585 43
0.1714516 1.2583736 0.010785587 100
0.1853722 1.2404143 0.03119223 63
0.15940803 1.2739112 0.055779677 73
0.17299986 1.2563761 0.07555899 30
0.17484501 1.2539957 0.096989371 25
0.18556648 1.2401636 0.11563025 60
0.18826073 1.2366878 0.13632034 30
0.14642221 1.2906644 0.1765146 34
0.17551285 1.2564571 0.010715778 66
0.18937084 1.2384555 0.030982886 63
0.1659427 1.2688887 0.055082429 50
0.18188035 1.2481858 0.07409656 61
0.19091198 1.2364537 0.093234941 39
0.16796604 1.2662604 0.12173614 12
0.19813153 1.2270756 0.13317102 23
0.1505079 1.2889384 0.17547931 49
0.17235601 1.2641165 0.010855397 39
0.16917768 1.2682751 0.032866981 29
0.17131606 1.2654772 0.054559495 50
0.17993551 1.2541994 0.074827775 45
0.19374192 1.2361348 0.092922069 53
0.18877521 1.2426333 0.11563025 13
0.20209587 1.2252043 0.13227122 31
0.16639888 1.2719109 0.16926765 59
0.17416957 1.2654973 0.010855397 65
0.15169474 1.2951283 0.03454173 27
0.1731346 1.2668619 0.054559495 50
0.18531156 1.2508076 0.07409656 76
0.19903407 1.2327158 0.091983467 53
0.19288281 1.2408257 0.11486702 13
0.20376661 1.2264764 0.13227122 31
0.17641327 1.2625393 0.16564418 68
0.18552458 1.2540267 0.010576159 40
0.18236437 1.2582234 0.032029606 30
0.17247429 1.2713575 0.054908119 50
0.19296265 1.2441489 0.072877869 94
0.19589835 1.2402502 0.093234941 53
0.19334748 1.2436378 0.11524864 13
0.20536211 1.2276822 0.13227122 31
0.18045899 1.2607539 0.16460891 69
0.18482175 1.2584993 0.010645968 53
0.17450404 1.2723012 0.032866981 29
0.18138424 1.2630976 0.053862248 51
0.19461992 1.2453922 0.072877869 94
0.19399375 1.2462299 0.094173551 52
0.2020559 1.2354451 0.11295892 13
0.20929542 1.2257608 0.13137141 31
0.18101761 1.2635881 0.16512655 76
0.18533745 1.2613767 0.010680873 80
0.18816227 1.2575704 0.03182026 61
0.1736089 1.2771809 0.055256739 49
0.20219654 1.2386594 0.071659178 80
0.20743042 1.2316068 0.091044858 68
0.20368272 1.2366569 0.11295892 13
0.21321109 1.2238176 0.13047162 32
0.17238131 1.2788351 0.16978529 66
0.18934169 1.2593639 0.010611063 81
0.2051852 1.2378664 0.030459527 65
0.18238509 1.268803 0.054210871 76
0.19433087 1.2525942 0.073609084 62
0.20661914 1.2359207 0.091670595 81
0.20290262 1.2409635 0.11372216 13
0.21471784 1.2249318 0.13047162 24
0.18897036 1.2598677 0.163056 70
0.19105208 1.2606198 0.010611063 94
0.21153769 1.2326195 0.03004084 66
0.18765777 1.2652593 0.053687938 78
0.19836187 1.2506286 0.073121607 93
0.21291319 1.2307395 0.090419121 82
0.21034485 1.2342498 0.11181407 14
0.22436252 1.2150902 0.1273223 16
0.1929639 1.2580066 0.16202073 70
0.19503179 1.2585719 0.010541254 81
0.19781217 1.254745 0.031401575 62
0.18344662 1.2745174 0.054559495 100
0.20695847 1.2421561 0.071659178 80
0.20050973 1.2510321 0.094173551 100
0.21188623 1.2353737 0.11181407 14
0.23614925 1.2019784 0.12327318 17
0.19231313 1.2623137 0.163056 70
0.19907886 1.2565641 0.010471444 96
0.21002123 1.2413923 0.030459527 97
0.18520996 1.2757939 0.054559495 100
0.20860869 1.2433507 0.071659178 64
0.21259058 1.2378297 0.09135773 94
0.21351275 1.236551 0.11181407 14
0.24221879 1.1967492 0.12147357 17
0.19516385 1.2619925 0.16253836 70
0.19853699 1.2610993 0.010541254 81
0.20826414 1.2475077 0.030773543 96
0.18706623 1.2771275 0.054559495 100
0.21265647 1.2413702 0.071171694 65
0.21085864 1.2438824 0.092296332 100
0.20608437 1.2505534 0.11486702 13
0.23471192 1.2105522 0.12507279 8
0.19022366 1.2727156 0.16564418 68
0.19330478 1.2721045 0.010750682 79
0.20877632 1.2503259 0.030878214 95
0.19576186 1.2686458 0.053513627 100
0.20970535 1.2490182 0.072146654 63
0.22281101 1.2305698 0.089480512 100
0.19866794 1.264555 0.11791996 19
0.2306087 1.2195934 0.1273223 16
0.19981235 1.2629441 0.16202073 70
0.20419329 1.2602122 0.010471444 82
0.20921975 1.2530868 0.030982886 63
0.20315978 1.2616774 0.05264207 79
0.21129569 1.250144 0.072146654 79
0.21864676 1.2397232 0.091044858 100
0.20596829 1.257696 0.11601187 53
0.22873142 1.2254273 0.128672 24
0.20590326 1.2577882 0.15995017 72
0.21508238 1.2483119 0.010192205 99
0.22007275 1.2411849 0.030145511 98
0.19916421 1.2710454 0.053513627 100
0.21980539 1.2415668 0.070684217 65
0.2236875 1.2360225 0.090106249 100
0.20992494 1.2556776 0.11524864 100
0.22249883 1.2377201 0.13182132 55
0.20760804 1.2589864 0.15995017 72
0.21447155 1.2527622 0.010262015 98
0.21716005 1.248894 0.030564198 64
0.20318949 1.2689949 0.053165004 100
0.2237193 1.2394564 0.07019674 82
0.22306147 1.2404029 0.090731993 100
0.22394735 1.2391284 0.11105084 84
0.22190914 1.2420609 0.13272113 94
0.20711195 1.2633512 0.16098544 72
0.20934567 1.2638066 0.010471444 96
0.22563854 1.2401887 0.029936166 99
0.1958825 1.2833226 0.054559495 100
0.22310555 1.2438605 0.070684217 81
0.22021866 1.2480452 0.091983467 100
0.21889797 1.2499597 0.11334054 100
0.22909185 1.2351829 0.13047162 96
0.2033512 1.272496 0.16357364 69
0.21333095 1.2616928 0.010401634 97
0.22389662 1.246262 0.030250182 98
0.21118408 1.2648282 0.052467756 100
0.22251862 1.2482746 0.071171694 81
0.22300538 1.2475636 0.091670595 100
0.22057536 1.2511126 0.11334054 96
0.23181856 1.2346923 0.13002171 88
0.2127474 1.262545 0.15995017 72
0.22516531 1.2479798 0.010087491 71
0.23005158 1.2407899 0.029831495 66
0.21515322 1.2627121 0.052119136 81
0.21749538 1.2592657 0.072634131 78
0.2346673 1.2339979 0.088854775 98
0.2266708 1.2457645 0.11181407 98
0.23015651 1.2406354 0.13137141 94
0.21989805 1.2557303 0.15736198 90
0.22227812 1.2556849 0.01022711 42
0.22156024 1.2567487 0.030773543 32
0.21567452 1.2654713 0.052293446 53
0.23022303 1.2439104 0.07019674 66
0.2284734 1.2465034 0.091044858 100
0.22825027 1.246834 0.11181407 91
0.23171896 1.2416935 0.13137141 94
0.21286616 1.2696333 0.16150309 78
0.22620088 1.2535028 0.0101573 42
0.22326133 1.2578921 0.030773543 32
0.20853692 1.2798789 0.053687938 52
0.23629758 1.2384262 0.069221787 100
0.23233703 1.2443402 0.090419121 100
0.23428643 1.2414293 0.1102876 85
0.2311987 1.24604 0.13227122 100
0.21783713 1.2659917 0.15995017 72
0.22559163 1.2579043 0.01022711 28
0.23151609 1.248994 0.030145511 32
0.21353906 1.2760311 0.053165004 52
0.231258 1.2493821 0.070684217 81
0.23500547 1.243746 0.090106249 96
0.2315034 1.2490131 0.11181407 91
0.24572685 1.2276213 0.12687239 99
0.21948373 1.2670904 0.15995017 72
0.21848568 1.2723861 0.010506349 27
0.20898929 1.2867773 0.032448292 29
0.22628102 1.2605729 0.051421888 55
0.23511997 1.2471781 0.07019674 66
0.24536493 1.2316526 0.087603301 99
0.22777089 1.2583151 0.11372216 100
0.24410617 1.2335602 0.12822211 97
0.22547695 1.2617915 0.15787962 73
0.22681463 1.263503 0.010296919 28
0.22173733 1.271256 0.031401575 31
0.23127002 1.2566996 0.050898954 55
0.23352492 1.2532563 0.070927955 97
0.24589604 1.2343657 0.087916173 98
0.23915762 1.2446553 0.1102876 92
0.23825276 1.246037 0.13137141 94
0.22931236 1.259689 0.15684435 74
0.23507744 1.2545679 0.010087491 43
0.232196 1.2590015 0.030564198 32
0.22319943 1.2728443 0.052467756 53
0.24062243 1.2460358 0.069709264 83
0.2421366 1.243706 0.089480512 97
0.24830523 1.2342143 0.10761628 87
0.23991635 1.2471223 0.13137141 94
0.22786546 1.2656648 0.15839726 73
0.24335685 1.2456347 0.0098780617 44
0.2556349 1.2265902 0.02847076 35
0.22612423 1.2723643 0.052293446 53
0.23806673 1.2538402 0.070684217 81
0.24494526 1.243171 0.089167647 84
0.23298791 1.261718 0.11372216 100
0.25328246 1.2302392 0.12642249 99
0.22759077 1.2700895 0.15943253 73
0.23855296 1.256809 0.010087491 57
0.24969599 1.2393918 0.029203463 68
0.22787976 1.2734917 0.052293446 53
0.24510655 1.2465653 0.069465525 66
0.25085706 1.237577 0.087916173 84
0.24740264 1.2429764 0.10914274 85
0.25384057 1.2329135 0.12687239 99
0.22517392 1.2777212 0.16150309 70
0.23596701 1.2646461 0.01022711 70
0.24384296 1.2522402 0.029936166 99
0.23391074 1.267885 0.051596198 54
0.2425161 1.2543302 0.070440479 49
0.25672603 1.2319477 0.086664692 71
0.23958519 1.2589468 0.1125773 82
0.2575472 1.2306541 0.12597258 90
0.23626697 1.2641735 0.15684435 66
0.24089321 1.2606633 0.010122396 85
0.25085109 1.2448566 0.029412808 100
0.24414653 1.2554991 0.050201707 56
0.2399762 1.2621189 0.071415432 48
0.25834033 1.2329686 0.086664692 57
0.24547967 1.2533829 0.11105084 98
0.25707951 1.2349699 0.12687239 99
0.24005333 1.2619965 0.15580906 67
0.25198129 1.2463745 0.0098082526 74
0.24810728 1.2525669 0.029831495 99
0.25095671 1.2480122 0.049330149 87
0.24994633 1.2496272 0.069465525 49
0.25560555 1.2405812 0.087916173 70
0.2615771 1.2310357 0.10570818 81
0.25544107 1.240844 0.12822211 97
0.23750219 1.2695189 0.15787962 65
0.24626347 1.2593046 0.010052586 86
0.25400701 1.2468302 0.029412808 100
0.23371294 1.2795229 0.052467756 80
0.25371623 1.2472986 0.068978049 50
0.26141724 1.2348926 0.086664692 71
0.25283396 1.2487199 0.10952436 85
0.2642808 1.2302796 0.12507279 92
0.23721001 1.2738893 0.15891489 65
0.25216812 1.2535512 0.0099129668 87
0.25986296 1.2410582 0.028994121 100
0.23549342 1.2806239 0.052467756 80
0.24913785 1.2584711 0.070440479 49
0.26304176 1.2358972 0.086664692 57
0.25862518 1.2430677 0.10799789 79
0.26384526 1.2345927 0.12597258 99
0.23897082 1.2749782 0.15891489 65
0.24134478 1.2750635 0.010331824 84
0.25942606 1.2454765 0.029203463 100
0.24558932 1.2681181 0.051073264 83
0.24773934 1.2645999 0.071171694 65
0.26672995 1.2335249 0.086038955 58
0.25208828 1.2574836 0.11105084 84
0.26953346 1.2289374 0.12417299 83
0.24677968 1.2661703 0.15580906 67
0.24941698 1.2659308 0.010122396 85
0.25910026 1.2499543 0.029412808 100
0.25671142 1.2538958 0.049504463 86
0.25572774 1.2555187 0.069709264 49
0.26843074 1.23456 0.086038955 72
0.25591218 1.2552143 0.1102876 85
0.2671771 1.2366284 0.12597258 82
0.2506029 1.2639742 0.15477379 67
0.26351613 1.2464125 0.0097035384 90
0.26077738 1.2509669 0.029412808 100
0.25018829 1.2685761 0.050898954 83
0.25537831 1.2599454 0.07019674 33
0.27107206 1.2338471 0.08572609 58
0.27278376 1.2310007 0.10456333 67
0.26679915 1.240953 0.12687239 90
0.25232902 1.2650162 0.15477379 67
0.25698465 1.261148 0.0099827768 87
0.26450461 1.2485431 0.029203463 100
0.24784732 1.2764637 0.051596198 100
0.26014149 1.2558565 0.069465525 49
0.26763254 1.2433001 0.087290429 57
0.26835951 1.2420816 0.10685304 81
0.27743062 1.2268767 0.12282328 85
0.25207922 1.2693703 0.15580906 67
0.25870085 1.2621678 0.0099827768 87
0.26617676 1.2495368 0.029203463 100
0.24758744 1.2809446 0.051944822 81
0.26386139 1.2534487 0.068978049 50
0.27129868 1.240883 0.086664692 57
0.26400927 1.2531989 0.10914274 78
0.28101221 1.2244713 0.12192347 85
0.2607379 1.2587261 -0.0099129668 87
0.25185624 1.2737322 0.15684435 66
0.26134735 1.2614068 0.0099478718 73
0.26776853 1.2504753 0.029203463 100
0.26139286 1.2613294 0.049853086 85
0.2634553 1.2578182 0.069465525 49
0.2808657 1.2281785 0.084161744 59
0.26461884 1.2558374 0.10952436 78
0.27955976 1.2304018 0.12327318 85
0.26135594 1.2613922 0.15270324 68
0.26004407 1.2675947 0.010052586 86
0.27045298 1.2497319 0.029098792 100
0.26511589 1.2588909 0.049504463 86
0.27315536 1.2450943 0.067515619 51
0.28047758 1.2325287 0.084787481 73
0.27125868 1.2483492 0.10761628 79
0.27920622 1.2347105 0.12417299 83
0.26307297 1.2623968 0.15270324 68
0.27379182 1.2478286 0.0096337283 90
0.2671316 1.2593505 0.029622151 100
0.26582709 1.2616073 0.049678773 86
0.27282855 1.249495 0.068003096 51
0.27616227 1.2437279 0.086664692 57
0.27489516 1.2459199 0.10685304 88
0.28180528 1.2339656 0.12372308 83
0.26479352 1.2633953 0.15270324 68
0.27446672 1.2505246 0.0096686333 75
0.27380893 1.2516718 0.029098792 100
0.26159841 1.2729666 0.05072464 100
0.27450398 1.2504597 0.068003096 51
0.27486971 1.2498218 0.087603301 57
0.27558154 1.2485805 0.10723466 81
0.28439581 1.2332085 0.12327318 76
0.2645956 1.2677397 0.15373851 68
0.27416846 1.2549599 0.0097384425 75
0.28339148 1.2387443 0.028261416 100
0.26237082 1.2757022 0.050898954 83
0.27814561 1.2479674 0.067515619 51
0.28045276 1.243911 0.086351827 58
0.27045938 1.261481 0.10990598 85
0.2908316 1.2256632 0.12102367 86
0.26724797 1.2671274 -0.0099827768 86
0.26824498 1.2653744 0.15270324 68
0.27095011 1.2646281 0.0099129668 87
0.27717835 1.2535882 0.029098792 100
0.27196965 1.2628208 0.049504463 86
0.27201253 1.2627449 0.069465525 49
0.2879324 1.2345262 0.084474608 59
0.27314132 1.260744 0.10952436 78
0.29242373 1.2265651 0.12102367 86
0.27291527 1.2611448 -0.0098431576 87
0.27187434 1.2629898 0.15166797 69
0.27959815 1.2534308 0.0096686333 75
0.28285256 1.2476125 0.028680105 100
0.27766824 1.2568811 0.048807215 88
0.27769661 1.2568305 0.068490572 50
0.29252964 1.2303116 0.083536007 60
0.28356737 1.2463346 0.1060898 81
0.29029363 1.2343092 0.12282328 85
0.27178872 1.2673926 -0.0099478718 75
0.27556923 1.2606338 0.15063268 70
0.28419754 1.2491258 0.0095639192 91
0.28064579 1.2555281 0.029098792 100
0.28033596 1.2560866 0.048632905 88
0.28324962 1.2508345 0.067515619 51
0.28551346 1.2467538 0.086351827 58
0.28427932 1.2489784 0.10647142 88
0.29380667 1.2318047 0.12192347 76
0.27728355 1.2615888 0.15063268 78
0.28281033 1.2552135 0.0096686333 75
0.29180652 1.2388766 0.028052073 100
0.27898121 1.2621671 0.049155839 87
0.28667659 1.2481924 0.067028143 51
0.29272965 1.2372001 0.084474608 59
0.28199735 1.2566898 0.10799789 79
0.29431874 1.2343143 0.12237337 76
0.27412906 1.2709786 -0.0099827768 86
0.2713744 1.2759811 0.15477379 67
0.28450567 1.2561432 0.0096686333 60
0.2896156 1.2467865 0.02847076 100
0.27879092 1.2666074 0.049504463 86
0.28073567 1.2630464 0.068978049 50
0.29436204 1.2380953 0.084474608 59
0.28087485 1.2627915 0.10914274 85
0.29874319 1.2300731 0.12102367 86
0.28163028 1.2614083 -0.0097733475 88
0.27314228 1.2769506 0.15477379 75
0.28334725 1.2623421 0.0097733475 89
0.29318383 1.2441801 0.028261416 100
0.28147492 1.2657992 0.049330149 87
0.28623989 1.2570012 0.068003096 51
0.29881981 1.2337739 0.083536007 60
0.28633657 1.2568227 0.10761628 72
0.27953792 1.2693756 -0.0099129668 87
0.28043368 1.2677217 0.15166797 69
0.28601363 1.2615082 0.0097384425 75
0.28917038 1.2556309 0.028889447 100
0.29263452 1.249181 0.047587037 90
0.28794146 1.257919 0.068003096 51
0.29268223 1.2490922 0.10570818 81
0.28317508 1.2667933 -0.0098431576 87
0.28400087 1.2652557 0.15063268 78
0.29259992 1.2536918 0.0095639192 91
0.29103699 1.2566288 0.028889447 100
0.2963483 1.2466481 0.047238413 91
0.29168195 1.2554168 0.067515619 51
0.28408939 1.2696843 0.15166797 69
0.29522315 1.2528187 0.0095290141 76
0.28900877 1.2645954 0.029308135 100
0.28685558 1.2686758 0.049330149 87
0.29893655 1.2457815 0.066053182 52
0.29832155 1.2469471 0.085413218 58
0.29620105 1.2509656 0.10570818 73
0.28403208 1.2740265 0.15270324 68
0.2950559 1.2572488 0.0095988233 76
0.28675053 1.273122 0.049678773 86
0.29323646 1.260726 0.068003096 51
0.29606113 1.2553276 0.10647142 81
0.28937554 1.268105 0.15063268 70
0.29031211 1.270561 0.0098431576 88
0.29860762 1.254571 0.067028143 51
0.29956499 1.2527256 0.10570818 73
0.29307476 1.2652359 -0.0097384425 99
0.29467437 1.2621526 0.14856213 71
0.29831395 1.2588882 0.067515619 51
0.28914008 1.2767081 -0.0099478718 100
0.29975876 1.2560818 0.14649157 72
0.29576594 1.2681024 0.029308135 100
0.29618755 1.2672764 0.14959741 78
0.29966938 1.2647119 0.14856213 71
0.29804704 1.2722623 -0.0098082526 100
0.29890719 1.2793899 -0.0099129668 100
